# .PCD v0.7 - Point Cloud Data file format
VERSION 0.7
FIELDS x y z
SIZE 4 4 4
TYPE F F F
COUNT 1 1 1
WIDTH 90
HEIGHT 1
VIEWPOINT 0 0 0 1 0 0 0
POINTS 90
DATA ascii
0.019858999 0.079682998 -0.019416999
0.028422 0.079714999 -0.0085420003
0.021954 0.079714999 -0.017844001
0.010115 0.079714999 -0.024724999
-0.019664999 0.079714999 -0.017036
-0.022562999 0.079714999 -0.013508
-0.021186 0.079714999 0.020291001
-0.019664999 0.079714999 0.021999
0.014419 0.079714999 0.02802
0.02744 0.079714999 0.015554
0.02987 0.079714999 0.0092080003
-0.020879 0.081662998 0.020051001
0.020726001 0.089215003 -0.014109
0.00051899999 0.089215003 -0.022515999
0.030035 0.081924997 0.002481
-0.003638 0.079714999 0.03049
-0.02275 0.089215003 -0.0054410002
-0.024068 0.089215003 0.002481
-0.018929999 0.089215003 0.017511001
0.00051899999 0.089215003 0.027479
-0.0081150001 0.079714999 -0.024371
0.024234001 0.089215003 0.014108
0.01078 0.090603001 -0.020231999
0.020086 0.092858002 -0.011121
0.00061599998 0.092858002 -0.020143
-0.0045719999 0.092179999 -0.020129999
-0.020102 0.089215003 -0.01089
-0.020881999 0.092179999 0.010675
-0.020352 0.093671001 -0.0036309999
0.020347999 0.087223001 0.021206999
-0.0075340001 0.089215003 -0.020911001
-0.020226 0.094507001 0.002481
0.030328 0.079714999 -0.0020270001
0.02014 0.096376002 0.010107
0.020041 0.097581998 -0.00041499999
-0.011255 0.087223001 -0.020568
0.000971 0.079714999 0.030939
-0.010742 0.098075002 -0.010016
0.0096039996 0.079682998 0.029634999
-0.003237 0.097581998 0.020161999
0.020276999 0.097581998 0.002481
0.011948 0.099809997 -0.0080899997
0.010634 0.089215003 -0.020911001
0.001239 0.099683002 -0.01278
-0.012609 0.099683002 -0.0039849998
-0.01018 0.095071003 0.020095
0.030696001 0.079714999 0.002481
0.010608 0.099266 -0.010334
-0.014068 0.099683002 0.001874
0.00094599999 0.099809997 0.017127
-0.0081150001 0.079714999 0.029333999
-0.012038 0.099683002 0.010026
0.011948 0.099809997 0.013053
0.001024 0.10079 -0.010268
-0.001883 0.081924997 0.030096
-0.010214 0.101365 -0.000802
-0.027573001 0.079714999 0.00135
-0.003082 0.100578 -0.010387
0.014359 0.089215003 -0.019184999
0.010453 0.096376002 0.020148
0.001178 0.097581998 0.020765999
-0.010005 0.100578 0.010144
-0.026474001 0.079714999 0.010303
-0.010675 0.101365 0.0029559999
-0.01434 0.079714999 -0.021379
0.010115 0.101365 0.011014
-0.016195999 0.089215003 0.020524001
0.010409 0.102041 -0.002904
-0.016195999 0.089215003 -0.015562
0.024234001 0.089215003 -0.009145
0.021954 0.079714999 0.022807
-0.0059039998 0.099683002 -0.010936
-0.001925 0.102605 0.010132
0.00138 0.102605 0.010849
0.027168 0.089215003 0.002481
0.01012 0.102605 0.002481
-0.026474001 0.079714999 -0.0053400001
-0.001836 0.103386 -0.000634
-0.0088480003 0.099809997 0.013053
0.016559999 0.099809997 0.002481
0.000971 0.079714999 -0.025976
0.001498 0.103599 -5.7000001e-05
-0.02275 0.089215003 0.010404
0.00098899996 0.083570004 0.030052001
-0.0088480003 0.099809997 -0.0080899997
0.010235 0.075723998 0.030069999
0.00155 0.103693 0.002481
-0.0094320001 0.089215003 0.025084
-0.0010479999 0.103599 0.0025820001
0.012532 0.089215003 0.025084
