# .PCD v0.7 - Point Cloud Data file format
VERSION 0.7
FIELDS x y z
SIZE 4 4 4
TYPE F F F
COUNT 1 1 1
WIDTH 79
HEIGHT 1
VIEWPOINT 0 0 0 1 0 0 0
POINTS 79
DATA ascii
-0.030100999 0.082529001 -0.010173
-0.030196 0.079648003 -0.013904
-0.02844 0.079648003 -0.016917
-0.020457 0.085276 -0.020200999
-0.024904 0.079648003 -0.021226
-0.010543 0.090342999 -0.020065
-0.012175 0.094780996 -0.01011
-0.012617 0.089750998 -0.020001
-0.0096570002 0.079648003 -0.029137
-0.0080739995 0.090906002 -0.020013001
6.6000001e-05 0.079648003 -0.029137
0.00017100001 0.089750998 -0.020943999
0.003487 0.089750998 -0.019803001
0.010004 0.086025 -0.020082001
0.010006 0.092174999 -0.010491
8.7e-05 0.095200002 -0.010253
0.020284001 0.079648003 -0.014523
0.013681 0.089750998 -0.0098569999
0.010096 0.093264997 -0.0052390001
0.022417 0.079648003 -0.0093729999
0.015588 0.089750998 0.00038499999
0.020176999 0.084895 0.000109
0.010107 0.093474999 0.00034999999
0.020019 0.084895 -0.0041789999
-0.010548 0.076716997 -0.030037001
0.010075 0.091176003 0.010487
0.010007 0.089750998 0.012975
0.010418 0.079648003 0.022907
-0.0055049998 0.078392997 -0.030001
-0.0083339997 0.096391 -0.0046569998
0.010152 0.083728001 0.020105001
0.00017100001 0.089750998 0.018708
-0.019415 0.079648003 -0.025509
0.00049399998 0.088481002 0.02
0.020605 0.079648003 0.011668
-0.0084600002 0.088808998 0.020001
6.9000002e-05 0.096171997 -0.0051099998
-0.0081719998 0.094780996 0.010013
-0.020128001 0.091937996 -0.010308
-0.019415 0.079648003 0.023273
6.6000001e-05 0.096390001 9.9999997e-05
-0.0069269999 0.096753001 2.1e-05
-0.010085 0.088481002 0.02
0.000166 0.094562002 0.010075
-0.019939 0.089750998 0.012608
0.020004001 0.082932003 -0.010684
0.010418 0.079648003 -0.025142999
-0.0096570002 0.079648003 0.026900001
-0.0097620003 0.089750998 -0.020943999
-0.012243 0.094120003 0.010027
6.6000001e-05 0.079648003 0.026900001
0.020214999 0.081306003 0.010711
-0.0097620003 0.089750998 0.018708
-0.02337 0.079648003 0.020415001
-0.020198001 0.090906002 0.010305
0.015313 0.079648003 0.018990001
-0.030793 0.079648003 0.010406
-0.03238 0.079648003 -0.0080279997
0.010007 0.089750998 -0.015211
-0.030084999 0.084509999 0.000124
0.023607001 0.079648003 0.00027700001
-0.024202 0.089750998 -0.0075289998
-0.025179001 0.089750998 0.00038499999
0.016736999 0.079648003 -0.019692
0.00022 0.077136002 -0.030022001
-0.021788999 0.089750998 -0.012473
-0.021788999 0.089750998 0.010237
-0.012856 0.095578998 -0.0051759998
-0.020629 0.082932003 0.020230999
-0.012362 0.095903002 4e-06
-0.029874999 0.079648003 0.012287
-0.030089 0.081306003 0.010094
-0.020017 0.093053997 -0.0057359999
-0.019247999 0.089750998 -0.01557
-0.033197999 0.079648003 0.00027700001
1.5e-05 0.090342999 -0.020324999
-0.0085070003 0.095395997 -0.010078
-0.030046999 0.084509999 -0.0029810001
-0.020205 0.093264997 1.8999999e-05
