# .PCD v0.7 - Point Cloud Data file format
VERSION 0.7
FIELDS x y z
SIZE 4 4 4
TYPE F F F
COUNT 1 1 1
WIDTH 1334
HEIGHT 1
VIEWPOINT 0 0 0 1 0 0 0
POINTS 1334
DATA ascii
-0.20798478 -0.077436827 0.449525
-0.20757741 -0.077587642 0.4504005
-0.20718163 -0.077743992 0.4513081
-0.2067983 -0.077906258 0.45225009
-0.20642899 -0.078075126 0.45323035
-0.20607416 -0.078250825 0.45425031
-0.20573643 -0.078434445 0.45531625
-0.2054171 -0.078626581 0.4564316
-0.20511959 -0.078828655 0.45760465
-0.20484589 -0.079041548 0.45884049
-0.20459789 -0.079266123 0.46014416
-0.20438668 -0.079506829 0.4615415
-0.20421305 -0.079764195 0.46303552
-0.2040925 -0.080044493 0.46466264
-0.2040332 -0.080351219 0.46644321
-0.20406127 -0.080695041 0.4684391
-0.20421652 -0.081092216 0.47074476
-0.2045939 -0.08158128 0.47358379
-0.20550777 -0.082289279 0.47769374
-0.12062237 -0.071772188 0.41664147
-0.11827783 -0.070818387 0.41110459
-0.11688168 -0.070423983 0.40881506
-0.11566937 -0.070136026 0.40714347
-0.11455458 -0.06990391 0.40579602
-0.11350254 -0.069707349 0.40465495
-0.11249648 -0.069536664 0.40366411
-0.11152562 -0.069385648 0.40278748
-0.11058395 -0.069250934 0.40200546
-0.10966709 -0.069130078 0.40130386
-0.10876975 -0.069020011 0.40066493
-0.10789132 -0.068920538 0.40008751
-0.10702777 -0.068829305 0.39955789
-0.10617851 -0.068746082 0.39907476
-0.10534156 -0.068669751 0.39863166
-0.10451591 -0.06859979 0.39822552
-0.10370131 -0.068536162 0.39785615
-0.10289644 -0.068478115 0.3975192
-0.10210019 -0.068425037 0.39721107
-0.10131193 -0.068376601 0.39692992
-0.10053131 -0.068332672 0.39667487
-0.099757969 -0.068293095 0.39644513
-0.098991819 -0.068257898 0.39624083
-0.098231949 -0.068226553 0.39605886
-0.097478032 -0.068198919 0.39589843
-0.096729688 -0.068174794 0.39575842
-0.095986567 -0.06815403 0.39563787
-0.095248707 -0.068136714 0.39553735
-0.09451548 -0.068122476 0.3954547
-0.093787029 -0.068111494 0.39539093
-0.09306287 -0.068103477 0.39534441
-0.092343099 -0.068098582 0.39531597
-0.091627337 -0.068096586 0.39530438
-0.090915449 -0.068097457 0.39530945
-0.090207212 -0.068101093 0.39533058
-0.089502722 -0.06810765 0.39536864
-0.088801645 -0.068116926 0.39542246
-0.088104069 -0.068129063 0.39549291
-0.087409645 -0.068143845 0.39557874
-0.086718366 -0.068161346 0.39568034
-0.086030178 -0.068181597 0.39579788
-0.085344918 -0.068204515 0.39593095
-0.084662452 -0.068230078 0.39607933
-0.083983012 -0.068258539 0.39624453
-0.083306201 -0.06828963 0.39642504
-0.082631983 -0.068323411 0.39662114
-0.081960522 -0.06836009 0.39683405
-0.081291638 -0.068399571 0.39706326
-0.080625363 -0.068441972 0.39730939
-0.079961762 -0.068487428 0.39757326
-0.079300471 -0.0685357 0.39785349
-0.078641675 -0.068587027 0.39815146
-0.077985361 -0.068641499 0.39846763
-0.077331349 -0.068699017 0.39880154
-0.076679826 -0.068759844 0.39915463
-0.076030925 -0.068824202 0.39952824
-0.075384468 -0.068892024 0.39992195
-0.074740551 -0.068963505 0.40033689
-0.074099436 -0.069038987 0.4007751
-0.07346075 -0.069118246 0.40123519
-0.072824851 -0.069201723 0.40171978
-0.072191276 -0.069289118 0.4022271
-0.071560867 -0.069381349 0.4027625
-0.070933253 -0.069478214 0.40332481
-0.070309222 -0.069580629 0.40391937
-0.069688298 -0.069688298 0.40454435
-0.069070935 -0.069801845 0.40520352
-0.068457343 -0.069921672 0.40589911
-0.067848086 -0.070048571 0.40663576
-0.067243077 -0.070182666 0.4074142
-0.066643722 -0.070325695 0.40824449
-0.066049583 -0.070477486 0.40912566
-0.065461837 -0.07063961 0.41006678
-0.064882092 -0.07081417 0.41108012
-0.06431184 -0.071003243 0.41217771
-0.063752733 -0.071209192 0.41337326
-0.06320782 -0.071436062 0.41469023
-0.062681727 -0.071689881 0.41616368
-0.062181927 -0.07198029 0.41784951
-0.061725434 -0.072328575 0.41987133
-0.061349049 -0.07278055 0.42249507
-0.061281998 -0.073615476 0.42734188
0.18443571 -0.059007067 0.34253925
0.18370271 -0.058576323 0.34003875
0.18327095 -0.058244176 0.33811063
0.18299699 -0.057964221 0.33648548
0.18282299 -0.05771767 0.33505422
0.18271594 -0.057493813 0.33375472
0.18265978 -0.057287384 0.3325564
0.18264559 -0.057095431 0.33144209
0.18266757 -0.056915995 0.33040047
0.18271615 -0.056745987 0.32941356
0.18278843 -0.056584425 0.32847568
0.18288091 -0.056430135 0.32758
0.18299252 -0.056282725 0.32672429
0.18312116 -0.056141477 0.32590434
0.18326418 -0.056005534 0.32511517
0.18341979 -0.055874292 0.32435331
0.18358754 -0.055747565 0.32361767
0.18376565 -0.055624787 0.32290491
0.18395238 -0.055505376 0.32221174
0.18415204 -0.055390615 0.32154554
0.18435875 -0.055278681 0.32089576
0.18457393 -0.055169988 0.32026479
-0.24570546 -0.07267344 0.42633757
-0.24493027 -0.072671622 0.42632687
-0.24416262 -0.072672024 0.42632926
-0.24340485 -0.072675385 0.42634895
-0.24265464 -0.072681025 0.42638204
-0.24191095 -0.072688662 0.42642686
-0.24117346 -0.072698221 0.42648292
-0.24044524 -0.072710641 0.42655578
-0.23972306 -0.072724968 0.42663985
-0.23900633 -0.072741054 0.42673421
-0.23829608 -0.072759219 0.42684078
-0.2375934 -0.072779827 0.42696166
-0.23689558 -0.072802059 0.42709208
-0.23620242 -0.072825864 0.42723176
-0.23551729 -0.072852321 0.42738697
-0.23483677 -0.072880372 0.42755154
-0.23416059 -0.072909966 0.42772514
-0.23349094 -0.072941802 0.42791188
-0.2328265 -0.072975472 0.42810941
-0.23216601 -0.073010609 0.42831555
-0.23151141 -0.073047839 0.42853397
-0.23086236 -0.073087081 0.42876416
-0.23021702 -0.073127761 0.42900282
-0.22957681 -0.073170349 0.42925265
-0.22894233 -0.07321506 0.42951497
-0.22831134 -0.073261194 0.42978561
-0.22768456 -0.073308997 0.43006605
-0.22706401 -0.073359147 0.43036023
-0.22644684 -0.07341072 0.43066281
-0.22583306 -0.073463768 0.43097398
-0.22522655 -0.07351955 0.43130124
-0.22462319 -0.073576748 0.43163678
-0.22402294 -0.073635362 0.43198067
-0.22342952 -0.073696643 0.43234017
-0.22283961 -0.073759526 0.43270904
-0.22225322 -0.073824003 0.43308732
-0.22167279 -0.073890932 0.43347993
-0.22109656 -0.073959731 0.43388358
-0.22052382 -0.074030198 0.43429697
-0.21995595 -0.074102804 0.4347229
-0.21939409 -0.074177966 0.43516383
-0.21883523 -0.074254684 0.4356139
-0.21828081 -0.074333459 0.43607605
-0.217733 -0.074415073 0.43655482
-0.21718945 -0.074498735 0.43704563
-0.21664974 -0.074584335 0.4375478
-0.21611431 -0.074672043 0.43806231
-0.21558656 -0.074763045 0.43859619
-0.21506326 -0.074856274 0.43914309
-0.21454445 -0.074951753 0.43970326
-0.21403047 -0.075049646 0.44027755
-0.21352339 -0.075150691 0.44087029
-0.21302277 -0.075254776 0.4414809
-0.2125273 -0.075361468 0.44210681
-0.21203719 -0.075470865 0.44274861
-0.21155448 -0.075583734 0.44341075
-0.21107899 -0.075700052 0.44409314
-0.21061003 -0.075819612 0.44479451
-0.21014866 -0.075942822 0.44551733
-0.20969442 -0.076069564 0.44626087
-0.20924851 -0.076200329 0.44702798
-0.20881194 -0.076335505 0.44782099
-0.20838308 -0.07647457 0.4486368
-0.20796575 -0.076618955 0.44948387
-0.20755868 -0.076768279 0.45035985
-0.20716327 -0.076923102 0.45126814
-0.20677817 -0.077082984 0.45220608
-0.20640774 -0.077249624 0.45318368
-0.20605159 -0.077422962 0.45420057
-0.20571218 -0.077604003 0.4552626
-0.20539211 -0.077793799 0.45637608
-0.20509058 -0.077992193 0.45753995
-0.20481308 -0.078201361 0.458767
-0.20456152 -0.078422166 0.46006235
-0.20434412 -0.078657925 0.46144542
-0.20416363 -0.078909867 0.46292347
-0.20403388 -0.079183578 0.46452919
-0.20396425 -0.079482973 0.46628559
-0.20397434 -0.079816043 0.46823952
-0.20411402 -0.080202803 0.47050846
-0.20444734 -0.080669202 0.47324458
-0.20524082 -0.081321828 0.47707319
-0.11863045 -0.070285752 0.41233024
-0.11712701 -0.069832824 0.40967312
-0.11586743 -0.069520459 0.40784064
-0.11472589 -0.069275372 0.40640286
-0.11365401 -0.069069475 0.40519497
-0.11263324 -0.068892173 0.40415481
-0.11165179 -0.068736769 0.40324315
-0.11070094 -0.068598285 0.40243071
-0.10977485 -0.068473421 0.4016982
-0.10887202 -0.068361498 0.40104163
-0.10798728 -0.068259515 0.40044335
-0.10711955 -0.068166986 0.3999005
-0.10626556 -0.068082005 0.39940196
-0.1054254 -0.06800478 0.39894894
-0.10459743 -0.067934409 0.39853612
-0.10377978 -0.06786982 0.39815721
-0.10297187 -0.067810744 0.39781061
-0.1021739 -0.067757428 0.39749786
-0.10138413 -0.067708842 0.3972128
-0.10060208 -0.067664742 0.39695409
-0.099827379 -0.067624994 0.39672095
-0.099059358 -0.067589238 0.39651117
-0.098297924 -0.067557484 0.39632487
-0.097542793 -0.067529626 0.39616144
-0.096793383 -0.067505352 0.39601904
-0.096049257 -0.067484424 0.39589626
-0.095310584 -0.067467041 0.3957943
-0.094576642 -0.067452773 0.39571062
-0.093847394 -0.067441665 0.39564541
-0.093122646 -0.06743364 0.39559835
-0.092402048 -0.067428522 0.39556834
-0.091685563 -0.067426354 0.39555559
-0.09097302 -0.067427061 0.39555976
-0.090264112 -0.067430504 0.39557993
-0.089558937 -0.067436807 0.39561695
-0.088857181 -0.067445815 0.39566976
-0.088158928 -0.067457639 0.39573914
-0.087463908 -0.06747216 0.39582431
-0.086772054 -0.067489371 0.39592531
-0.086083263 -0.067509286 0.39604211
-0.085397497 -0.067531906 0.39617485
-0.084714651 -0.067557253 0.39632353
-0.084034458 -0.067585155 0.39648724
-0.083357215 -0.067615941 0.39666781
-0.082682662 -0.067649446 0.39686438
-0.082010709 -0.067685694 0.39707702
-0.081341386 -0.067724764 0.39730623
-0.080674581 -0.067766652 0.39755195
-0.080010347 -0.067811459 0.39781481
-0.079348728 -0.067859314 0.39809558
-0.078689404 -0.06791003 0.39839309
-0.078032583 -0.067963868 0.39870891
-0.0773784 -0.068021014 0.39904416
-0.07672663 -0.068081379 0.3993983
-0.076077595 -0.068145335 0.39977351
-0.075431153 -0.068212859 0.40016964
-0.07478705 -0.068283834 0.40058598
-0.074145511 -0.068358541 0.40102428
-0.073506773 -0.068437338 0.40148655
-0.072870404 -0.068519935 0.40197107
-0.072236985 -0.068606988 0.40248176
-0.071606882 -0.068698987 0.40302148
-0.070979752 -0.068795756 0.40358919
-0.070355944 -0.068897791 0.40418777
-0.069735199 -0.06900499 0.40481666
-0.069118395 -0.069118395 0.40548193
-0.068505943 -0.069238625 0.40618727
-0.067897543 -0.069365598 0.40693215
-0.067293935 -0.069500297 0.40772235
-0.066696033 -0.069643922 0.40856493
-0.06610363 -0.06979657 0.40946043
-0.065518871 -0.069960825 0.41042405
-0.064942054 -0.070137419 0.41146004
-0.064374521 -0.070328236 0.41257945
-0.063819103 -0.070536897 0.41380358
-0.063279003 -0.070767641 0.4151572
-0.062760293 -0.071028113 0.41668528
-0.062270798 -0.071328372 0.41844672
-0.06182849 -0.071690701 0.42057234
-0.061485764 -0.072178937 0.42343658
0.18439791 -0.058377225 0.34246904
0.18367407 -0.05795392 0.33998573
0.18325563 -0.057629474 0.33808237
0.18298818 -0.057354502 0.33646926
0.1828139 -0.057110455 0.33503756
0.18271123 -0.056890316 0.33374611
0.18266019 -0.056687646 0.33255714
0.18264781 -0.056498259 0.33144611
0.18266979 -0.056320705 0.33040449
0.1827178 -0.056152299 0.32941654
0.18279336 -0.055993427 0.32848454
0.18288888 -0.055841677 0.32759428
0.18300219 -0.05569632 0.32674155
0.18312971 -0.055556204 0.32591957
0.18327168 -0.055421352 0.32512847
0.18342976 -0.055292226 0.32437095
0.18359929 -0.055167355 0.32363838
0.18377928 -0.055046409 0.32292888
0.18396842 -0.054928958 0.32223985
0.18416648 -0.054814905 0.32157075
0.18437243 -0.054703906 0.32091957
0.18458776 -0.054596379 0.32028878
-0.24569851 -0.071902379 0.42632553
-0.24492311 -0.071900509 0.42631441
-0.24415526 -0.071900837 0.42631638
-0.24339756 -0.071904175 0.42633617
-0.24264713 -0.071909688 0.42636886
-0.24190319 -0.071917161 0.42641318
-0.24116546 -0.071926542 0.42646879
-0.2404373 -0.071938843 0.42654172
-0.23971488 -0.071952939 0.42662531
-0.238998 -0.071968801 0.42671934
-0.23828797 -0.071986832 0.42682627
-0.23758496 -0.072007112 0.42694649
-0.23688678 -0.072028987 0.42707622
-0.23619351 -0.072052509 0.42721567
-0.23550846 -0.072078697 0.42737094
-0.23482767 -0.072106361 0.42753497
-0.23415102 -0.072135486 0.42770767
-0.23348165 -0.072167054 0.42789483
-0.23281707 -0.072200321 0.42809206
-0.23215637 -0.072235011 0.42829776
-0.23150171 -0.072271824 0.42851603
-0.23085243 -0.072310559 0.42874572
-0.23020688 -0.072350733 0.4289839
-0.2295666 -0.072392844 0.42923358
-0.2289319 -0.072436996 0.42949539
-0.22830066 -0.072482549 0.42976549
-0.22767383 -0.072529823 0.43004578
-0.22705308 -0.072579361 0.43033949
-0.22643575 -0.072630338 0.43064174
-0.22582233 -0.072682917 0.4309535
-0.22521517 -0.072737888 0.43127942
-0.2246114 -0.072794333 0.43161413
-0.22401077 -0.072852202 0.43195722
-0.22341718 -0.07291276 0.4323163
-0.22282739 -0.072974995 0.43268529
-0.22224103 -0.073038794 0.43306357
-0.22166012 -0.073104836 0.43345517
-0.22108364 -0.073172815 0.43385822
-0.22051094 -0.073242538 0.4342716
-0.21994287 -0.073314294 0.43469706
-0.21938072 -0.073388539 0.4351373
-0.21882193 -0.073464453 0.43558741
-0.21826677 -0.073542133 0.436048
-0.2177189 -0.073622845 0.43652657
-0.21717513 -0.073705532 0.43701681
-0.21663536 -0.073790185 0.43751875
-0.21610063 -0.073877178 0.43803456
-0.21557195 -0.073966891 0.43856648
-0.21504804 -0.074058905 0.43911204
-0.21452902 -0.074153289 0.43967167
-0.21401511 -0.074250139 0.44024593
-0.21350875 -0.07435035 0.4408401
-0.21300723 -0.074452996 0.44144869
-0.21251129 -0.07455837 0.44207349
-0.2120215 -0.074666701 0.44271582
-0.21153799 -0.07477808 0.44337618
-0.21106249 -0.074893139 0.44405842
-0.21059328 -0.075011328 0.44475916
-0.21013168 -0.075133123 0.44548133
-0.20967731 -0.075258456 0.44622448
-0.20923144 -0.075387821 0.4469915
-0.2087934 -0.075521015 0.44778123
-0.2083644 -0.075658523 0.44859657
-0.20794678 -0.075801261 0.44944286
-0.20754009 -0.075949118 0.45031953
-0.2071438 -0.076101944 0.4512257
-0.20675974 -0.0762605 0.45216578
-0.20638892 -0.076425202 0.45314237
-0.20603184 -0.076596335 0.45415702
-0.20569086 -0.076774828 0.45521539
-0.2053701 -0.076962344 0.4563272
-0.2050688 -0.077158682 0.45749134
-0.2047895 -0.077364922 0.45871419
-0.20453432 -0.077581979 0.46000117
-0.204313 -0.077813707 0.46137512
-0.204129 -0.078061603 0.46284494
-0.20399204 -0.078329593 0.46443394
-0.20391057 -0.078621194 0.46616289
-0.20391214 -0.07894735 0.46809673
-0.20402688 -0.079320222 0.47030759
-0.20432849 -0.079769157 0.47296944
-0.20503865 -0.080382034 0.4766033
-0.11911229 -0.069824442 0.41400498
-0.11740702 -0.069259033 0.41065252
-0.11608459 -0.068913706 0.40860501
-0.11490665 -0.068650298 0.40704319
-0.11381058 -0.068432733 0.4057532
-0.11277315 -0.068247825 0.40465686
-0.11177792 -0.068086222 0.40369865
-0.11081812 -0.067944221 0.40285671
-0.10988542 -0.067817077 0.40210283
-0.10897537 -0.067702301 0.40142232
-0.10808643 -0.067599207 0.40081102
-0.1072132 -0.067504607 0.40025014
-0.10635719 -0.067419641 0.39974636
-0.1055134 -0.06734132 0.39928195
-0.10468265 -0.067270294 0.39886081
-0.10386301 -0.067205474 0.39847651
-0.10305353 -0.067146376 0.3981261
-0.1022531 -0.067092389 0.39780599
-0.10146191 -0.067043737 0.39751753
-0.10067854 -0.066999599 0.39725581
-0.09990219 -0.06695953 0.39701825
-0.099133402 -0.066923998 0.39680755
-0.098371007 -0.066892281 0.39661953
-0.097614527 -0.066864163 0.39645278
-0.096864134 -0.066839829 0.39630851
-0.096119255 -0.06681896 0.39618477
-0.095379621 -0.066801459 0.396081
-0.0946448 -0.066787086 0.39599577
-0.093914568 -0.066775762 0.39592862
-0.093188845 -0.066767484 0.39587957
-0.092467606 -0.066762321 0.39584896
-0.091750421 -0.066760033 0.3958354
-0.091037199 -0.066760615 0.39583883
-0.090327822 -0.066764042 0.39585915
-0.089622051 -0.066770211 0.39589575
-0.088919699 -0.066779047 0.39594814
-0.088220768 -0.066790618 0.39601675
-0.087525047 -0.066804834 0.396101
-0.086832784 -0.066821933 0.39620242
-0.086143337 -0.066841505 0.39631847
-0.08545693 -0.06686379 0.39645058
-0.084773436 -0.066888742 0.39659855
-0.084092699 -0.066916317 0.39676201
-0.083414808 -0.066946648 0.39694187
-0.082739599 -0.066979676 0.3971377
-0.082067065 -0.067015462 0.39734989
-0.081397027 -0.067053936 0.397578
-0.08072979 -0.067095421 0.39782399
-0.08006487 -0.067139603 0.39808592
-0.079402611 -0.067186825 0.39836591
-0.078742981 -0.067237154 0.39866436
-0.078085944 -0.067290649 0.39898154
-0.077431284 -0.067347206 0.39931688
-0.076779254 -0.067407139 0.39967221
-0.07612963 -0.067470334 0.40004691
-0.075482614 -0.067537077 0.40044263
-0.074838139 -0.067607403 0.40085962
-0.074196048 -0.067681275 0.40129763
-0.073556796 -0.067759216 0.40175974
-0.072920427 -0.067841396 0.40224701
-0.072286993 -0.067927979 0.40276042
-0.071656726 -0.068019331 0.40330204
-0.071029529 -0.068115495 0.40387222
-0.070405506 -0.068216734 0.4044725
-0.069784604 -0.068323143 0.40510342
-0.069168791 -0.068436846 0.40577757
-0.068556286 -0.068556286 0.40648577
-0.067947969 -0.068682544 0.40723437
-0.067345992 -0.06881804 0.40803775
-0.066748857 -0.068961531 0.40888855
-0.066158421 -0.069115222 0.40979984
-0.065575331 -0.069280155 0.41077775
-0.065001257 -0.069458485 0.41183513
-0.064437538 -0.069652133 0.4129833
-0.063887127 -0.069864869 0.41424468
-0.063353449 -0.070101157 0.41564566
-0.062842555 -0.07036861 0.41723144
-0.062365819 -0.070681259 0.41908523
-0.061945084 -0.071065828 0.42136544
-0.061658401 -0.071615659 0.42462549
0.184365 -0.057749171 0.34240794
0.18366548 -0.057337973 0.33996984
0.18324739 -0.057017077 0.33806717
0.18298616 -0.056746949 0.33646554
0.18281825 -0.056507461 0.33504555
0.18271565 -0.056289669 0.33375421
0.1826635 -0.05608879 0.33256316
0.18265456 -0.055902459 0.33145836
0.18268061 -0.055728015 0.33042404
0.18273057 -0.055561978 0.32943958
0.18280554 -0.055404596 0.32850641
0.18289977 -0.05525405 0.3276138
0.18301521 -0.055110861 0.32676479
0.18314557 -0.05497307 0.32594779
0.18329045 -0.054840501 0.32516178
0.18344764 -0.054712456 0.32440257
0.18361601 -0.054588541 0.32366785
0.18379523 -0.054468635 0.32295689
0.18398696 -0.054353178 0.32227233
0.18418682 -0.054240841 0.32160625
0.18439481 -0.054131597 0.32095852
0.18461114 -0.054025482 0.32032934
-0.24569525 -0.071132429 0.42631987
-0.24491976 -0.071130544 0.42630857
-0.24415179 -0.071130835 0.42631033
-0.2433943 -0.071134195 0.42633048
-0.24264373 -0.071139604 0.42636287
-0.24189962 -0.07114695 0.42640689
-0.24116203 -0.071156263 0.42646271
-0.24043368 -0.071168371 0.42653528
-0.23971106 -0.071182258 0.42661852
-0.2389939 -0.07119786 0.42671204
-0.2382839 -0.071215704 0.426819
-0.23758063 -0.071235679 0.42693871
-0.2368823 -0.071257278 0.42706814
-0.23618902 -0.071280532 0.42720753
-0.23550354 -0.071306311 0.42736199
-0.23482257 -0.071333624 0.4275257
-0.23414588 -0.071362421 0.42769828
-0.23347639 -0.071393609 0.4278852
-0.2328115 -0.071426414 0.42808181
-0.23215044 -0.07146062 0.42828682
-0.23149565 -0.071496986 0.42850479
-0.230846 -0.071535192 0.42873377
-0.23020004 -0.0715748 0.42897117
-0.2295593 -0.071616307 0.42921993
-0.22892426 -0.071659878 0.42948106
-0.22829288 -0.071704894 0.42975086
-0.22766586 -0.071751587 0.4300307
-0.22704467 -0.071800455 0.43032357
-0.22642694 -0.071850747 0.43062499
-0.22581339 -0.071902715 0.43093646
-0.2252059 -0.071956977 0.43126169
-0.22460191 -0.072012745 0.43159589
-0.2240015 -0.072070047 0.43193933
-0.22340782 -0.07212992 0.43229818
-0.22281733 -0.072191253 0.43266577
-0.22223014 -0.072254084 0.43304235
-0.22164913 -0.072319381 0.43343365
-0.22107247 -0.072386555 0.43383628
-0.22049934 -0.072455376 0.43424875
-0.21993123 -0.072526343 0.43467405
-0.2193687 -0.072599657 0.43511346
-0.21880995 -0.072674759 0.43556356
-0.21825449 -0.072751492 0.43602347
-0.21770617 -0.072831184 0.43650106
-0.21716189 -0.072912797 0.4369902
-0.2166222 -0.072996557 0.43749219
-0.21608648 -0.073082261 0.43800586
-0.21555826 -0.073171154 0.43853861
-0.21503401 -0.073262043 0.43908337
-0.21451469 -0.073355302 0.43964228
-0.21400113 -0.073451221 0.44021717
-0.21349372 -0.073549978 0.44080904
-0.21299222 -0.073651515 0.44141757
-0.21249616 -0.073755704 0.44204202
-0.21200553 -0.073862568 0.44268247
-0.2115228 -0.073973 0.44334435
-0.21104705 -0.074086726 0.44402596
-0.21057765 -0.074203558 0.44472614
-0.21011515 -0.074323714 0.44544628
-0.2096606 -0.074447624 0.44618893
-0.2092137 -0.074575208 0.44695359
-0.20877607 -0.074707106 0.44774407
-0.20834744 -0.07484325 0.44856006
-0.20792945 -0.074984305 0.44940543
-0.20752111 -0.075129949 0.45027834
-0.20712425 -0.075280912 0.45118311
-0.20673971 -0.075437568 0.45212197
-0.20636848 -0.075600334 0.45309749
-0.20601155 -0.075769655 0.45411229
-0.20567028 -0.075946115 0.45516986
-0.20534767 -0.076130897 0.45627734
-0.20504586 -0.076324917 0.45744017
-0.20476587 -0.076528661 0.45866126
-0.20451063 -0.076743342 0.45994791
-0.2042897 -0.076972701 0.46132252
-0.20410173 -0.077216402 0.4627831
-0.20396005 -0.07747969 0.46436107
-0.20387374 -0.077766269 0.46607867
-0.2038642 -0.078084633 0.4679867
-0.20396316 -0.078447364 0.47016069
-0.20423968 -0.078881711 0.47276387
-0.20487264 -0.079457939 0.47621739
-0.11773401 -0.068709128 0.41179624
-0.11631861 -0.068314105 0.40942875
-0.11509562 -0.068027765 0.40771261
-0.11397284 -0.067797348 0.40633166
-0.11291819 -0.067604743 0.4051773
-0.11191189 -0.067438759 0.40418252
-0.1109416 -0.067292444 0.40330562
-0.11000172 -0.067162767 0.40252841
-0.10908654 -0.067046545 0.40183184
-0.10819186 -0.066941455 0.40120199
-0.10731664 -0.066847064 0.40063629
-0.10645603 -0.066760562 0.40011784
-0.10561062 -0.066682473 0.39964983
-0.10477729 -0.066610992 0.39922145
-0.10395545 -0.066545874 0.39883116
-0.1031443 -0.066486746 0.39847678
-0.10234208 -0.066432573 0.39815211
-0.10154951 -0.06638395 0.39786071
-0.10076465 -0.066339716 0.39759558
-0.099987775 -0.066300139 0.39735839
-0.09921775 -0.066264562 0.39714515
-0.098454058 -0.066232733 0.39695439
-0.097696498 -0.066204585 0.39678571
-0.096945144 -0.066180266 0.39663994
-0.096199311 -0.066159382 0.39651477
-0.095458411 -0.066141598 0.3964082
-0.094722956 -0.066127345 0.39632279
-0.093992196 -0.066116184 0.39625588
-0.093265779 -0.066107929 0.39620641
-0.092543811 -0.066102721 0.39617521
-0.09182594 -0.066100389 0.3961612
-0.091111705 -0.06610065 0.39616278
-0.090401582 -0.066103928 0.39618242
-0.089694992 -0.066109851 0.39621794
-0.088991947 -0.066118516 0.39626986
-0.088292241 -0.066129819 0.3963376
-0.087595791 -0.066143759 0.39642116
-0.086902529 -0.066160358 0.39652064
-0.086212553 -0.06617976 0.39663693
-0.085525528 -0.066201769 0.39676881
-0.084841333 -0.066226356 0.39691618
-0.084160008 -0.066253617 0.39707959
-0.08348152 -0.066283613 0.39725932
-0.082805507 -0.066316098 0.39745405
-0.082132474 -0.066351563 0.39766657
-0.081461959 -0.066389702 0.39789516
-0.080794118 -0.066430718 0.398141
-0.080128558 -0.066474363 0.39840257
-0.079465754 -0.066521108 0.39868271
-0.078805521 -0.066570871 0.39898098
-0.078147843 -0.06662374 0.39929783
-0.07749249 -0.066679582 0.39963251
-0.076839738 -0.06673874 0.39998707
-0.076189332 -0.066801071 0.40036064
-0.075541526 -0.066866904 0.4007552
-0.07489647 -0.066936463 0.40117207
-0.074254327 -0.06701 0.40161282
-0.073614426 -0.067087039 0.40207455
-0.072977722 -0.067168549 0.40256307
-0.072343938 -0.067254409 0.40307766
-0.071712889 -0.067344591 0.40361813
-0.071085252 -0.067439854 0.40418908
-0.070460744 -0.067540094 0.40478984
-0.069840685 -0.067646734 0.40542898
-0.069224119 -0.067759059 0.40610218
-0.068611428 -0.067877613 0.40681273
-0.068004385 -0.068004385 0.40757251
-0.067402124 -0.068138756 0.40837783
-0.066805534 -0.068281904 0.40923575
-0.06621623 -0.068435766 0.41015792
-0.065634914 -0.068601459 0.41115096
-0.065062381 -0.068780236 0.41222242
-0.064501889 -0.068976007 0.41339576
-0.063955277 -0.069191381 0.41468653
-0.063428566 -0.069433637 0.41613847
-0.062927395 -0.069709986 0.41779473
-0.062466528 -0.070038229 0.41976199
-0.062074278 -0.0704524 0.42224425
-0.061891258 -0.071117282 0.42622912
0.18435837 -0.05712948 0.34239563
0.18366008 -0.056723062 0.33995983
0.18325649 -0.056410067 0.33808395
0.18299538 -0.056142859 0.3364825
0.18282582 -0.055905413 0.3350594
0.18272862 -0.055691589 0.33377787
0.18268055 -0.055494092 0.33259422
0.18267044 -0.055309381 0.33148718
0.18269484 -0.055136289 0.33044979
0.18274765 -0.054972868 0.32947037
0.18282552 -0.054818023 0.32854232
0.18292186 -0.054669697 0.32765335
0.18303621 -0.054527696 0.32680228
0.18316671 -0.054391403 0.32598543
0.18331181 -0.054260295 0.32519966
0.1834709 -0.05413416 0.3244437
0.18364146 -0.054012198 0.32371274
0.18382213 -0.053893968 0.32300416
0.18401246 -0.053779311 0.32231697
0.18421207 -0.053668085 0.32165036
0.18442032 -0.05356006 0.32100293
0.18463817 -0.053455494 0.32037625
-0.24569811 -0.070364252 0.42632484
-0.2449224 -0.070362322 0.42631316
-0.24415448 -0.070362628 0.42631504
-0.2433968 -0.070365898 0.42633486
-0.24264593 -0.070371166 0.42636675
-0.24190156 -0.070378356 0.42641032
-0.24116421 -0.070387639 0.42646655
-0.24043562 -0.070399545 0.42653871
-0.2397127 -0.070413202 0.42662144
-0.23899527 -0.070428558 0.42671448
-0.23828529 -0.070446216 0.42682147
-0.2375818 -0.070465915 0.42694083
-0.23688318 -0.070487194 0.42706972
-0.23619002 -0.070510238 0.42720935
-0.23550433 -0.070535667 0.42736343
-0.23482288 -0.070562541 0.42752627
-0.23414551 -0.070590816 0.4276976
-0.2334758 -0.07062161 0.42788413
-0.23281059 -0.07065396 0.42808014
-0.23214933 -0.070687734 0.42828479
-0.23149438 -0.07072366 0.42850244
-0.2308445 -0.070761383 0.42873099
-0.23019838 -0.070800513 0.42896807
-0.22955738 -0.070841484 0.42921633
-0.22892192 -0.070884451 0.42947668
-0.22829007 -0.070928834 0.42974555
-0.22766276 -0.070974931 0.43002486
-0.22704141 -0.071023211 0.43031737
-0.22642344 -0.071072876 0.43061832
-0.22580947 -0.071124151 0.43092898
-0.22520162 -0.071177714 0.43125349
-0.22459698 -0.071232662 0.43158641
-0.22399588 -0.071289122 0.43192849
-0.22340156 -0.071348146 0.43228608
-0.22281073 -0.071408696 0.43265295
-0.2222234 -0.07147079 0.4330292
-0.22164185 -0.0715352 0.43341944
-0.22106475 -0.071601503 0.43382114
-0.22049135 -0.071669482 0.43423301
-0.21992308 -0.071739614 0.43465793
-0.21935962 -0.071811825 0.43509546
-0.21880019 -0.071885876 0.43554413
-0.21824466 -0.071961753 0.43600383
-0.2176961 -0.072040483 0.43648085
-0.21715148 -0.072121091 0.43696925
-0.21661085 -0.072203614 0.43746924
-0.21607558 -0.072288543 0.43798381
-0.21554668 -0.072376229 0.43851507
-0.21502221 -0.072466046 0.43905929
-0.21450225 -0.07255806 0.43961677
-0.21398789 -0.07265266 0.44018993
-0.21348032 -0.072750278 0.44078138
-0.21297784 -0.072850369 0.4413878
-0.21248151 -0.072953314 0.44201154
-0.21199092 -0.073059015 0.44265199
-0.2115069 -0.073167793 0.44331104
-0.21103092 -0.073280185 0.44399199
-0.21056183 -0.073395833 0.4446927
-0.21009956 -0.07351476 0.44541326
-0.20964423 -0.073637031 0.44615409
-0.20919725 -0.073763192 0.44691846
-0.20875855 -0.073893256 0.44770649
-0.20832951 -0.074027769 0.44852149
-0.20791095 -0.074167065 0.44936547
-0.20750351 -0.074311435 0.45024016
-0.20710649 -0.074460685 0.45114443
-0.20672131 -0.074615382 0.45208174
-0.20634905 -0.074775986 0.45305482
-0.20599099 -0.074943043 0.45406696
-0.20564865 -0.075117171 0.45512196
-0.20532712 -0.075300328 0.45623168
-0.20502368 -0.075491615 0.45739067
-0.20474331 -0.075692981 0.45861071
-0.2044879 -0.075905249 0.4598968
-0.20426401 -0.076130986 0.46126452
-0.20407705 -0.076372392 0.46272716
-0.20393175 -0.076631442 0.46429667
-0.20384419 -0.076914407 0.46601111
-0.20383248 -0.077228449 0.46791387
-0.20391789 -0.077582069 0.47005635
-0.20417616 -0.078004666 0.47261682
-0.20476089 -0.078556068 0.47595766
-0.1181385 -0.068199828 0.41321099
-0.11657438 -0.067724168 0.41032904
-0.11529765 -0.067410447 0.40842825
-0.11414699 -0.067166872 0.4069525
-0.11307468 -0.066966556 0.4057388
-0.11205607 -0.066795632 0.40470323
-0.11107716 -0.066646293 0.4037984
-0.11013026 -0.066514313 0.40299875
-0.10920978 -0.066396646 0.40228581
-0.10831141 -0.06629093 0.4016453
-0.10743149 -0.066195168 0.40106508
-0.10656924 -0.066109054 0.40054333
-0.10572033 -0.0660301 0.400065
-0.1048848 -0.065958478 0.39963105
-0.10406137 -0.065893531 0.39923751
-0.10324831 -0.065834291 0.3988786
-0.10244512 -0.06578055 0.39855301
-0.10165088 -0.065731838 0.39825788
-0.10086437 -0.06568747 0.39798903
-0.10008579 -0.065647662 0.39774787
-0.099314794 -0.065612301 0.3975336
-0.098550461 -0.065580852 0.39734307
-0.097792342 -0.065553114 0.39717498
-0.09703996 -0.065528832 0.39702788
-0.096292779 -0.065507732 0.39690003
-0.095551014 -0.065490022 0.39679274
-0.094813965 -0.065475307 0.39670357
-0.094082095 -0.065463968 0.39663488
-0.093354963 -0.065455779 0.39658526
-0.092631966 -0.065450385 0.39655259
-0.091913417 -0.065448076 0.39653859
-0.091198787 -0.065448537 0.39654142
-0.090487748 -0.065451615 0.39656004
-0.089780346 -0.065457381 0.396595
-0.089076616 -0.065465949 0.39664689
-0.08837609 -0.065477021 0.39671397
-0.087678976 -0.065490827 0.39679763
-0.086984903 -0.065507151 0.39689651
-0.08629398 -0.065526135 0.39701155
-0.085606329 -0.065547943 0.39714366
-0.084921308 -0.06557215 0.39729035
-0.084239133 -0.06559898 0.39745292
-0.083559856 -0.065628558 0.39763209
-0.082883164 -0.065660693 0.39782679
-0.082209229 -0.065695584 0.39803821
-0.081537947 -0.065733232 0.39826632
-0.080869131 -0.065773554 0.39851063
-0.080202878 -0.065816708 0.39877209
-0.079539403 -0.065862939 0.3990522
-0.078878298 -0.065912001 0.39934945
-0.078219801 -0.065964162 0.39966547
-0.077563949 -0.06601955 0.40000105
-0.076910622 -0.066078141 0.40035605
-0.076259822 -0.066140033 0.40073106
-0.07561136 -0.066205159 0.40112564
-0.074965522 -0.066273868 0.40154192
-0.074321926 -0.066345915 0.40197843
-0.073681824 -0.06642253 0.40244266
-0.073044144 -0.066502877 0.40292946
-0.07241001 -0.066588104 0.40344581
-0.071778625 -0.066677608 0.40398812
-0.071150452 -0.066771969 0.40455982
-0.070525758 -0.066871576 0.40516335
-0.069904678 -0.066976734 0.40580046
-0.069287792 -0.067088179 0.40647572
-0.068675429 -0.067206435 0.4071922
-0.068067946 -0.067332074 0.40795341
-0.067465216 -0.067465216 0.4087601
-0.066869967 -0.067608863 0.40963045
-0.066280864 -0.067762002 0.41055828
-0.065699577 -0.067926683 0.41155607
-0.065129913 -0.068107277 0.41265026
-0.0645715 -0.068303958 0.41384187
-0.064029291 -0.06852258 0.41516647
-0.063507222 -0.068768173 0.4166545
-0.063016161 -0.069053635 0.41838408
-0.06257271 -0.06939882 0.42047548
-0.06222298 -0.069857702 0.42325577
0.18650924 -0.057363346 0.34755462
0.18436299 -0.05651328 0.34240422
0.18367642 -0.05611483 0.33999008
0.18326856 -0.055803906 0.33810624
0.18301436 -0.055541676 0.33651742
0.18284918 -0.0553081 0.33510223
0.18274994 -0.055095945 0.33381683
0.18270117 -0.054900352 0.33263177
0.18269481 -0.05471874 0.33153141
0.18272188 -0.054548293 0.3304987
0.18277499 -0.054386705 0.32951966
0.18284997 -0.054232653 0.32858628
0.18294767 -0.054086305 0.3276996
0.18306458 -0.05394657 0.32685295
0.18319711 -0.053812314 0.32603952
0.18334255 -0.053682696 0.3252542
0.1835009 -0.053557679 0.32449675
0.18367006 -0.0534366 0.32376313
0.1838526 -0.053320166 0.32305768
0.18404499 -0.053207319 0.32237396
0.18424617 -0.053097717 0.3217099
0.1844555 -0.052991141 0.32106417
0.18467215 -0.052887328 0.3204352
-0.24570943 -0.069598444 0.42634448
-0.24493359 -0.069596514 0.42633265
-0.24416608 -0.069596946 0.42633528
-0.24340822 -0.069600143 0.42635486
-0.24265715 -0.069605298 0.42638648
-0.24191259 -0.069612369 0.42642975
-0.24117528 -0.06962157 0.42648613
-0.2404463 -0.069633245 0.42655766
-0.23972303 -0.069646657 0.42663983
-0.23900531 -0.069661774 0.42673242
-0.23829527 -0.06967923 0.42683935
-0.23759136 -0.069698602 0.42695799
-0.2368924 -0.069719553 0.42708635
-0.23619899 -0.069742277 0.42722556
-0.23551291 -0.069767326 0.42737901
-0.23483106 -0.069793798 0.42754117
-0.23415345 -0.069821708 0.42771211
-0.23348378 -0.069852173 0.42789873
-0.23281801 -0.06988401 0.42809379
-0.23215629 -0.069917284 0.42829761
-0.23150127 -0.069952801 0.4285152
-0.23085067 -0.069989897 0.42874244
-0.23020378 -0.07002838 0.42897815
-0.22956268 -0.070068881 0.42922625
-0.2289267 -0.070111223 0.42948565
-0.22829419 -0.07015492 0.42975333
-0.2276668 -0.070200495 0.43003249
-0.22704452 -0.070247963 0.43032327
-0.2264256 -0.070296802 0.43062243
-0.22581151 -0.07034748 0.43093288
-0.22520329 -0.070400335 0.43125668
-0.22459827 -0.070454575 0.43158892
-0.22399691 -0.070510328 0.43193048
-0.22340223 -0.070568599 0.4322874
-0.22281082 -0.0706283 0.43265313
-0.22222281 -0.070689499 0.43302804
-0.2216408 -0.07075306 0.43341738
-0.22106299 -0.070818409 0.43381768
-0.22048874 -0.070885368 0.43422788
-0.21991941 -0.07095439 0.43465069
-0.2193556 -0.071025692 0.43508747
-0.2187957 -0.071098782 0.43553519
-0.21823978 -0.07117369 0.43599409
-0.21769063 -0.071251363 0.43646988
-0.21714523 -0.07133083 0.43695667
-0.21660404 -0.071412258 0.43745551
-0.21606801 -0.071496002 0.43796846
-0.21553829 -0.071582444 0.43849799
-0.2150131 -0.071671031 0.43904069
-0.2144926 -0.071761854 0.43959701
-0.21397799 -0.071855322 0.44016957
-0.21347015 -0.071951762 0.44076037
-0.21296713 -0.072050564 0.4413656
-0.21246976 -0.072152019 0.4419871
-0.21197882 -0.072256431 0.44262671
-0.21149488 -0.072364032 0.44328582
-0.21101764 -0.072474748 0.44396406
-0.21054737 -0.072588712 0.44466218
-0.21008444 -0.072706088 0.44538119
-0.20962884 -0.072826907 0.44612131
-0.20918195 -0.072951704 0.44688576
-0.2087424 -0.073080026 0.44767186
-0.20831412 -0.073213317 0.44848835
-0.20789498 -0.073350862 0.44933093
-0.20748541 -0.073492877 0.45020089
-0.20708846 -0.073640496 0.45110515
-0.20670295 -0.073793359 0.4520416
-0.20633025 -0.073952034 0.45301357
-0.20597205 -0.074117176 0.45402521
-0.20562951 -0.0742893 0.45507962
-0.20530538 -0.074469484 0.45618337
-0.20500238 -0.074658811 0.45734316
-0.20472114 -0.07485763 0.45856106
-0.20446417 -0.075066961 0.4598434
-0.20423895 -0.075289719 0.46120793
-0.20405054 -0.075527914 0.46266705
-0.20390612 -0.075784415 0.46423832
-0.20381461 -0.076062769 0.46594349
-0.20380062 -0.076372489 0.46784076
-0.20388606 -0.076722197 0.46998298
-0.20413204 -0.077135488 0.47251472
-0.20468307 -0.077667996 0.47577673
-0.11874785 -0.067802399 0.4153423
-0.1168683 -0.067152895 0.4113636
-0.11552482 -0.066805087 0.409233
-0.11434324 -0.066547029 0.4076522
-0.11325118 -0.06633807 0.40637213
-0.11221876 -0.066161551 0.40529081
-0.11123122 -0.066009343 0.40435845
-0.11027803 -0.065875649 0.40353948
-0.1093508 -0.065755799 0.40280527
-0.10844843 -0.065649383 0.4021534
-0.10756597 -0.065553673 0.4015671
-0.10669862 -0.065465935 0.40102965
-0.10584865 -0.065387733 0.40055057
-0.10501084 -0.065316021 0.40011132
-0.10418489 -0.065250747 0.39971143
-0.10336953 -0.065191239 0.39934692
-0.10256455 -0.065137483 0.39901763
-0.10176837 -0.0650886 0.39871818
-0.10098072 -0.065044522 0.39844817
-0.10020093 -0.0650049 0.39820546
-0.09942776 -0.06496904 0.39798579
-0.098661155 -0.064936973 0.39778936
-0.097901106 -0.064908795 0.39761671
-0.097147577 -0.064884543 0.39746818
-0.096399687 -0.064863734 0.39734069
-0.095656857 -0.064846031 0.39723226
-0.094918817 -0.064831339 0.39714226
-0.094185665 -0.06481979 0.39707151
-0.093456939 -0.064811133 0.39701849
-0.092732728 -0.0648055 0.39698395
-0.092012435 -0.064802527 0.39696577
-0.091296181 -0.064802386 0.39696491
-0.090584293 -0.064805359 0.39698312
-0.08987572 -0.064810775 0.39701629
-0.089170806 -0.064818941 0.3970663
-0.08846961 -0.064829953 0.39713377
-0.087771572 -0.064843491 0.39721668
-0.087076828 -0.064859696 0.39731595
-0.086384989 -0.064878352 0.39743024
-0.085696153 -0.064899601 0.39756039
-0.085010447 -0.064923592 0.39770737
-0.084327534 -0.064950138 0.39787
-0.083647273 -0.06497921 0.39804807
-0.082969785 -0.065010957 0.39824256
-0.08229544 -0.065045737 0.39845562
-0.081623413 -0.06508299 0.39868379
-0.080954164 -0.065123126 0.39892969
-0.080287442 -0.065166041 0.39919254
-0.079623669 -0.065212145 0.39947498
-0.078962035 -0.065260865 0.39977342
-0.078302823 -0.06531249 0.40008968
-0.077646248 -0.065367304 0.40042546
-0.076992169 -0.065425269 0.40078053
-0.076340556 -0.065486446 0.40115529
-0.075691216 -0.065550759 0.40154928
-0.075045131 -0.065619171 0.40196833
-0.074401528 -0.065691106 0.40240899
-0.073760822 -0.065767042 0.40287414
-0.073122896 -0.065846987 0.40336388
-0.072487831 -0.065931141 0.4038794
-0.071855813 -0.066019811 0.40442255
-0.071227081 -0.066113345 0.40499553
-0.070602022 -0.066212259 0.40560144
-0.069980465 -0.066316567 0.4062404
-0.069363251 -0.066427246 0.40691841
-0.068750188 -0.066544302 0.40763548
-0.068142258 -0.066668913 0.40839881
-0.067540661 -0.066802509 0.40921721
-0.066944525 -0.066944525 0.41008717
-0.066355377 -0.067096777 0.41101983
-0.065776616 -0.067263089 0.41203862
-0.065206997 -0.067442663 0.41313863
-0.064651243 -0.067640901 0.41435298
-0.064112067 -0.067861311 0.41570318
-0.063595824 -0.068111509 0.41723582
-0.063114047 -0.068405047 0.41903397
-0.062689252 -0.068768211 0.42125863
-0.062394012 -0.069284149 0.42441916
0.18653014 -0.056742784 0.34759358
0.18438858 -0.055903405 0.34245172
0.18370394 -0.055509873 0.34004104
0.18330209 -0.055204123 0.33816808
0.18304139 -0.054942772 0.3365671
0.18287788 -0.054712225 0.33515483
0.18278299 -0.054503661 0.33387721
0.18273421 -0.054310165 0.33269191
0.18272609 -0.054129984 0.33158815
0.18275289 -0.053961292 0.33055478
0.18280926 -0.053802401 0.32958144
0.18288639 -0.053650629 0.32865173
0.18298385 -0.053505775 0.32776439
0.18309882 -0.053366967 0.32691407
0.18323083 -0.053234 0.32609954
0.18337882 -0.053106505 0.32531855
0.18353908 -0.05298337 0.32456425
0.18370973 -0.052864004 0.32383305
0.18389153 -0.052748602 0.32312611
0.18408243 -0.052636527 0.32243955
0.18428391 -0.052528169 0.32177579
0.1844945 -0.052423086 0.32113206
0.18471287 -0.05232086 0.32050586
-0.24573097 -0.068835437 0.42638186
-0.24495463 -0.068833403 0.42636928
-0.24418731 -0.068833902 0.42637235
-0.24342901 -0.06883695 0.42639124
-0.24267744 -0.068841934 0.42642212
-0.24193236 -0.068848796 0.42646462
-0.24119522 -0.06885796 0.42652139
-0.24046588 -0.068869427 0.42659241
-0.23974222 -0.068882599 0.42667398
-0.23902401 -0.068897419 0.4267658
-0.23831414 -0.068914749 0.42687315
-0.23760983 -0.068933807 0.42699119
-0.23691034 -0.068954393 0.42711869
-0.23621695 -0.068976887 0.42725804
-0.23553029 -0.069001511 0.42741054
-0.23484802 -0.06902758 0.42757204
-0.23417032 -0.06905517 0.42774293
-0.23350005 -0.069085136 0.42792857
-0.2328337 -0.069116473 0.42812264
-0.23217124 -0.069149174 0.42832521
-0.23151588 -0.069184214 0.42854226
-0.230865 -0.069220826 0.42876905
-0.23021789 -0.069258824 0.42900443
-0.22957636 -0.069298767 0.42925182
-0.22893985 -0.069340497 0.4295103
-0.22830692 -0.069383599 0.42977729
-0.22767903 -0.069428526 0.43005559
-0.22705626 -0.069475338 0.43034554
-0.22643699 -0.069523536 0.43064409
-0.22582237 -0.069573499 0.43095359
-0.22521345 -0.069625571 0.43127614
-0.22460757 -0.069678947 0.43160677
-0.22400557 -0.069733903 0.43194717
-0.22341011 -0.069791287 0.43230262
-0.22281803 -0.069850139 0.43266714
-0.22222947 -0.069910496 0.43304104
-0.22164717 -0.069973268 0.43342984
-0.22106862 -0.07003767 0.43382874
-0.22049358 -0.070103645 0.43423742
-0.2199242 -0.070171893 0.43466017
-0.21935995 -0.070242271 0.43509611
-0.21879883 -0.070314161 0.43554142
-0.21824178 -0.070387885 0.43599808
-0.217692 -0.070464499 0.43647262
-0.21714579 -0.07054282 0.43695778
-0.21660358 -0.070623025 0.43745458
-0.21606752 -0.070705824 0.43796745
-0.215537 -0.070791051 0.43849537
-0.21501066 -0.070878282 0.43903568
-0.21448904 -0.070967726 0.43958971
-0.21397381 -0.07105995 0.44016096
-0.21346502 -0.071155012 0.44074979
-0.21296152 -0.071252547 0.44135398
-0.21246362 -0.071352698 0.44197431
-0.21197098 -0.071455382 0.44261035
-0.21148559 -0.071561292 0.44326639
-0.21100876 -0.071670905 0.44394538
-0.21053819 -0.071783498 0.44464281
-0.21007396 -0.071899123 0.44535899
-0.2096173 -0.072018228 0.44609678
-0.20916852 -0.072140977 0.44685709
-0.20872954 -0.072268054 0.44764426
-0.20829995 -0.0723994 0.44845784
-0.20788008 -0.07253515 0.44929871
-0.20747006 -0.072675422 0.45016757
-0.2070713 -0.072820753 0.45106778
-0.20668492 -0.072971597 0.45200214
-0.20631199 -0.07312841 0.45297346
-0.20595364 -0.073291652 0.45398465
-0.20561072 -0.073461711 0.45503804
-0.20528543 -0.073639467 0.45613906
-0.204982 -0.073826514 0.45729768
-0.20469983 -0.07402277 0.45851332
-0.2044425 -0.074229628 0.45979467
-0.20421553 -0.074449249 0.46115503
-0.2040268 -0.074684657 0.46261322
-0.20388006 -0.074937433 0.46417898
-0.20378816 -0.075212538 0.46588302
-0.20376997 -0.075517237 0.4677704
-0.20385066 -0.075861268 0.46990138
-0.2040927 -0.076268457 0.47242364
-0.20463242 -0.07679078 0.47565901
-0.20643228 -0.077792376 0.48186311
-0.11723258 -0.066617876 0.41264582
-0.1157915 -0.066219419 0.41017768
-0.11456823 -0.0659412 0.40845433
-0.11345614 -0.065723784 0.40710759
-0.11240855 -0.065541141 0.40597627
-0.11141083 -0.065385371 0.40501139
-0.11044887 -0.065248668 0.40416464
-0.10951765 -0.065128438 0.40341988
-0.10860901 -0.065020107 0.40274888
-0.10772148 -0.064923048 0.40214765
-0.10685183 -0.064835519 0.40160549
-0.10599671 -0.064755671 0.40111089
-0.10515494 -0.064682931 0.40066034
-0.10432667 -0.064617552 0.40025535
-0.10350806 -0.064557299 0.39988211
-0.1027004 -0.064503059 0.39954615
-0.10190137 -0.064453512 0.39923927
-0.10111096 -0.064408764 0.39896205
-0.10032819 -0.06436827 0.39871123
-0.099553347 -0.064332306 0.39848849
-0.098785356 -0.064300284 0.39829013
-0.098023348 -0.064271718 0.39811319
-0.097267374 -0.064246714 0.39795831
-0.096516572 -0.06422478 0.39782244
-0.095771782 -0.064206548 0.39770952
-0.095032401 -0.064191699 0.39761752
-0.094297856 -0.064179912 0.3975445
-0.093568034 -0.06417118 0.39749041
-0.092842273 -0.064165123 0.39745289
-0.092120737 -0.064161912 0.39743301
-0.09140344 -0.064161636 0.39743128
-0.09068995 -0.064164035 0.39744616
-0.089980088 -0.064169064 0.39747733
-0.089274183 -0.064177021 0.39752662
-0.08857166 -0.064187564 0.39759189
-0.087872684 -0.064200856 0.39767426
-0.08717671 -0.064216584 0.39777169
-0.086483963 -0.064234979 0.39788559
-0.085794538 -0.064256161 0.39801681
-0.08510796 -0.064279854 0.39816356
-0.084424011 -0.064305946 0.3983252
-0.083743259 -0.064334951 0.39850485
-0.083065026 -0.064366408 0.3986997
-0.082389623 -0.064400621 0.39891163
-0.081717096 -0.06443771 0.39914137
-0.081047252 -0.064477593 0.3993884
-0.080379985 -0.064520255 0.39965269
-0.079715267 -0.064565755 0.39993453
-0.079053119 -0.064614192 0.40023455
-0.078393377 -0.064665504 0.40055239
-0.077736259 -0.06471996 0.40088966
-0.077081822 -0.06477768 0.40124723
-0.076429777 -0.064838529 0.40162414
-0.075780958 -0.064903304 0.40202537
-0.075134449 -0.064971335 0.40244678
-0.074490413 -0.065042846 0.40288973
-0.073849149 -0.065118216 0.40335658
-0.073210754 -0.065197632 0.4038485
-0.072575763 -0.065281719 0.40436932
-0.071944006 -0.06537044 0.40491891
-0.071315147 -0.065463647 0.40549624
-0.070690066 -0.065562293 0.40610728
-0.070068747 -0.065666527 0.40675291
-0.06945093 -0.065776274 0.40743273
-0.068838552 -0.06589359 0.4081594
-0.068230838 -0.066017948 0.40892971
-0.067628376 -0.066150159 0.40974867
-0.067032665 -0.066291973 0.4106271
-0.066445224 -0.066445224 0.41157633
-0.065865621 -0.066609867 0.4125962
-0.065297961 -0.066790484 0.41371498
-0.06474416 -0.066989623 0.41494849
-0.064208537 -0.06721244 0.41632867
-0.063698411 -0.067467548 0.41790885
-0.063228436 -0.067771792 0.41979343
-0.062826462 -0.068157196 0.42218068
-0.062625557 -0.068772852 0.42599419
0.18443914 -0.055300847 0.34254563
0.18374918 -0.054910023 0.34012479
0.18334129 -0.054605812 0.33824041
0.1830858 -0.054348852 0.33664876
0.1829199 -0.054120105 0.33523184
0.18282029 -0.053912409 0.33394533
0.18277496 -0.053722035 0.33276612
0.18277055 -0.05354489 0.33166885
0.18279707 -0.053377938 0.33063471
0.18284898 -0.05321946 0.32965305
0.18292686 -0.053069543 0.32872444
0.18302813 -0.05292736 0.32784373
0.18314458 -0.05279047 0.32699579
0.18327647 -0.052658889 0.32618076
0.18342282 -0.052532293 0.3253966
0.18358104 -0.052409898 0.32463846
0.18375367 -0.052292377 0.3239105
0.18393789 -0.052178893 0.32320756
0.1841294 -0.052068189 0.32252184
0.1843313 -0.051961105 0.32185853
0.18454163 -0.051857065 0.32121408
0.18475881 -0.0517556 0.32058558
-0.24576414 -0.068075515 0.4264394
-0.24498764 -0.068073489 0.42642671
-0.2442207 -0.068074122 0.42643067
-0.24346201 -0.068077058 0.42644906
-0.24271008 -0.068081908 0.42647949
-0.24196461 -0.068088613 0.42652145
-0.24122755 -0.068097733 0.42657858
-0.2404976 -0.068108924 0.42664868
-0.23977336 -0.068121806 0.42672941
-0.23905462 -0.068136342 0.42682046
-0.23834468 -0.068153486 0.42692786
-0.23763971 -0.068172172 0.4270449
-0.23693955 -0.068192355 0.42717135
-0.23624609 -0.06821461 0.42731076
-0.23555893 -0.06823884 0.42746252
-0.23487607 -0.06826447 0.42762309
-0.23419809 -0.068291701 0.42779365
-0.23352711 -0.068321154 0.42797816
-0.23286028 -0.068352021 0.42817152
-0.23219739 -0.068384252 0.42837343
-0.23154171 -0.068418838 0.42859006
-0.23089014 -0.068454869 0.42881575
-0.23024215 -0.068492204 0.42904964
-0.22960022 -0.068531603 0.42929643
-0.22896297 -0.06857267 0.42955369
-0.22832921 -0.068615064 0.42981926
-0.2277009 -0.068659388 0.43009692
-0.22707747 -0.068705492 0.43038571
-0.22645734 -0.068752915 0.43068281
-0.22584188 -0.068802088 0.43099082
-0.2252325 -0.06885346 0.43131262
-0.22462638 -0.068906188 0.43164292
-0.22402394 -0.068960413 0.43198261
-0.22342803 -0.06901703 0.43233728
-0.22283508 -0.069074973 0.43270022
-0.2222456 -0.069134399 0.43307248
-0.22166272 -0.069196299 0.43346024
-0.22108327 -0.069259718 0.4338575
-0.22050719 -0.069324642 0.43426421
-0.21993712 -0.069391921 0.43468568
-0.21937186 -0.069461212 0.43511972
-0.2188103 -0.069532178 0.43556428
-0.21825247 -0.069604844 0.43601945
-0.2177019 -0.069680355 0.43649247
-0.21715508 -0.069757625 0.43697649
-0.21661234 -0.069836766 0.43747225
-0.21607438 -0.069918029 0.43798134
-0.21554291 -0.070002005 0.43850738
-0.21501593 -0.070088066 0.43904647
-0.21449339 -0.070176214 0.43959862
-0.21397722 -0.070267104 0.44016799
-0.2134676 -0.070360824 0.4407551
-0.21296257 -0.070456773 0.44135612
-0.21246308 -0.070555285 0.44197321
-0.21196984 -0.070656613 0.44260797
-0.21148431 -0.070761293 0.44326371
-0.21100608 -0.070869215 0.44393975
-0.21053416 -0.070980087 0.44463426
-0.21006866 -0.071093984 0.44534773
-0.20961103 -0.071211427 0.44608343
-0.20916148 -0.071332522 0.44684201
-0.20872074 -0.071457587 0.44762543
-0.20829035 -0.071587168 0.44843715
-0.20786922 -0.071720958 0.44927526
-0.20745882 -0.071859516 0.45014319
-0.20705879 -0.072002761 0.45104051
-0.20667098 -0.072151408 0.45197168
-0.20629667 -0.072305962 0.45293984
-0.20593792 -0.072467223 0.45394999
-0.20559363 -0.072634876 0.45500022
-0.20526679 -0.072810061 0.45609763
-0.20496188 -0.072994471 0.4572528
-0.20467933 -0.073188365 0.45846739
-0.20442136 -0.073392659 0.45974714
-0.20419276 -0.073609203 0.46110362
-0.20400317 -0.073841639 0.46255964
-0.20385401 -0.074090675 0.46411967
-0.20376149 -0.074362442 0.46582204
-0.20373988 -0.07466244 0.46770132
-0.2038191 -0.075002037 0.46982864
-0.20405173 -0.075401157 0.47232881
-0.20457925 -0.075913057 0.47553542
-0.20624287 -0.076852612 0.48142099
-0.11775191 -0.066165358 0.4144738
-0.11612312 -0.06566707 0.4113524
-0.11484492 -0.065361902 0.40944076
-0.11369815 -0.065128066 0.40797597
-0.11263505 -0.064939424 0.40679428
-0.11162155 -0.064777099 0.40577742
-0.11065064 -0.064637505 0.40490299
-0.10970928 -0.06451343 0.40412575
-0.10879374 -0.064402983 0.40343392
-0.10789908 -0.064303488 0.40281066
-0.10702314 -0.064213887 0.40224937
-0.10616232 -0.064132184 0.40173757
-0.10531712 -0.064058863 0.40127826
-0.1044834 -0.063991569 0.4008567
-0.10366063 -0.063930072 0.40047151
-0.1028491 -0.063874699 0.40012464
-0.10204672 -0.063824274 0.39980873
-0.10125304 -0.063778602 0.39952266
-0.10046762 -0.063737519 0.39926532
-0.099689193 -0.063700311 0.39903224
-0.098917738 -0.063667051 0.39882389
-0.098153546 -0.063638017 0.39864197
-0.097395517 -0.063612573 0.39848259
-0.096643388 -0.063590631 0.39834517
-0.095895998 -0.063571505 0.39822534
-0.095154271 -0.063555866 0.39812741
-0.094417594 -0.063543402 0.39804929
-0.093685538 -0.063533872 0.3979896
-0.092958234 -0.063527443 0.39794934
