# .PCD v0.7 - Point Cloud Data file format
VERSION 0.7
FIELDS x y z
SIZE 4 4 4
TYPE F F F
COUNT 1 1 1
WIDTH 1424
HEIGHT 1
VIEWPOINT 0 0 0 1 0 0 0
POINTS 1424
DATA ascii
0.19160843 -0.11864394 0.33991808
0.1911089 -0.11795717 0.33795047
0.19083075 -0.11741097 0.33638561
0.1906715 -0.11694116 0.33503959
0.19059099 -0.11652246 0.33383998
0.19056843 -0.11614171 0.33274913
0.19058879 -0.11578942 0.33173981
0.19064216 -0.11545935 0.33079413
-0.25721014 -0.15497012 0.44630003
-0.25617027 -0.15482818 0.44589126
-0.25513229 -0.15468651 0.44548327
-0.25418091 -0.1545966 0.44522431
-0.25327918 -0.15453643 0.44505104
-0.2523782 -0.15447631 0.44487792
-0.2514779 -0.15441625 0.44470492
-0.25057828 -0.15435623 0.44453207
-0.24973518 -0.15433073 0.44445863
-0.24893157 -0.15432955 0.44445527
-0.24812798 -0.15432839 0.4444519
-0.24732441 -0.15432721 0.44444853
-0.24652083 -0.15432605 0.44444516
-0.24571729 -0.15432489 0.44444183
-0.24497755 -0.15436393 0.44455424
-0.24424943 -0.15441057 0.44468856
-0.24352092 -0.15445726 0.44482303
-0.24279197 -0.15450399 0.44495758
-0.2420626 -0.15455075 0.44509226
-0.24133277 -0.15459752 0.445227
-0.24064402 -0.15467103 0.44543868
-0.23997924 -0.15476048 0.44569629
-0.23931369 -0.15485004 0.4459542
-0.2386474 -0.15493971 0.44621247
-0.23798035 -0.15502951 0.44647104
-0.23731251 -0.15511939 0.4467299
-0.23665586 -0.15521722 0.44701165
-0.23604909 -0.15534854 0.44738984
-0.23544127 -0.15548009 0.44776869
-0.23483238 -0.15561181 0.44814804
-0.23422243 -0.15574375 0.44852802
-0.23361145 -0.15587592 0.44890866
-0.23299944 -0.15600832 0.44928995
-0.23243678 -0.15617479 0.44976938
-0.23188673 -0.15635094 0.45027667
-0.23133549 -0.15652752 0.45078522
-0.230783 -0.1567045 0.4512949
-0.23022927 -0.1568819 0.45180577
-0.22967429 -0.15705968 0.4523178
-0.22916494 -0.15727006 0.45292366
-0.22867835 -0.15749761 0.45357898
-0.22819039 -0.15772586 0.4542363
-0.22770104 -0.15795477 0.45489556
-0.22721025 -0.15818435 0.45555672
-0.22672155 -0.15841705 0.45622689
-0.22631405 -0.15870839 0.45706594
-0.22590493 -0.15900072 0.4579078
-0.22549418 -0.15929405 0.45875257
-0.22508192 -0.15958847 0.45960048
-0.22468217 -0.15989396 0.46048024
-0.22438292 -0.16027352 0.46157333
-0.22408238 -0.16065496 0.46267188
-0.22378041 -0.16103823 0.46377566
-0.22348793 -0.16143125 0.4649075
-0.075072974 -0.054431442 0.15675767
-0.074770488 -0.054417085 0.15671632
-0.074468158 -0.054402735 0.156675
-0.074165992 -0.054388393 0.15663369
-0.073863983 -0.054374062 0.15659241
-0.07356213 -0.054359734 0.15655115
-0.073260449 -0.054345418 0.15650992
-0.07295908 -0.054331228 0.15646906
-0.072657935 -0.054317098 0.15642837
-0.072519064 -0.05442464 0.15673807
-0.072482832 -0.054610349 0.15727291
-0.072623231 -0.05493113 0.15819672
-0.072681971 -0.055192426 0.15894923
-0.072472177 -0.055251069 0.15911812
-0.07264927 -0.055606302 0.16014116
-0.072648153 -0.05582742 0.16077796
-0.072453782 -0.055901214 0.16099048
-0.072677776 -0.056299686 0.16213804
-0.072594196 -0.05646215 0.16260593
-0.072787367 -0.056842059 0.16370003
-0.072764583 -0.057055734 0.16431539
-0.072784789 -0.057305001 0.16503325
-0.072840258 -0.057584189 0.16583729
-0.072685696 -0.057698954 0.16616781
-0.072897553 -0.058106743 0.1673422
-0.072819389 -0.058285791 0.16785784
-0.072910398 -0.058602303 0.16876937
-0.072966017 -0.058892906 0.16960628
-0.072726727 -0.058946926 0.16976185
-0.073005907 -0.059423409 0.17113408
-0.072854519 -0.059551995 0.17150439
-0.073039874 -0.059958104 0.17267396
-0.07295806 -0.060147438 0.17321922
-0.073145919 -0.060561676 0.17441219
-0.073049396 -0.060743015 0.17493443
-0.073175751 -0.061112069 0.17599727
-0.073148817 -0.061355762 0.17669909
-0.073219955 -0.06168421 0.17764498
-0.073229797 -0.061963677 0.17844982
-0.072987497 -0.062031318 0.17864463
-0.073271148 -0.062548541 0.18013418
-0.073066413 -0.062651597 0.18043098
-0.073288009 -0.063122779 0.18178794
-0.073096052 -0.063240401 0.18212669
-0.073326543 -0.063726231 0.18352582
-0.073088273 -0.063807227 0.18375908
-0.20072521 -0.17603464 0.50696397
-0.19984458 -0.17606445 0.5070498
-0.19896363 -0.17609425 0.50713563
-0.1980824 -0.17612408 0.50722152
-0.19720086 -0.1761539 0.50730741
-0.19631903 -0.17618375 0.50739336
-0.19543691 -0.17621361 0.50747937
-0.19455446 -0.17624345 0.50756532
-0.19367175 -0.17627335 0.50765139
-0.19278871 -0.17630321 0.5077374
-0.19190533 -0.17633307 0.50782341
-0.19102186 -0.1763631 0.50790989
-0.1901381 -0.17639318 0.5079965
-0.18925387 -0.1764231 0.50808269
-0.18836933 -0.17645302 0.50816888
-0.18748449 -0.17648296 0.50825506
-0.18659936 -0.1765129 0.50834131
-0.1857139 -0.17654285 0.50842756
-0.18482818 -0.17657281 0.50851387
-0.18394215 -0.17660281 0.50860023
-0.18305582 -0.17663281 0.5086866
-0.18216917 -0.17666279 0.50877297
-0.18128222 -0.1766928 0.5088594
-0.18039498 -0.17672281 0.50894582
-0.17950743 -0.17675284 0.50903231
-0.17861958 -0.17678288 0.5091188
-0.17773144 -0.17681292 0.50920534
-0.176843 -0.176843 0.50929195
-0.17595422 -0.17687304 0.50937849
-0.17506519 -0.17690314 0.50946516
-0.17417581 -0.17693321 0.50955176
-0.17328617 -0.17696333 0.50963849
-0.17239621 -0.17699344 0.50972521
-0.17150594 -0.17702356 0.50981194
-0.17061538 -0.17705369 0.50989872
-0.16972449 -0.17708382 0.50998551
-0.16883333 -0.17711398 0.51007235
-0.16794184 -0.17714414 0.51015919
-0.16705006 -0.17717431 0.5102461
-0.16615798 -0.17720449 0.510333
-0.16526559 -0.17723468 0.51041996
-0.16437289 -0.17726488 0.51050693
-0.16347989 -0.17729509 0.51059395
-0.16258658 -0.17732531 0.51068097
-0.16169298 -0.17735554 0.51076806
-0.16079907 -0.17738579 0.51085514
-0.15990485 -0.17741604 0.51094228
-0.15901032 -0.17744631 0.51102942
-0.15811551 -0.17747658 0.51111662
-0.15722036 -0.17750686 0.51120383
-0.15632494 -0.17753716 0.51129109
-0.15542918 -0.17756747 0.51137835
-0.15453313 -0.17759779 0.51146567
-0.15363678 -0.1776281 0.51155299
-0.15274012 -0.17765844 0.51164037
-0.15184316 -0.17768881 0.51172781
-0.15094589 -0.17771918 0.51181525
-0.15004833 -0.17774956 0.51190275
-0.14915045 -0.17777994 0.51199025
-0.14825226 -0.17781034 0.51207781
-0.14735375 -0.17784074 0.51216537
-0.14645496 -0.17787117 0.51225299
-0.14555585 -0.1779016 0.51234061
-0.14465643 -0.17793204 0.51242828
-0.11616822 -0.14380953 0.41415852
-0.11460274 -0.14278983 0.41122189
-0.11343271 -0.14225276 0.40967515
-0.1122717 -0.14172001 0.40814093
-0.1112575 -0.14136679 0.40712366
-0.11028031 -0.14105621 0.40622923
-0.1093074 -0.14074698 0.40533867
-0.10836441 -0.14047238 0.40454784
-0.10748932 -0.14028266 0.40400147
-0.10661658 -0.14009346 0.40345657
-0.10574619 -0.13990475 0.40291312
-0.10487811 -0.13971652 0.40237102
-0.10405587 -0.13958713 0.40199843
-0.10324924 -0.13947703 0.40168133
-0.10244387 -0.13936709 0.40136471
-0.10163976 -0.13925733 0.4010486
-0.10083696 -0.13914777 0.40073308
-0.10005167 -0.13906099 0.40048316
-0.099293113 -0.13901035 0.40033734
-0.098535106 -0.13895977 0.40019163
-0.097777642 -0.13890921 0.40004602
-0.097020738 -0.13885868 0.39990053
-0.096264377 -0.13880818 0.39975509
-0.095521621 -0.1387767 0.39966443
-0.094799995 -0.13877566 0.39966142
-0.094078369 -0.1387746 0.39965841
-0.093356758 -0.13877356 0.3996554
-0.092635162 -0.13877252 0.39965239
-0.091913573 -0.13877147 0.39964938
-0.091192 -0.13877043 0.3996464
-0.090499647 -0.1388142 0.39977244
-0.08980722 -0.13885856 0.39990017
-0.089114353 -0.13890293 0.40002799
-0.088421039 -0.13894734 0.40015587
-0.087727286 -0.13899179 0.40028387
-0.087033093 -0.13903627 0.40041196
-0.086351141 -0.13910121 0.400599
-0.085683815 -0.139191 0.4008576
-0.085015625 -0.13928092 0.40111652
-0.08434657 -0.13937095 0.4013758
-0.083676644 -0.13946107 0.40163538
-0.08300586 -0.13955134 0.40189531
-0.082335413 -0.13964377 0.40216151
-0.081691474 -0.13978319 0.40256304
-0.081046246 -0.13992289 0.40296537
-0.080399729 -0.14006287 0.4033685
-0.079751916 -0.14020313 0.40377244
-0.079102792 -0.14034365 0.40417713
-0.078452781 -0.14048521 0.4045848
-0.077832788 -0.14068368 0.40515637
-0.077211045 -0.14088272 0.40572956
-0.076587535 -0.1410823 0.40630436
-0.07596226 -0.14128247 0.40688083
-0.075335234 -0.14148325 0.40745905
-0.074729577 -0.14172851 0.40816537
-0.074137859 -0.14200535 0.40896267
-0.073543824 -0.14228328 0.40976307
-0.072947457 -0.14256229 0.4105666
-0.072348744 -0.1428424 0.41137326
-0.071800783 -0.14322954 0.41248822
-0.071251497 -0.14362213 0.41361883
-0.070699111 -0.14401671 0.4147552
-0.070171483 -0.14447069 0.41606262
-0.069705084 -0.14506193 0.41776532
-0.069235049 -0.14565843 0.41948321
-0.068912938 -0.14658277 0.42214522
-0.068956763 -0.14831483 0.42713338
-0.082765505 -0.18002667 0.51846063
-0.081844471 -0.18005784 0.5185504
-0.08092311 -0.18008901 0.51864016
-0.080001436 -0.1801202 0.51872998
-0.079079442 -0.18015139 0.51881981
-0.078157127 -0.18018259 0.51890969
-0.077234492 -0.18021381 0.51899958
-0.44045544 -1.0403396 2.9960845
-0.43512654 -1.0405201 2.9966042
-0.42979583 -1.0407006 2.9971242
-0.42446345 -1.0408818 2.9976459
-0.41912875 -1.0410616 2.9981642
-0.41379249 -1.0412426 2.9986851
-0.40845391 -1.0414222 2.9992025
-0.40311465 -1.041605 2.9997287
-0.39777207 -1.041784 3.0002444
-0.39242813 -1.0419643 3.0007637
-0.38708344 -1.0421476 3.0012918
-0.38173541 -1.0423272 3.0018086
-0.37638587 -1.0425076 3.0023284
-0.37103474 -1.0426888 3.0028503
-0.36568192 -1.0428706 3.0033739
-0.36032656 -1.0430505 3.0038919
-0.35497099 -1.0432353 3.0044241
-0.34961167 -1.0434147 3.0049405
-0.34425142 -1.0435969 3.0054653
-0.338889 -1.0437782 3.0059874
-0.33352464 -1.0439593 3.0065088
-0.32815805 -1.0441393 3.0070274
-0.32279092 -1.0443236 3.0075581
-0.31742081 -1.0445044 3.0080788
-0.31204909 -1.0446861 3.0086021
-0.30667534 -1.0448673 3.009124
-0.30130044 -1.045051 3.0096531
-0.29592279 -1.0452319 3.010174
-0.2905435 -1.0454135 3.0106971
-0.28516248 -1.0455958 3.0112219
-0.27977937 -1.0457773 3.0117447
-0.27439526 -1.0459622 3.0122771
-0.26900825 -1.0461432 3.0127985
-0.26361993 -1.0463265 3.0133264
-0.25822908 -1.0465074 3.0138471
-0.25283682 -1.04669 3.0143733
-0.24744283 -1.0468735 3.0149016
-0.24204676 -1.0470562 3.0154278
-0.23664874 -1.0472387 3.0159533
-0.23124896 -1.0474218 3.0164807
-0.22584702 -1.0476037 3.0170045
-0.22044361 -1.0477875 3.017534
-0.21503797 -1.0479698 3.018059
-0.20963067 -1.0481534 3.0185876
-0.20422123 -1.0483357 3.0191126
-0.19881046 -1.0485209 3.0196462
-0.19339712 -1.0487027 3.0201695
-0.18798183 -1.0488842 3.0206921
-0.18256545 -1.0490701 3.0212278
-0.17714649 -1.0492523 3.0217524
-0.17172579 -1.0494354 3.0222797
-0.16630316 -1.0496182 3.0228064
-0.16087896 -1.0498034 3.0233395
-0.15545252 -1.0499862 3.0238662
-0.15002458 -1.0501721 3.0244012
-0.14459421 -1.0503541 3.0249255
-0.13916235 -1.0505393 3.0254588
-0.1337283 -1.0507224 3.025986
-0.12829246 -1.0509063 3.0265157
-0.12285476 -1.0510907 3.0270469
-0.1174152 -1.0512757 3.0275795
-0.11197343 -1.0514578 3.0281041
-0.10653019 -1.0516442 3.0286407
-0.10108468 -1.0518271 3.0291674
-0.09563747 -1.0520122 3.0297005
-0.090188369 -1.0521977 3.0302348
-0.08473704 -1.0523794 3.0307581
-0.079284057 -1.0525641 3.0312903
-0.073829159 -1.0527492 3.0318229
-0.068372428 -1.0529354 3.0323594
-0.062913544 -1.053118 3.0328853
-0.057453003 -1.053305 3.0334239
-0.051990371 -1.0534891 3.0339539
-0.046525829 -1.0536731 3.0344841
-0.041059453 -1.0538592 3.0350201
-0.035591111 -1.0540444 3.0355532
-0.030120827 -1.0542289 3.0360847
-0.024648679 -1.0544157 3.0366225
-0.019174526 -1.0545989 3.0371501
-0.013698542 -1.0547878 3.037694
-0.0082205487 -1.0549704 3.0382199
-0.0027406651 -1.0551561 3.0387547
0.0027411473 -1.0553417 3.0392892
0.0082248887 -1.0555273 3.039824
0.013710555 -1.0557127 3.0403578
0.019198159 -1.0558988 3.0408936
0.024687704 -1.0560851 3.0414302
0.030179132 -1.0562696 3.0419617
0.035672553 -1.0564564 3.0424995
0.041167855 -1.0566416 3.0430329
0.046665136 -1.0568281 3.04357
0.05216438 -1.0570151 3.0441084
0.057665523 -1.0572013 3.0446446
0.063168503 -1.0573858 3.0451763
0.068673685 -1.0575747 3.0457203
0.074180581 -1.0577601 3.0462542
0.079689495 -1.0579467 3.0467916
0.08520031 -1.0581329 3.0473278
0.090713166 -1.0583203 3.0478673
0.096227705 -1.0585048 3.0483987
0.10174458 -1.0586935 3.0489423
0.10726314 -1.0588797 3.0494785
0.11278354 -1.0590649 3.0500119
0.11830633 -1.0592543 3.0505574
0.12383073 -1.0594407 3.0510941
0.12935737 -1.0596296 3.0516379
0.13488536 -1.0598136 3.0521679
0.14041591 -1.0600024 3.052712
0.14594813 -1.0601892 3.0532498
0.15148251 -1.0603775 3.053792
0.1570186 -1.0605643 3.0543299
0.16255696 -1.060753 3.0548735
0.16809681 -1.0609388 3.0554087
0.17363903 -1.0611274 3.0559516
0.17918292 -1.0613142 3.0564897
0.18472899 -1.0615025 3.0570316
0.19027673 -1.061689 3.057569
0.19582696 -1.0618786 3.058115
0.20137876 -1.0620661 3.058655
0.20693243 -1.0622531 3.0591936
0.21248832 -1.0624416 3.0597365
0.21804582 -1.0626283 3.0602741
0.22360551 -1.0628164 3.0608156
0.22916748 -1.0630057 3.0613611
0.23473096 -1.0631932 3.0619009
0.24029648 -1.063381 3.0624418
0.24586451 -1.0635712 3.0629895
0.25143358 -1.0637574 3.0635259
0.25700596 -1.0639493 3.0640786
0.2625789 -1.0641357 3.064615
0.26815465 -1.0643251 3.0651608
0.27373213 -1.0645139 3.0657043
0.27931207 -1.0647044 3.0662532
0.28489313 -1.0648918 3.0667927
0.035835203 -0.13139574 0.37840793
0.036207408 -0.13027899 0.37519181
0.03671347 -0.12967601 0.37345529
0.037214868 -0.1290786 0.37173477
0.037744503 -0.12859853 0.37035221
0.038298205 -0.12821573 0.36924979
0.038849663 -0.12783864 0.36816379
0.039520994 -0.12786204 0.36823118
0.040192455 -0.12788507 0.36829755
0.042539708 -0.13315274 0.38346794
0.043671567 -0.13450843 0.3873722
0.043260615 -0.13114439 0.37768406
0.043618642 -0.13017967 0.37490577
0.021710942 -0.063806966 0.18375833
0.021654818 -0.062684998 0.18052717
0.021541333 -0.061432693 0.17692064
0.021620302 -0.060757782 0.17497696
0.021492807 -0.059530437 0.17144231
0.021367189 -0.058343031 0.16802269
0.021422924 -0.057677105 0.16610488
0.021266906 -0.056467298 0.16262075
0.021119686 -0.055313464 0.15929781
0.021315254 -0.055076327 0.15861487
0.021576196 -0.055012155 0.15843007
0.021868827 -0.055029403 0.15847974
0.022161096 -0.055045303 0.15852553
0.022453953 -0.055062242 0.15857431
0.02274699 -0.055079188 0.15862311
0.023040207 -0.055096149 0.15867196
0.023333604 -0.055113114 0.15872082
0.023627184 -0.055130098 0.15876973
0.054334946 -0.1252632 0.36074677
0.054942567 -0.12516502 0.36046401
0.055554945 -0.12507986 0.36021873
0.056169935 -0.12500246 0.35999584
0.056786366 -0.12493 0.3597872
0.057409044 -0.12487278 0.35962239
0.058030728 -0.1248147 0.35945511
0.058659047 -0.124772 0.35933217
0.059288718 -0.1247331 0.35922012
0.059921555 -0.12470162 0.35912946
0.060560305 -0.12468298 0.35907578
0.06119886 -0.12466434 0.35902211
0.061846688 -0.12466479 0.35902339
0.062495291 -0.12466677 0.35902911
0.063149497 -0.12467978 0.35906658
0.063809253 -0.12470336 0.3591345
0.064470984 -0.12473029 0.35921204
0.065143049 -0.12477649 0.35934508
0.065815628 -0.12482274 0.35947829
0.066500001 -0.12489025 0.3596727
0.067186959 -0.12496126 0.3598772
0.067884624 -0.12505062 0.36013457
0.06858816 -0.12514901 0.3604179
0.069303036 -0.12526605 0.36075497
0.070025921 -0.12539525 0.36112708
0.070763931 -0.12554891 0.36156958
0.071508661 -0.12571158 0.36203805
0.072275676 -0.12591012 0.36260983
0.07305567 -0.1261275 0.36323586
0.073858783 -0.12638059 0.36396474
0.074696578 -0.12668802 0.36485013
0.075574428 -0.12705743 0.36591402
0.076515734 -0.12752622 0.36726406
0.077568017 -0.12817033 0.36911905
0.080782957 -0.13234654 0.38114616
0.081264973 -0.13201271 0.38018477
0.081677064 -0.13157183 0.37891507
0.082075804 -0.13111696 0.37760505
0.082471743 -0.13066511 0.37630376
0.082765006 -0.13005929 0.37455907
0.082993083 -0.12936169 0.37255004
0.083661012 -0.12935539 0.37253189
0.08434847 -0.12937912 0.37260026
0.70922631 -1.0792575 3.1081645
0.71496087 -1.0794507 3.1087213
0.72069848 -1.0796455 3.1092823
0.72643703 -1.0798389 3.109839
0.73217785 -1.0800325 3.1103966
0.73792183 -1.0802279 3.1109591
0.74366605 -1.0804205 3.1115141
0.7494154 -1.0806177 3.112082
0.75516325 -1.0808098 3.1126354
0.76091558 -1.0810055 3.1131988
0.76666915 -1.0812 3.113759
0.77242512 -1.0813951 3.114321
0.77818203 -1.0815887 3.1148784
0.78394377 -1.0817862 3.115447
0.78970426 -1.0819792 3.1160028
0.79546869 -1.0821747 3.1165659
0.80123544 -1.0823706 3.1171303
0.80700421 -1.0825666 3.1176946
0.8127746 -1.082762 3.1182573
0.81854701 -1.0829574 3.11882
0.82432145 -1.0831528 3.1193826
0.83009821 -1.0833485 3.1199465
0.83587629 -1.0835433 3.1205075
0.84165639 -1.0837381 3.1210685
0.84744078 -1.0839359 3.1216381
0.85322404 -1.0841296 3.1221957
0.85901254 -1.0843273 3.1227653
0.86480099 -1.0845225 3.1233273
0.87059319 -1.0847197 3.1238952
0.87638485 -1.0849137 3.124454
0.88218141 -1.0851113 3.1250231
0.88797802 -1.0853064 3.1255851
0.89377898 -1.0855044 3.1261554
0.89957994 -1.0856999 3.1267183
0.90538383 -1.0858965 3.1272843
0.91118878 -1.0860919 3.1278472
0.91699928 -1.0862914 3.1284218
0.9228065 -1.0864848 3.1289785
0.92861891 -1.0866817 3.1295457
0.93443412 -1.0868796 3.1301155
0.94025147 -1.0870775 3.1306856
0.94606978 -1.0872742 3.1312521
0.95188797 -1.0874684 3.1318114
0.95771176 -1.0876667 3.1323826
0.96353656 -1.0878639 3.1329503
0.96936405 -1.0880617 3.1335199
0.97519213 -1.0882579 3.1340849
0.98102492 -1.0884571 3.1346586
0.98685795 -1.0886542 3.1352262
0.99269253 -1.0888507 3.1357925
0.99853045 -1.0890489 3.1363628
1.004371 -1.0892475 3.1369348
1.0102112 -1.0894434 3.1374993
1.0160571 -1.0896435 3.1380754
1.0219024 -1.0898405 3.1386428
1.02775 -1.0900379 3.1392114
1.0336016 -1.0902374 3.1397858
1.0394539 -1.0904353 3.1403556
1.0453072 -1.0906321 3.1409225
1.0511653 -1.090832 3.1414981
1.0570232 -1.0910293 3.1420662
1.0628821 -1.0912255 3.1426315
1.0687469 -1.0914259 3.1432085
1.0746102 -1.0916226 3.143775
1.0804802 -1.0918238 3.1443546
1.0863471 -1.0920199 3.1449194
1.0922197 -1.0922197 3.1454947
1.0980937 -1.0924188 3.1460681
1.1039698 -1.0926179 3.1466415
1.1098465 -1.0928155 3.1472106
1.1157297 -1.0930176 3.1477926
1.1216104 -1.0932152 3.1483617
1.1274946 -1.0934142 3.1489346
1.133382 -1.0936142 3.1495106
1.1392713 -1.0938141 3.1500864
1.1451612 -1.0940125 3.1506579
1.1510558 -1.0942136 3.1512368
1.1569498 -1.094412 3.151808
1.1628462 -1.0946108 3.1523807
1.1687469 -1.0948116 3.1529591
1.1746452 -1.0950083 3.1535254
1.1805507 -1.0952096 3.1541054
1.186458 -1.0954109 3.154685
1.1923665 -1.0956112 3.1552618
1.1982741 -1.0958089 3.1558311
1.2041898 -1.096012 3.1564162
1.2101021 -1.0962101 3.1569867
1.2160193 -1.0964108 3.1575646
1.2219372 -1.0966103 3.1581392
1.227859 -1.0968114 3.1587183
1.2337834 -1.0970129 3.1592987
1.2397094 -1.097214 3.1598778
1.2456349 -1.0974129 3.1604507
1.2515668 -1.0976155 3.1610341
1.2574977 -1.0978154 3.1616099
1.263433 -1.0980173 3.1621914
1.2693678 -1.0982171 3.1627667
1.2753043 -1.0984164 3.1633408
1.2812464 -1.0986189 3.1639237
1.2871906 -1.0988212 3.1645064
1.2931349 -1.099022 3.1650846
1.2990797 -1.0992212 3.1656585
1.3050318 -1.099425 3.1662452
1.310981 -1.0996246 3.16682
1.3169355 -1.0998268 3.1674025
1.3228925 -1.1000295 3.1679859
1.3288505 -1.1002311 3.1685667
1.3348074 -1.1004301 3.1691399
1.3407732 -1.1006347 3.1697292
1.3467367 -1.1008358 3.1703081
1.3527049 -1.1010388 3.170893
1.3586712 -1.1012387 3.1714687
1.3646446 -1.1014427 3.1720562
1.3706189 -1.1016457 3.1726406
1.3765947 -1.1018481 3.1732237
1.3825699 -1.1020485 3.1738007
1.3885498 -1.1022508 3.1743834
1.3945323 -1.1024537 3.1749675
1.4005163 -1.102656 3.1755502
1.4065022 -1.1028582 3.1761324
1.4124897 -1.1030599 3.1767135
1.4184825 -1.1032642 3.1773019
1.424476 -1.1034673 3.177887
1.4304703 -1.1036695 3.1784692
1.4364681 -1.1038727 3.1790543
1.4424706 -1.1040778 3.1796451
1.4484696 -1.1042788 3.1802239
1.4544742 -1.1044824 3.1808102
1.4604816 -1.1046865 3.1813979
1.4664918 -1.1048911 3.181987
1.4724985 -1.1050915 3.1825643
1.4785148 -1.1052974 3.1831574
1.4845276 -1.1054993 3.1837387
1.4905448 -1.1057028 3.1843247
1.4965658 -1.1059076 3.1849146
1.5025865 -1.1061106 3.185499
1.5086124 -1.1063157 3.18609
1.5146363 -1.106518 3.1866724
1.520666 -1.1067228 3.1872625
1.5266975 -1.1069275 3.1878519
1.5327297 -1.1071312 3.1884387
1.5387641 -1.107335 3.1890252
1.5448041 -1.1075411 3.1896188
1.5508419 -1.1077442 3.1902039
1.5568832 -1.1079483 3.1907916
1.5629272 -1.1081529 3.1913807
1.5689757 -1.108359 3.1919744
1.5750226 -1.1085625 3.1925604
1.5810751 -1.1087685 3.1931536
1.5871269 -1.1089724 3.1937411
1.5931835 -1.1091784 3.1943343
1.5992402 -1.1093829 3.1949229
1.605298 -1.1095866 3.1955099
1.6113613 -1.1097926 3.1961031
1.6174262 -1.1099983 3.1966956
1.6234933 -1.1102041 3.1972883
1.629559 -1.1104075 3.1978738
1.6356325 -1.1106147 3.1984706
1.6417038 -1.110819 3.1990588
1.6477816 -1.1110262 3.1996555
1.6538593 -1.1112318 3.2002478
1.6599391 -1.1114374 3.20084
1.6660216 -1.1116434 3.2014334
1.6721071 -1.1118501 3.2020285
1.6781917 -1.1120547 3.2026176
1.6842842 -1.1122632 3.203218
1.6903729 -1.1124676 3.2038069
1.6964678 -1.1126747 3.2044034
1.7025644 -1.1128817 3.2049992
1.7086618 -1.1130877 3.2055924
1.7147603 -1.1132929 3.2061837
1.7208626 -1.1134993 3.206778
1.7269694 -1.1137072 3.2073767
1.7330726 -1.1139114 3.2079649
1.7391858 -1.1141207 3.2085676
1.7452949 -1.114326 3.2091587
1.75141 -1.1145337 3.2097569
1.7575275 -1.1147414 3.2103553
1.7636452 -1.114948 3.2109504
1.7697643 -1.1151543 3.211544
1.7758884 -1.1153623 3.2121432
1.7820127 -1.1155689 3.2127383
1.7881397 -1.1157759 3.2133346
1.7942704 -1.115984 3.2139337
1.8004059 -1.1161937 3.2145374
0.19235604 -0.11887171 0.34233984
0.19139268 -0.11789788 0.33953533
0.19094619 -0.11724766 0.33766273
0.19069493 -0.11672106 0.33614618
0.19055216 -0.11626399 0.33482987
0.19048329 -0.11585476 0.3336513
0.19046801 -0.1154806 0.33257377
0.19049399 -0.11513373 0.3315748
0.19055298 -0.11480892 0.33063936
-0.25720474 -0.15416184 0.44629064
-0.25616488 -0.15402065 0.4458819
-0.25512695 -0.15387973 0.44547394
-0.2541725 -0.15378842 0.44520959
-0.2532708 -0.15372856 0.44503632
-0.25236985 -0.15366876 0.4448632
-0.25146958 -0.15360901 0.44469023
-0.25057 -0.1535493 0.44451737
-0.24972472 -0.15352258 0.44444001
-0.24892116 -0.15352142 0.44443667
-0.2481176 -0.15352026 0.4444333
-0.24731405 -0.15351909 0.44442993
-0.24651052 -0.15351793 0.44442657
-0.24570699 -0.15351677 0.4444232
-0.24496551 -0.15355448 0.44453239
-0.24423744 -0.15360089 0.44466671
-0.24350895 -0.15364732 0.44480115
-0.24278003 -0.15369381 0.44493571
-0.24205066 -0.1537403 0.44507033
-0.24132088 -0.15378685 0.44520506
-0.2406306 -0.15385896 0.44541383
-0.23996583 -0.15394792 0.44567138
-0.23930031 -0.154037 0.44592926
-0.23863405 -0.15412621 0.4461875
-0.23796701 -0.15421551 0.44644603
-0.23729923 -0.15430494 0.44670489
-0.23664109 -0.15440126 0.44698375
-0.23603435 -0.15453188 0.44736192
-0.23542656 -0.15466273 0.4477407
-0.23481768 -0.15479375 0.44812003
-0.23420776 -0.154925 0.44849995
-0.23359682 -0.15505646 0.44888055
-0.23298483 -0.15518816 0.44926178
-0.23242061 -0.1553527 0.44973812
-0.23187059 -0.1555279 0.45024535
-0.23131937 -0.15570354 0.45075381
-0.23076691 -0.15587959 0.45126343
-0.23021321 -0.15605603 0.45177424
-0.22965825 -0.15623288 0.45228618
-0.22914717 -0.15644094 0.45288852
-0.22866058 -0.15666726 0.45354372
-0.22817262 -0.15689428 0.45420092
-0.22768328 -0.15712197 0.45486009
-0.22719251 -0.15735032 0.45552114
-0.22670168 -0.15758029 0.45618689
-0.22629417 -0.15787007 0.4570258
-0.22588508 -0.15816085 0.45786756
-0.22547433 -0.1584526 0.45871219
-0.22506206 -0.15874544 0.45955992
-0.22465941 -0.15904725 0.46043363
-0.22436014 -0.15942474 0.46152645
-0.22405957 -0.15980412 0.46262476
-0.22375758 -0.16018532 0.46372834
-0.22346051 -0.16057295 0.46485046
-0.2233371 -0.16108872 0.46634361
-0.22321296 -0.16160786 0.46784651
-0.074884161 -0.054422457 0.15755023
-0.0745802 -0.054408032 0.15750848
-0.074276395 -0.054393612 0.15746672
-0.073972747 -0.054379199 0.157425
-0.07366927 -0.054364797 0.15738331
-0.073365942 -0.054350398 0.15734163
-0.073063061 -0.05433622 0.15730058
-0.072760269 -0.054321993 0.15725939
-0.072473362 -0.054319561 0.15725236
-0.072587103 -0.054618586 0.15811801
-0.072663784 -0.054891974 0.15890945
-0.072467588 -0.054960564 0.15910803
-0.072601035 -0.055280708 0.16003482
-0.072626889 -0.055521153 0.1607309
-0.072445229 -0.055604257 0.16097148
-0.072646275 -0.055982944 0.16206776
-0.072586253 -0.056162696 0.16258813
-0.072740853 -0.056510642 0.16359542
-0.072758511 -0.056754604 0.16430168
-0.072573252 -0.05684163 0.16455361
-0.07281594 -0.057265926 0.16578193
-0.072680771 -0.057395328 0.16615655
-0.072878778 -0.057790004 0.16729911
-0.072813265 -0.057978131 0.16784373
-0.072875708 -0.058270138 0.16868907
-0.072946139 -0.058571007 0.16956007
-0.07272134 -0.058636364 0.16974927
-0.072978377 -0.059092429 0.17106956
-0.07284604 -0.05923574 0.17148444
-0.073011272 -0.059623279 0.17260635
-0.072949216 -0.05982773 0.17319822
-0.07311324 -0.060220152 0.17433426
-0.073047377 -0.060425799 0.1749296
-0.072874025 -0.060543932 0.17527159
-0.073140331 -0.061029948 0.17667858
-0.073191114 -0.061339598 0.17757501
-0.073203601 -0.061619733 0.17838597
-0.072980449 -0.061703116 0.17862737
-0.073243774 -0.062200367 0.18006688
-0.073030934 -0.062295876 0.18034337
-0.073261671 -0.062772304 0.18172261
-0.073086776 -0.062903896 0.18210357
-0.073305741 -0.063377202 0.18347375
-0.073085487 -0.063473336 0.18375207
-0.20167097 -0.1759453 0.50935262
-0.20078634 -0.1759752 0.50943923
-0.1999014 -0.17600514 0.5095259
-0.19901615 -0.17603508 0.50961256
-0.19813062 -0.17606504 0.50969929
-0.19724481 -0.17609501 0.50978607
-0.19635868 -0.17612499 0.50987285
-0.19547223 -0.17615497 0.50995964
-0.19458549 -0.17618497 0.51004648
-0.19369844 -0.17621496 0.51013333
-0.1928111 -0.17624499 0.51022023
-0.19192347 -0.17627503 0.51030719
-0.19103551 -0.17630507 0.51039416
-0.19014725 -0.17633511 0.51048112
-0.18925871 -0.17636517 0.51056814
-0.18836984 -0.17639522 0.51065516
-0.18748063 -0.17642526 0.51074213
-0.18659145 -0.17645562 0.51082999
-0.1857017 -0.17648573 0.51091719
-0.18481162 -0.17651583 0.51100433
-0.18392125 -0.17654596 0.51109153
-0.18303056 -0.17657608 0.51117873
-0.18213958 -0.17660622 0.51126599
-0.18124828 -0.17663637 0.51135325
-0.18035667 -0.17666651 0.51144052
-0.17946477 -0.17669667 0.51152784
-0.17857257 -0.17672686 0.51161522
-0.17768006 -0.17675704 0.5117026
-0.17678724 -0.17678724 0.51179004
-0.17589413 -0.17681745 0.51187748
-0.1750007 -0.17684767 0.51196498
-0.17410697 -0.1768779 0.51205248
-0.17321292 -0.17690812 0.51213998
-0.17231856 -0.17693837 0.51222754
-0.17142393 -0.17696863 0.51231515
-0.17052896 -0.1769989 0.51240277
-0.16963372 -0.17702919 0.51249045
-0.16873814 -0.17705947 0.51257813
-0.16784225 -0.17708977 0.51266581
-0.16694608 -0.17712009 0.51275361
-0.16604958 -0.1771504 0.51284134
-0.16515279 -0.17718072 0.51292914
-0.16425569 -0.17721108 0.513017
-0.16335829 -0.17724141 0.51310486
-0.16246057 -0.17727178 0.51319277
-0.16156255 -0.17730215 0.51328069
-0.16066422 -0.17733255 0.51336867
-0.15976557 -0.17736293 0.51345664
-0.15886663 -0.17739335 0.51354468
-0.15796737 -0.17742376 0.51363271
-0.15706779 -0.17745417 0.51372075
-0.15616792 -0.17748462 0.51380891
-0.15526773 -0.17751504 0.513897
-0.15436725 -0.17754552 0.51398522
-0.15346645 -0.17757598 0.51407337
-0.15256533 -0.17760645 0.51416159
-0.15166393 -0.17763697 0.51424992
-0.1507622 -0.17766745 0.5143382
-0.14986019 -0.17769799 0.51442659
-0.14895785 -0.17772852 0.51451498
-0.1480552 -0.17775905 0.51460338
-0.14715223 -0.17778961 0.51469183
-0.14624895 -0.17782016 0.51478028
-0.14534537 -0.17785074 0.5148688
-0.11619146 -0.1430911 0.4142414
-0.11461088 -0.14205815 0.41125107
-0.11344074 -0.14152378 0.40970412
-0.11227958 -0.1409937 0.40816957
-0.11126018 -0.1406358 0.40713346
-0.11028297 -0.14032683 0.406239
-0.10931002 -0.14001919 0.40534839
-0.10836427 -0.13974248 0.40454733
-0.10748918 -0.13955374 0.40400097
-0.10661644 -0.13936552 0.40345606
-0.10574605 -0.1391778 0.40291262
-0.10487799 -0.13899055 0.40237054
-0.10405399 -0.1388595 0.40199116
-0.10324737 -0.13874997 0.40167406
-0.10244202 -0.13864061 0.40135747
-0.10163794 -0.13853142 0.40104139
-0.10083514 -0.13842243 0.40072584
-0.10004859 -0.13833432 0.40047079
-0.099290043 -0.13828395 0.40032497
-0.098532058 -0.13823362 0.40017927
-0.097774632 -0.13818333 0.40003368
-0.097017743 -0.13813308 0.39988819
-0.096261404 -0.13808283 0.39974275
-0.095517628 -0.13805 0.39964771
-0.094796024 -0.13804896 0.3996447
-0.094074436 -0.13804793 0.39964169
-0.093352854 -0.13804689 0.39963868
-0.092631288 -0.13804585 0.39963567
-0.091909736 -0.13804482 0.39963269
-0.091188185 -0.13804378 0.39962968
-0.090494938 -0.1380859 0.39975163
-0.089802548 -0.13813002 0.39987937
-0.089109711 -0.13817418 0.40000716
-0.088416435 -0.13821834 0.40013504
-0.087722711 -0.13826256 0.40026301
-0.087028556 -0.1383068 0.4003911
-0.086345769 -0.13836999 0.40057406
-0.085678473 -0.13845931 0.40083262
-0.08501032 -0.13854873 0.40109152
-0.084341303 -0.13863829 0.40135074
-0.083671428 -0.13872795 0.40161031
-0.083000675 -0.13881773 0.40187022
-0.082329348 -0.13890812 0.40213189
-0.081685461 -0.1390468 0.40253338
-0.081040271 -0.13918576 0.40293565
-0.080393791 -0.13932499 0.40333873
-0.079746023 -0.1394645 0.40374261
-0.079096936 -0.13960427 0.40414724
-0.078446552 -0.13974433 0.40455267
-0.077826008 -0.13994066 0.40512106
-0.077204309 -0.14013863 0.40569416
-0.076580845 -0.14033714 0.40626886
-0.075955614 -0.14053623 0.40684521
-0.075328633 -0.14073592 0.40742332
-0.074721754 -0.14097749 0.40812263
-0.074130081 -0.14125285 0.40891975
-0.073536098 -0.14152928 0.40972
-0.072939776 -0.14180677 0.41052336
-0.072341107 -0.14208536 0.41132984
-0.071791418 -0.1424669 0.4124344
-0.071242176 -0.14285734 0.41356471
-0.07068985 -0.14324981 0.41470087
-0.070159249 -0.14369515 0.41599011
-0.069692887 -0.14428312 0.41769224
-0.069222867 -0.14487627 0.41940939
-0.068893544 -0.14578025 0.4220264
-0.068886824 -0.14739472 0.42670017
-0.083164334 -0.17995445 0.52095896
-0.47466683 -1.0388423 3.0073953
-0.46932462 -1.0390251 3.0079243
-0.46397874 -1.0392038 3.0084419
-0.45863155 -1.0393839 3.0089633
-0.45328379 -1.039567 3.0094934
-0.44793305 -1.0397476 3.0100162
-0.44258025 -1.0399278 3.0105379
-0.43722656 -1.0401103 3.0110664
-0.43186998 -1.0402906 3.0115881
-0.42651212 -1.0404723 3.012114
-0.42115271 -1.0406548 3.0126424
-0.41579017 -1.0408342 3.0131619
-0.41042751 -1.0410181 3.0136943
-0.40506145 -1.0411983 3.0142157
-0.39969429 -1.0413803 3.0147429
-0.3943246 -1.0415609 3.0152655
-0.3889541 -1.0417442 3.0157962
-0.38358063 -1.0419247 3.0163188
-0.37820649 -1.0421085 3.0168509
-0.37282905 -1.0422885 3.0173719
-0.36745095 -1.042472 3.0179031
-0.36207032 -1.0426537 3.018429
-0.35668778 -1.0428352 3.0189548
-0.35130346 -1.0430173 3.0194817
-0.34591725 -1.0431993 3.0200086
-0.34052935 -1.0433819 3.0205374
-0.33513904 -1.043563 3.0210617
-0.32974777 -1.0437471 3.0215943
-0.32435387 -1.0439289 3.0221207
-0.31895828 -1.0441113 3.0226488
-0.31356108 -1.0442948 3.02318
-0.308162 -1.0444783 3.0237112
-0.30276051 -1.0446602 3.0242379
-0.29735744 -1.0448431 3.0247674
-0.29195207 -1.0450248 3.0252931
-0.28654572 -1.0452096 3.0258284
-0.28113672 -1.0453919 3.0263562
-0.27572611 -1.0455753 3.0268869
-0.27031344 -1.045758 3.027416
-0.26489887 -1.0459409 3.0279453
-0.25948241 -1.0461239 3.028475
-0.25406417 -1.0463073 3.0290062
-0.24864432 -1.0464921 3.029541
-0.24322166 -1.0466729 3.0300648
-0.23779821 -1.0468588 3.0306027
-0.23237218 -1.0470417 3.0311322
-0.22694445 -1.0472256 3.0316646
-0.22151467 -1.0474088 3.0321951
-0.21608326 -1.0475935 3.0327296
-0.21064939 -1.0477755 3.0332565
-0.20521469 -1.047963 3.0337994
-0.1997769 -1.0481446 3.0343249
-0.1943378 -1.0483292 3.0348597
-0.18889649 -1.0485125 3.0353899
-0.1834539 -1.0486991 3.0359304
-0.17800885 -1.048883 3.0364625
-0.17256196 -1.0490671 3.0369956
-0.16711293 -1.04925 3.0375252
-0.1616624 -1.0494356 3.0380623
-0.15620978 -1.0496202 3.0385966
-0.15075493 -1.0498025 3.0391247
-0.14529875 -1.0499891 3.0396647
-0.13984007 -1.0501715 3.0401928
-0.13437985 -1.0503569 3.0407293
-0.12891787 -1.0505435 3.0412698
-0.12345367 -1.050728 3.0418036
-0.11798751 -1.050912 3.0423367
-0.11251958 -1.0510976 3.0428739
-0.10704955 -1.0512815 3.043406
-0.10157783 -1.0514678 3.0439456
-0.096104041 -1.0516528 3.044481
-0.090628386 -1.0518385 3.0450189
-0.085150756 -1.0520239 3.0455554
-0.079671316 -1.0522108 3.0460966
-0.074189693 -1.0523945 3.0466282
-0.068706281 -1.0525802 3.0471659
-0.063220888 -1.0527653 3.0477016
-0.057733584 -1.0529506 3.0482383
-0.052244332 -1.0531358 3.0487742
-0.046753235 -1.0533229 3.0493159
-0.041260131 -1.0535086 3.0498538
-0.035765119 -1.0536954 3.0503945
-0.030268151 -1.053882 3.0509346
-0.024769191 -1.0540667 3.0514691
-0.019268347 -1.0542538 3.052011
-0.013765533 -1.0544398 3.0525494
-0.0082607735 -1.0546254 3.0530868
-0.0027540785 -1.0548121 3.053627
0.0027545651 -1.0549984 3.0541666
0.0082651554 -1.0551848 3.0547061
0.013777697 -1.0553716 3.0552468
0.019292172 -1.0555574 3.0557847
0.024808632 -1.0557451 3.0563283
0.03032702 -1.0559317 3.0568683
0.035847377 -1.0561188 3.0574102
0.041369651 -1.0563051 3.0579493
0.046893846 -1.0564908 3.0584867
0.052420102 -1.0566789 3.0590315
0.057948139 -1.0568637 3.0595663
0.063478336 -1.0570524 3.0601125
0.069010422 -1.0572397 3.0606546
0.07454446 -1.0574269 3.061197
0.08008039 -1.0576134 3.0617368
0.085618503 -1.0578028 3.0622849
0.091158427 -1.0579902 3.0628276
0.096700288 -1.0581774 3.0633695
0.10224407 -1.0583643 3.0639105
0.10779004 -1.0585535 3.0644581
0.11333775 -1.0587404 3.0649993
0.11888747 -1.0589279 3.0655422
0.12443928 -1.0591165 3.0660882
0.1299929 -1.0593039 3.0666306
0.13554858 -1.0594919 3.0671749
0.14110613 -1.0596794 3.0677176
0.14666572 -1.0598674 3.0682619
0.15222733 -1.0600559 3.0688074
0.15779106 -1.0602453 3.0693557
0.16335642 -1.0604324 3.0698977
0.16892394 -1.0606209 3.0704432
0.17449346 -1.0608095 3.0709891
0.18006499 -1.0609983 3.0715358
0.18563834 -1.0611863 3.0720801
0.19121388 -1.0613756 3.072628
0.1967912 -1.0615638 3.073173
0.20237046 -1.0617518 3.0737174
0.20795199 -1.0619415 3.0742664
0.21353558 -1.0621315 3.0748165
0.21912077 -1.0623198 3.0753613
0.2247082 -1.0625092 3.0759096
0.23029719 -1.0626967 3.0764525
0.23588891 -1.0628877 3.0770056
0.24148236 -1.0630776 3.0775552
0.24707715 -1.0632646 3.0780966
0.25267503 -1.0634564 3.0786519
0.25827366 -1.0636431 3.0791924
0.26387542 -1.0638347 3.079747
0.26947859 -1.0640237 3.0802944
0.2750839 -1.0642134 3.0808434
0.28069082 -1.0644019 3.081389
0.28630087 -1.0645945 3.0819466
0.035846416 -0.13075407 0.37852633
0.036212396 -0.12962008 0.37524348
0.036718503 -0.12902007 0.37350649
0.037219949 -0.1284256 0.37178552
0.037747286 -0.12793992 0.37037954
0.038367517 -0.12778051 0.36991805
0.03904197 -0.12780406 0.36998621
0.04072661 -0.13107808 0.37946436
0.041701231 -0.13199645 0.38212299
0.042574171 -0.13256834 0.3837786
0.04365731 -0.133766 0.38724571
0.043212112 -0.13031684 0.3772606
0.043578349 -0.12938379 0.37455943
0.021710437 -0.063474022 0.18375406
0.021648958 -0.062342487 0.18047832
0.021538347 -0.061105087 0.17689611
0.021619383 -0.06043959 0.17496952
0.021491703 -0.059218146 0.17143351
0.021364203 -0.058031838 0.16799921
0.021421265 -0.057373036 0.16609201
0.02126533 -0.056169804 0.16260871
0.021103911 -0.05498502 0.15917882
0.021397548 -0.055001751 0.15922725
0.021691458 -0.05501873 0.15927641
0.021985631 -0.055035926 0.1593262
0.022279598 -0.055052165 0.15937321
0.022574058 -0.055069201 0.15942252
0.0228687 -0.05508624 0.15947185
0.023163524 -0.055103291 0.15952121
0.023458531 -0.055120353 0.1595706
0.023753721 -0.055137426 0.15962003
0.054297496 -0.1245266 0.36049813
0.054903418 -0.12442609 0.36020717
0.055514097 -0.1243386 0.35995388
0.056127541 -0.12425923 0.35972413
0.056742046 -0.12418402 0.3595064
0.057363324 -0.12412516 0.35933599
0.057984043 -0.12406642 0.35916594
0.058611181 -0.12402255 0.35903895
0.059240326 -0.12398385 0.35892692
0.059871573 -0.12395033 0.35882989
0.060509793 -0.12393183 0.3587763
0.061147824 -0.12391332 0.35872272
0.061793618 -0.12391076 0.35871533
0.062441688 -0.12391278 0.35872117
0.063093349 -0.12392181 0.3587473
0.06375251 -0.12394523 0.3588151
0.064411901 -0.12396864 0.35888287
0.065082543 -0.124013 0.35901129
0.065754481 -0.12405894 0.3591443
0.066434912 -0.12411986 0.35932067
0.067121141 -0.12419032 0.35952464
0.067813918 -0.12427144 0.35975945
0.068516642 -0.12436907 0.3600421
0.06922546 -0.12447582 0.36035115
0.069947459 -0.12460408 0.36072245
0.070677817 -0.12474472 0.36112958
0.071422927 -0.12490859 0.36160398
0.072183229 -0.12509583 0.36214602
0.072956577 -0.12530209 0.36274317
0.07376077 -0.12555721 0.36348173
0.074587367 -0.12584564 0.3643167
0.075444952 -0.12618086 0.36528713
0.076356925 -0.12660044 0.36650181
0.077368326 -0.12717625 0.36816877
0.078647621 -0.12817889 0.37107134
0.08148545 -0.13168325 0.38121626
0.081965782 -0.13135102 0.38025451
0.082382485 -0.1309232 0.37901598
0.082778864 -0.13047038 0.3777051
0.08317247 -0.13002063 0.37640309
0.083494768 -0.12946761 0.37480208
0.084080085 -0.129328 0.37439796
0.084770888 -0.1293516 0.37446627
0.71277624 -1.0790249 3.1237221
0.71854103 -1.0792204 3.1242881
0.72430682 -1.0794144 3.1248496
0.73007661 -1.0796113 3.1254196
0.73584712 -1.0798062 3.125984
0.74161923 -1.0800006 3.1265466
0.74739474 -1.080197 3.127115
0.75317198 -1.0803927 3.1276817
0.75895047 -1.0805875 3.1282456
0.76473248 -1.0807842 3.1288152
0.77051467 -1.0809784 3.1293774
0.77629918 -1.0811731 3.1299407
0.78208804 -1.0813708 3.1305132
0.78787589 -1.0815644 3.1310737
0.79366881 -1.0817621 3.1316459
0.79946178 -1.0819571 3.1322105
0.8052572 -1.0821527 3.1327767
0.81105697 -1.0823512 3.1333516
0.81685686 -1.0825473 3.1339192
0.82265759 -1.0827417 3.1344821
0.82846344 -1.0829402 3.1350567
0.83426899 -1.0831357 3.1356225
0.84007692 -1.0833316 3.1361895
0.84588856 -1.0835295 3.1367624
0.85170054 -1.0837253 3.1373293
0.85751426 -1.0839206 3.1378949
0.86333358 -1.0841205 3.1384735
0.86915207 -1.0843167 3.1390417
0.87497145 -1.0845115 3.1396055
0.88079649 -1.0847107 3.1401823
0.88662028 -1.084906 3.1407473
0.89244819 -1.0851038 3.1413198
0.89827776 -1.0853008 3.1418905
0.90410924 -1.085498 3.1424611
0.90994406 -1.0856965 3.1430359
0.9157806 -1.0858947 3.1436095
0.92161655 -1.0860897 3.1441741
0.92745841 -1.0862892 3.1447518
0.93329966 -1.0864856 3.1453204
0.93914568 -1.0866852 3.1458981
0.94499195 -1.0868826 3.1464696
0.95084071 -1.0870806 3.1470428
0.95669109 -1.087278 3.1476142
0.96254474 -1.0874768 3.1481898
0.96840012 -1.0876752 3.1487641
0.97425652 -1.0878725 3.1493351
0.98011678 -1.0880717 3.1499119
0.9859764 -1.0882679 3.15048
0.99184 -1.0884663 3.1510541
0.99770647 -1.0886655 3.1516309
1.0035745 -1.0888641 3.1522059
1.0094446 -1.0890628 3.152781
1.0153178 -1.0892625 3.1533592
1.0211909 -1.08946 3.1539309
1.0270677 -1.089659 3.1545072
1.0329465 -1.0898582 3.1550837
1.0388268 -1.0900567 3.1556582
1.0447103 -1.0902562 3.1562359
1.0505966 -1.0904566 3.1568162
1.0564836 -1.0906556 3.1573923
1.0623736 -1.0908555 3.1579709
1.0682636 -1.0910534 3.1585436
1.074158 -1.0912533 3.1591225
1.0800545 -1.0914536 3.1597023
1.0859524 -1.091653 3.1602795
1.0918528 -1.0918528 3.1608579
1.0977545 -1.0920519 3.1614344
1.103659 -1.0922517 3.1620128
1.1095644 -1.0924504 3.1625879
1.1154761 -1.092653 3.1631749
1.1213841 -1.0928502 3.1637454
1.1272999 -1.0930529 3.1643322
1.1332135 -1.0932513 3.1649067
1.1391331 -1.0934535 3.1654921
1.1450514 -1.0936526 3.1660683
1.1509739 -1.0938536 3.1666503
1.1568973 -1.0940535 3.1672289
1.1628224 -1.0942529 3.1678064
1.1687516 -1.0944545 3.1683898
1.174683 -1.0946559 3.168973
1.180613 -1.0948542 3.1695471
1.1865501 -1.0950571 3.1701343
1.192486 -1.0952569 3.1707129
1.1984251 -1.0954578 3.1712942
1.2043678 -1.09566 3.1718798
1.2103088 -1.0958587 3.1724551
1.2162579 -1.096063 3.1730464
1.2222036 -1.0962622 3.1736231
1.2281541 -1.0964639 3.174207
1.2341067 -1.0966655 3.1747906
1.2400619 -1.0968676 3.1753757
1.2460175 -1.0970682 3.1759565
1.2519785 -1.0972718 3.1765456
1.2579377 -1.0974718 3.1771247
1.2639006 -1.0976733 3.1777081
1.2698674 -1.0978763 3.1782959
1.2758344 -1.0980777 3.1788788
1.2818042 -1.0982797 3.1794636
1.2877779 -1.0984831 3.1800525
1.2937487 -1.0986824 3.1806295
1.2997277 -1.0988867 3.181221
1.3057051 -1.0990881 3.1818037
1.3116853 -1.0992899 3.1823881
1.31767 -1.0994937 3.1829782
1.3236543 -1.0996954 3.183562
1.3296424 -1.0998986 3.1841502
1.3356333 -1.1001023 3.1847398
1.3416232 -1.1003034 3.185322
1.3476163 -1.1005055 3.1859071
1.353616 -1.1007111 3.1865025
1.3596115 -1.1009116 3.187083
1.3656155 -1.1011173 3.1876783
1.3716158 -1.1013184 3.1882603
1.3776226 -1.1015228 3.1888523
1.3836282 -1.1017247 3.1894369
1.3896397 -1.1019297 3.1900301
1.395649 -1.102131 3.190613
1.4016649 -1.102336 3.1912065
1.40768 -1.1025388 3.1917934
1.4137001 -1.1027437 3.1923866
1.4197197 -1.1029465 3.1929739
1.4257418 -1.1031497 3.193562
1.4317662 -1.103353 3.1941504
1.4377924 -1.1035562 3.1947386
1.4438243 -1.1037619 3.1953342
1.4498543 -1.1039646 3.1959209
1.4558909 -1.1041707 3.1965177
1.4619269 -1.1043748 3.1971085
1.4679645 -1.1045784 3.1976981
1.4740047 -1.1047825 3.1982887
1.4800512 -1.1049895 3.1988881
1.4860929 -1.1051915 3.1994727
1.4921435 -1.1053984 3.2000718
1.4981929 -1.1056029 3.2006638
1.5042459 -1.1058084 3.2012587
1.5102979 -1.1060117 3.2018473
1.5163556 -1.1062176 3.2024434
1.5224134 -1.1064218 3.2030346
1.5284759 -1.1066282 3.2036319
1.5345372 -1.1068319 3.2042217
1.5406005 -1.1070356 3.2048116
1.5466715 -1.1072433 3.2054129
1.5527383 -1.1074466 3.206001
1.5588123 -1.1076533 3.2065995
1.5648875 -1.1078594 3.2071962
1.5709628 -1.1080641 3.2077887
1.5770402 -1.1082686 3.2083809
1.5831252 -1.1084771 3.2089846
1.5892061 -1.1086811 3.2095752
1.5952927 -1.1088877 3.2101731
1.6013813 -1.1090941 3.2107708
1.6074715 -1.1093001 3.2113671
1.6135628 -1.1095055 3.2119617
1.61966 -1.1097134 3.2125635
1.6257548 -1.1099182 3.2131565
1.6318585 -1.1101276 3.2137625
1.637957 -1.1103319 3.214354
1.6440588 -1.1105371 3.2149482
1.6501675 -1.1107454 3.2155511
1.6562753 -1.1109517 3.2161484
1.6623849 -1.1111578 3.2167449
1.6684976 -1.1113645 3.2173433
1.6746131 -1.1115716 3.217943
1.6807292 -1.1117777 3.2185395
1.686852 -1.1119868 3.2191448
1.6929724 -1.1121929 3.2197416
1.6990972 -1.1124003 3.2203422
1.7052232 -1.1126074 3.2209413
1.7113539 -1.1128159 3.221545
1.7174819 -1.1130213 3.2221396
1.7236174 -1.1132302 3.2227445
1.7297529 -1.1134375 3.2233448
1.7358928 -1.1136465 3.2239497
1.7420332 -1.1138543 3.2245512
1.7481757 -1.1140621 3.2251527
1.7543188 -1.1142689 3.2257514
1.7604655 -1.1144764 3.2263525
1.7666161 -1.1146853 3.2269568
1.7727669 -1.1148928 3.2275579
1.7789242 -1.115103 3.2281663
1.7850755 -1.1153082 3.2287602
1.7912377 -1.1155188 3.2293699
1.7973964 -1.1157259 3.2299693
1.8035622 -1.1159358 3.2305772
1.8097285 -1.1161449 3.2311826
0.19199362 -0.1180314 0.34169486
0.19119364 -0.11716346 0.33918223
0.19079272 -0.11654484 0.33739135
0.19056351 -0.1160347 0.33591452
0.19043654 -0.11558985 0.3346267
0.19037724 -0.11518875 0.33346555
0.19036953 -0.11482131 0.33240181
0.19040149 -0.11448002 0.33141381
0.19046482 -0.11415967 0.33048642
-0.25719932 -0.15335359 0.44628125
-0.25615951 -0.15321314 0.44587255
-0.25512159 -0.15307295 0.44546458
-0.2541641 -0.15298028 0.44519487
-0.25326246 -0.15292075 0.44502163
-0.25236151 -0.15286127 0.44484851
-0.25146127 -0.15280183 0.44467553
-0.25056174 -0.15274243 0.44450271
-0.24971426 -0.15271451 0.44442141
-0.24891073 -0.15271334 0.44441804
-0.24810719 -0.15271218 0.44441468
-0.24730368 -0.15271103 0.44441131
-0.24650021 -0.15270989 0.44440797
-0.24569671 -0.15270872 0.4444046
-0.24495348 -0.15274513 0.44451055
-0.24422543 -0.15279128 0.44464484
-0.24349695 -0.15283746 0.44477925
-0.24276808 -0.15288369 0.4449138
-0.24203876 -0.15292996 0.44504842
-0.24130899 -0.15297624 0.44518313
-0.24061717 -0.15304698 0.44538897
-0.23995245 -0.15313548 0.44564652
-0.23928694 -0.15322408 0.44590434
-0.23862071 -0.1533128 0.44616255
-0.23795371 -0.15340163 0.44642106
-0.23728594 -0.15349057 0.44667989
-0.23662633 -0.1535854 0.44695586
-0.2360196 -0.15371533 0.44733396
-0.23541185 -0.15384547 0.44771272
-0.23480301 -0.15397581 0.44809201
-0.23419312 -0.15410635 0.4484719
-0.23358218 -0.15423711 0.44885242
-0.23297022 -0.1543681 0.44923362
-0.23240447 -0.15453072 0.44970688
-0.23185445 -0.15470499 0.45021403
-0.23130324 -0.15487967 0.4507224
-0.23075083 -0.15505479 0.45123199
-0.23019713 -0.15523027 0.45174268
-0.22964218 -0.15540618 0.45225456
-0.22912939 -0.15561193 0.45285338
-0.22864281 -0.15583704 0.45350847
-0.22815487 -0.15606284 0.45416558
-0.22766553 -0.15628931 0.45482463
-0.22717477 -0.15651643 0.45548558
-0.22668257 -0.15674421 0.45614845
-0.22627431 -0.15703191 0.45698568
-0.22586522 -0.15732111 0.45782733
-0.22545448 -0.1576113 0.45867181
-0.22504222 -0.15790255 0.45951942
-0.22463666 -0.15820068 0.46038699
-0.22433735 -0.15857613 0.4614796
-0.22403675 -0.15895346 0.46257767
-0.22373474 -0.15933259 0.46368101
-0.22343311 -0.15971485 0.46479344
-0.22330961 -0.16022781 0.46628621
-0.22318539 -0.1607441 0.46778873
-0.22306035 -0.16126375 0.46930096
-0.074999064 -0.054427892 0.15839309
-0.074693441 -0.054413386 0.15835087
-0.074387975 -0.054398887 0.15830867
-0.074082687 -0.054384399 0.15826651
-0.073777549 -0.054369915 0.15822436
-0.073472582 -0.054355443 0.15818225
-0.073167764 -0.054340973 0.15814014
-0.072863616 -0.054326881 0.15809913
-0.072559059 -0.054312382 0.15805693
-0.072637476 -0.054585561 0.15885192
-0.072462991 -0.054670099 0.15909794
-0.07255286 -0.054955546 0.15992863
-0.072595708 -0.055207513 0.16066189
-0.072436683 -0.055307366 0.16095248
-0.072613105 -0.05566518 0.16199377
-0.072578512 -0.055863459 0.16257079
-0.072694406 -0.056179654 0.16349097
-0.072747201 -0.056449458 0.16427614
-0.072528228 -0.056509726 0.16445152
-0.072787561 -0.056944687 0.16571732
-0.072675847 -0.05709175 0.16614529
-0.072854966 -0.057469446 0.16724445
-0.072807148 -0.057670526 0.16782962
-0.072841041 -0.057938281 0.16860883
-0.072908908 -0.058235414 0.16947353
-0.07271596 -0.058325853 0.16973671
-0.072950877 -0.058761701 0.1710051
-0.072837099 -0.05891918 0.17146339
-0.072982699 -0.059288714 0.17253879
-0.072940379 -0.059508104 0.17317724
-0.073080577 -0.059878927 0.17425638
-0.073045358 -0.060108602 0.17492478
-0.072849289 -0.06020733 0.17521209
-0.073110729 -0.060686681 0.17660707
-0.072910383 -0.060785245 0.1768939
-0.073174641 -0.061273705 0.1783154
-0.0729734 -0.061374977 0.17861012
-0.073216416 -0.061852448 0.17999962
-0.073027022 -0.061967254 0.18033372
-0.073235355 -0.062422078 0.18165733
-0.073077492 -0.062567472 0.18208045
-0.073284954 -0.063028365 0.18342172
-0.073082708 -0.063139483 0.18374507
-0.20262565 -0.17585506 0.51176381
-0.20173702 -0.17588513 0.51185131
-0.20084803 -0.17591518 0.51193875
-0.19995879 -0.17594527 0.51202631
-0.1990692 -0.17597532 0.51211381
-0.19817935 -0.17600544 0.51220143
-0.19728915 -0.17603552 0.51228899
-0.19639869 -0.17606565 0.51237667
-0.1955079 -0.17609577 0.51246428
-0.19461682 -0.17612591 0.51255202
-0.19372541 -0.17615604 0.5126397
-0.19283372 -0.1761862 0.5127275
-0.19194172 -0.17621638 0.5128153
-0.19104941 -0.17624655 0.51290309
-0.1901568 -0.17627674 0.51299095
-0.18926387 -0.17630693 0.51307881
-0.18837065 -0.17633714 0.51316673
-0.1874771 -0.17636734 0.51325464
-0.18658327 -0.17639758 0.51334262
-0.18568911 -0.17642781 0.5134306
-0.18479466 -0.17645806 0.51351863
-0.18389989 -0.17648831 0.51360667
-0.18300477 -0.17651853 0.51369458
-0.18210968 -0.17654908 0.51378351
-0.181214 -0.17657937 0.51387167
-0.18031801 -0.17660967 0.51395983
-0.17942169 -0.17663996 0.51404798
-0.17852508 -0.17667027 0.5141362
-0.17762817 -0.17670061 0.51422447
-0.17673095 -0.17673095 0.51431274
-0.17583342 -0.1767613 0.51440108
-0.17493556 -0.17679165 0.51448941
-0.17403743 -0.17682202 0.51457781
-0.17313896 -0.17685239 0.5146662
-0.17224018 -0.17688277 0.51475459
-0.17134109 -0.17691317 0.51484305
