# .PCD v0.7 - Point Cloud Data file format
VERSION 0.7
FIELDS x y z
SIZE 4 4 4
TYPE F F F
COUNT 1 1 1
WIDTH 91
HEIGHT 1
VIEWPOINT 0 0 0 1 0 0 0
POINTS 91
DATA ascii
-0.012018457 -0.033729218 0.42985967
0.0034891609 -0.039156139 0.42985123
-0.002714501 -0.036064085 0.42996356
-0.016626038 -0.039533023 0.4096528
-0.041287374 -0.048863038 0.41998178
-0.046076987 -0.048400197 0.42931572
-0.039708339 -0.048028182 0.41930699
-0.018855987 -0.040300049 0.40993854
-0.025514401 -0.048440386 0.40999255
-0.029290229 -0.050052922 0.41108853
-0.00037245246 -0.050281081 0.41296241
-0.049888052 -0.058396094 0.42879185
0.013252875 -0.058691304 0.41983798
0.0094602983 -0.051842436 0.41957009
0.0025880558 -0.059525285 0.40993527
-0.039520871 -0.050059769 0.41732737
-0.046590474 -0.05871157 0.41998297
-0.050779697 -0.066284947 0.42979214
0.017418496 -0.069286913 0.42917839
-0.049517032 -0.069477387 0.42560288
0.014006649 -0.069276132 0.41973212
0.0093180668 -0.069699138 0.41326201
0.0055443998 -0.069859438 0.40982926
0.015886191 -0.076331213 0.42961121
-0.048408054 -0.077840149 0.42938542
0.010974104 -0.079089224 0.41957608
0.0094128065 -0.079444088 0.41746378
-0.00036819885 -0.060016412 0.40824616
-0.029077912 -0.0352812 0.42987445
-0.039948575 -0.078777097 0.41395888
-0.039615422 -0.069974907 0.41050664
0.012796116 -0.083368629 0.42993608
-0.042910915 -0.087754749 0.42863187
-0.03217271 -0.091976099 0.41967043
0.0079547847 -0.049622703 0.41999954
-0.0062857745 -0.086152084 0.4099676
-0.00038235789 -0.04014758 0.42394522
-0.010026087 -0.089492112 0.41172513
-0.041486371 -0.090339482 0.42989397
-0.047344822 -0.067797787 0.41995442
-0.0055438867 -0.049894981 0.40979132
0.0096863611 -0.087952159 0.4295961
-0.036597315 -0.059516847 0.40987715
-0.029842848 -0.099605352 0.42972362
0.012018749 -0.046911895 0.42987013
0.0041653086 -0.088228807 0.41984999
-0.038628902 -0.089879125 0.42406327
-0.0018933673 -0.042032752 0.41986004
-0.018855155 -0.088360429 0.40992045
-0.038809918 -0.069857851 0.40981996
-0.028307067 -0.10043193 0.4299438
0.016665708 -0.056973469 0.42972934
0.00037877125 -0.091283873 0.41996846
-0.01059109 -0.060259648 0.4049322
-0.0081396019 -0.10116363 0.4297576
-0.01855954 -0.037497848 0.41996279
-0.029745538 -0.079688661 0.40717065
-0.031400498 -0.098853417 0.4298245
0.0058152555 -0.040706787 0.42985028
-0.00037648037 -0.089978807 0.4174284
-0.0383549 -0.039904591 0.42956147
-0.043496255 -0.079806171 0.41936645
-0.00036969697 -0.055824243 0.40990722
0.0019363619 -0.095656276 0.42939422
-0.011236934 -0.10190737 0.42962494
-0.029697822 -0.060495563 0.40651751
-0.019410081 -0.053835507 0.40606087
-0.0042631314 -0.09960226 0.42971027
0.002587277 -0.077987917 0.40981188
-0.029521476 -0.089311808 0.41433409
-0.024616634 -0.039007898 0.41990882
-0.035864752 -0.078015082 0.40995461
-0.010019161 -0.040447723 0.4114407
-0.022548728 -0.087607354 0.40985656
0.0094880369 -0.050476357 0.4208003
-0.0079446444 -0.094957419 0.41946414
0.00036963454 -0.080949962 0.40983799
-0.023095738 -0.09579052 0.41979927
-0.029906532 -0.041263442 0.41973832
-0.032168839 -0.082455762 0.40997353
-0.0178007 -0.096578263 0.41993192
-0.0011050522 -0.079932109 0.40841454
-0.02997552 -0.040599756 0.4207066
-0.035172287 -0.089632601 0.41933134
0.010220407 -0.08062765 0.41970494
-0.029936593 -0.052851025 0.40978593
-0.010366415 -0.099440791 0.42570081
-0.0079523539 -0.039004404 0.41987121
-0.019338965 -0.079910062 0.40457314
-0.039086897 -0.040634893 0.4290911
-0.041262709 -0.083661087 0.41973087
