# .PCD v0.7 - Point Cloud Data file format
VERSION 0.7
FIELDS x y z
SIZE 4 4 4
TYPE F F F
COUNT 1 1 1
WIDTH 60
HEIGHT 1
VIEWPOINT 0 0 0 1 0 0 0
POINTS 60
DATA ascii
0.15355262 -0.10990717 0.43993241
0.14788824 -0.10586102 0.43960688
0.14457409 -0.10969026 0.42975536
0.13991021 -0.10813005 0.42971635
0.12975208 -0.10806219 0.42944664
0.10912952 -0.11785989 0.43999651
0.15464097 -0.1189844 0.42972571
0.14987861 -0.11347398 0.42940623
0.1397935 -0.11052544 0.4269923
0.12211231 -0.11048257 0.42982194
0.13987273 -0.12016167 0.4202874
0.15705402 -0.12447986 0.42996562
0.14956293 -0.12977342 0.42195979
0.13925587 -0.10275576 0.43989199
0.14580388 -0.129898 0.41990209
0.12031422 -0.12942317 0.42082095
0.1297079 -0.10273501 0.43980318
0.13986796 -0.12931189 0.41800743
0.11935922 -0.10666987 0.43967235
0.12994131 -0.12994131 0.41760707
0.14458807 -0.15234078 0.42979693
0.11028543 -0.13912332 0.43208718
0.13949698 -0.13949698 0.41915837
0.12028608 -0.11016492 0.43161502
0.15694565 -0.13601956 0.4296689
0.10978352 -0.14545326 0.43943745
0.1295794 -0.13940175 0.41887218
0.11063005 -0.11538833 0.43965152
0.14928193 -0.13935526 0.42332137
0.11357277 -0.11899945 0.42978007
0.14355843 -0.13825548 0.41998053
0.13757351 -0.15462488 0.429681
0.10743167 -0.13993868 0.43954438
0.15753388 -0.11467832 0.43997008
0.11045768 -0.12983622 0.42972511
0.141284 -0.14052646 0.4199754
0.1554884 -0.14379755 0.4320806
0.11007361 -0.12025835 0.43432674
0.12985508 -0.14196984 0.41976336
0.11066296 -0.14715397 0.43978229
0.15885474 -0.13621697 0.43275833
0.11969519 -0.14990951 0.42949477
0.16072498 -0.13321704 0.43571225
0.12026475 -0.14965421 0.42876336
0.11932039 -0.1557904 0.4395293
0.15081507 -0.14771348 0.42986771
0.14818345 -0.15287527 0.43351105
0.14940298 -0.11039437 0.43251398
0.13971896 -0.14123353 0.41982538
0.14939165 -0.14939165 0.43023452
0.12984687 -0.15465344 0.42976037
0.14730799 -0.1496278 0.42868769
0.16071111 -0.12770443 0.43567461
0.12003262 -0.13984752 0.42250162
0.13624679 -0.15823475 0.43534791
0.10640802 -0.12935102 0.43859306
0.13999957 -0.14997214 0.42527857
0.15934333 -0.12078618 0.43623301
0.11203922 -0.13995211 0.42984504
0.12624262 -0.1586937 0.43878826
