# .PCD v0.7 - Point Cloud Data file format
VERSION 0.7
FIELDS x y z
SIZE 4 4 4
TYPE F F F
COUNT 1 1 1
WIDTH 1326
HEIGHT 1
VIEWPOINT 0 0 0 1 0 0 0
POINTS 1326
DATA ascii
0.0082464991 -0.033420023 0.4812333
0.0090821711 -0.033301294 0.47952369
0.0099220434 -0.033217277 0.47831386
0.01076341 -0.033151306 0.47736391
0.01160479 -0.03309514 0.47655517
0.012445495 -0.033044934 0.47583219
0.013285688 -0.032999936 0.47518426
0.014124954 -0.032958224 0.47458366
0.014963535 -0.032919776 0.47402999
0.01580132 -0.032883827 0.47351235
0.016639039 -0.032851435 0.47304592
0.017477145 -0.032822933 0.47263548
0.018316196 -0.032798771 0.47228757
0.019156555 -0.032778993 0.47200277
0.01999802 -0.032762714 0.47176835
0.02084111 -0.032750316 0.47158983
0.021685751 -0.03274123 0.47145903
0.022532448 -0.032735821 0.47138113
0.023380885 -0.032733239 0.47134393
0.024231998 -0.032734454 0.47136143
0.025085505 -0.032738712 0.47142273
0.025941944 -0.03274639 0.4715333
0.026801622 -0.032757539 0.47169384
0.027665872 -0.032773416 0.47192249
0.028534438 -0.03279331 0.47220895
0.029407864 -0.032817472 0.47255686
0.030286858 -0.032846309 0.47297212
0.031172046 -0.032880105 0.47345874
0.032063734 -0.032918766 0.47401544
0.032960225 -0.032960225 0.47461241
0.033863045 -0.033005752 0.47526801
0.034773417 -0.033056211 0.47599462
0.035692565 -0.033112381 0.47680339
0.036625426 -0.033178326 0.47775301
0.037579887 -0.03326036 0.47893426
0.038583502 -0.033381231 0.48067474
0.0056749117 -0.032739874 0.4840112
0.0065020765 -0.032510381 0.48061851
0.0073437169 -0.032398753 0.4789682
0.0081869671 -0.032316975 0.47775924
0.0090297246 -0.032249015 0.47675458
0.0098715322 -0.032189779 0.47587886
0.010711747 -0.032135241 0.47507259
0.011550281 -0.032084115 0.47431675
0.012387198 -0.032035857 0.47360334
0.013222503 -0.031989925 0.47292432
0.014057399 -0.031948633 0.47231388
0.014892407 -0.031912301 0.47177672
0.015728066 -0.031881217 0.4713172
0.016564405 -0.031854626 0.47092408
0.017401589 -0.031832173 0.4705922
0.018240094 -0.031814117 0.47032526
0.0190791 -0.031798501 0.47009438
0.019919556 -0.031786524 0.46991733
0.020761101 -0.031777196 0.4697794
0.02160402 -0.031770617 0.46968216
0.022448167 -0.031766273 0.46961796
0.023293706 -0.031764142 0.46958646
0.0241413 -0.031764869 0.46959719
0.024990683 -0.031767819 0.46964079
0.025842151 -0.031773135 0.46971938
0.026696457 -0.031781495 0.46984297
0.027553214 -0.031792168 0.47000077
0.028413346 -0.031805985 0.47020501
0.029277772 -0.031823665 0.47046641
0.030146485 -0.03184488 0.47078001
0.031020751 -0.031870633 0.47116077
0.031901982 -0.031901982 0.47162417
0.032790359 -0.031938661 0.47216645
0.033687238 -0.031981554 0.47280055
0.03459321 -0.03203075 0.47352782
0.035507046 -0.032084681 0.47432512
0.036427241 -0.032141682 0.47516781
0.037355311 -0.032202855 0.47607216
0.038296144 -0.03227203 0.47709483
0.039256252 -0.032354053 0.47830743
0.040259976 -0.032467723 0.47998786
0.0039333706 -0.031904008 0.48457617
0.0047680563 -0.031642556 0.4806051
0.0056141163 -0.031525422 0.47882602
0.0064603481 -0.031440362 0.47753406
0.0073051602 -0.031369217 0.47645348
0.008147845 -0.031304877 0.47547624
0.0089883506 -0.03124522 0.47457013
0.0098264841 -0.031188406 0.4737072
0.01066228 -0.031133857 0.47287869
0.01149684 -0.031084049 0.47212219
0.012331164 -0.031040518 0.471461
0.013165575 -0.031002805 0.4708882
0.014000448 -0.030970689 0.47040039
0.014835927 -0.030943505 0.46998751
0.015672071 -0.030920573 0.46963921
0.016508812 -0.030901108 0.46934357
0.017345967 -0.030884281 0.46908799
0.018183989 -0.030870495 0.4688786
0.019022698 -0.030859044 0.46870467
0.019861886 -0.030849312 0.46855685
0.020702029 -0.030841796 0.46844271
0.021543218 -0.030836372 0.4683603
0.022385539 -0.030832913 0.46830776
0.023229159 -0.030831428 0.46828523
0.024074234 -0.030831913 0.46829259
0.024920736 -0.030834131 0.46832627
0.025768828 -0.030838106 0.46838665
0.026618935 -0.030844163 0.46847865
0.027471544 -0.030852657 0.46860766
0.028326759 -0.030863484 0.46877211
0.02918433 -0.030876175 0.46896487
0.030045306 -0.030891653 0.46919996
0.030909969 -0.030909969 0.46947813
0.031779148 -0.030931702 0.46980825
0.032653626 -0.030957334 0.47019756
0.033535812 -0.03098879 0.47067532
0.034426033 -0.031025933 0.47123948
0.035326328 -0.031070145 0.47191098
0.036239367 -0.031123223 0.47271717
0.037163928 -0.031183526 0.47363308
0.038097113 -0.031248195 0.47461531
0.039037671 -0.031315934 0.47564417
0.039990366 -0.031390287 0.47677347
0.040963367 -0.031477112 0.47809225
0.04198388 -0.031596117 0.47989973
0.0030375172 -0.030809103 0.48112771
0.0038884424 -0.030675489 0.47904116
0.0047383267 -0.030583743 0.47760841
0.0055858707 -0.030507447 0.47641695
0.0064307069 -0.030438678 0.47534302
0.0072726579 -0.030374041 0.47433361
0.0081115747 -0.030311672 0.47335964
0.0089479648 -0.030252643 0.4724378
0.0097832177 -0.030200368 0.47162145
0.010617911 -0.030154867 0.47091091
0.011452635 -0.030116187 0.47030687
0.012287717 -0.030083722 0.46979988
0.013123038 -0.030055992 0.46936682
0.013958365 -0.030031633 0.46898642
0.014794158 -0.030011008 0.46866432
0.015629958 -0.029992623 0.46837723
0.01646602 -0.029976601 0.46812701
0.017302305 -0.029962528 0.46790725
0.018139122 -0.029950645 0.46772167
0.018976336 -0.029940441 0.46756235
0.019814126 -0.029931977 0.46743017
0.02065273 -0.029925384 0.46732721
0.021492273 -0.029920613 0.4672527
0.02233267 -0.02991735 0.46720174
0.023174278 -0.029915886 0.46717888
0.024017153 -0.029916102 0.46718225
0.024861494 -0.029918069 0.46721298
0.025707329 -0.029921643 0.46726879
0.026555004 -0.029927067 0.46735349
0.027404433 -0.029934073 0.4674629
0.028256321 -0.029943267 0.46760646
0.029110374 -0.029954154 0.46777648
0.029966861 -0.029966861 0.46797493
0.030826682 -0.029982116 0.46821314
0.031689357 -0.029999256 0.46848083
0.032556202 -0.030019354 0.46879467
0.033427142 -0.030042116 0.46915013
0.034304038 -0.030068973 0.46956953
0.035187874 -0.03010047 0.47006142
0.036080811 -0.030138088 0.47064888
0.036985029 -0.030183185 0.47135311
0.037904095 -0.030238098 0.47221068
0.038838655 -0.030302687 0.47321931
0.039786395 -0.030374559 0.47434169
0.040742263 -0.030449482 0.47551173
0.041710142 -0.030530104 0.47677076
0.042702191 -0.030624805 0.47824964
0.043759495 -0.030761626 0.48038629
0.0013053282 -0.03002255 0.48243427
0.0021630274 -0.029849777 0.47965798
0.0030175946 -0.029744862 0.47797209
0.0038690246 -0.029662522 0.47664896
0.0047171093 -0.029589139 0.47546977
0.0055617145 -0.029519869 0.47435668
0.0064027882 -0.029452827 0.47327936
0.007240898 -0.029389527 0.4722622
0.008077478 -0.029333999 0.47136992
0.0089133447 -0.029286705 0.47060993
0.009748959 -0.029246876 0.46996993
0.010584443 -0.029213062 0.46942657
0.01141984 -0.029184036 0.46896014
0.012254889 -0.029158184 0.46854472
0.013089933 -0.029135659 0.46818277
0.013924742 -0.02911537 0.46785673
0.014759439 -0.029097181 0.46756446
0.01559415 -0.029080981 0.46730417
0.016428933 -0.029066572 0.46707261
0.017263854 -0.029053804 0.46686745
0.01809909 -0.029042726 0.46668944
0.018934732 -0.029033255 0.46653724
0.019770969 -0.029025465 0.46641207
0.020607933 -0.029019333 0.46631354
0.021445619 -0.02901466 0.46623844
0.022284329 -0.029011672 0.46619043
0.023124062 -0.029010188 0.46616656
0.023965137 -0.02901043 0.46617046
0.024807338 -0.02901197 0.46619523
0.025651159 -0.029015245 0.46624783
0.026496714 -0.029020211 0.46632764
0.02734389 -0.029026592 0.46643016
0.028193429 -0.029035024 0.46656567
0.029044844 -0.029044844 0.46672347
0.029898779 -0.02905656 0.46691173
0.030755134 -0.029069921 0.46712643
0.0316144 -0.029085251 0.46737275
0.032476693 -0.029102491 0.46764979
0.033342693 -0.029122097 0.46796486
0.034212522 -0.029144 0.46831682
0.035086632 -0.029168405 0.46870896
0.03596703 -0.029196763 0.46916467
0.03685433 -0.029229296 0.46968743
0.037751216 -0.029267799 0.47030613
0.038661875 -0.029315047 0.47106537
0.039589062 -0.02937253 0.47198907
0.040536176 -0.029442064 0.47310641
0.041500375 -0.029520884 0.47437298
0.042472355 -0.029601945 0.47567555
0.043459151 -0.029689914 0.47708914
0.044479821 -0.029797163 0.47881252
0.045634873 -0.02998863 0.48188922
0.00043365775 -0.02905507 0.48082474
0.0012951778 -0.028925637 0.47868279
0.0021517545 -0.02883351 0.47715819
0.0030041952 -0.028754441 0.47584969
0.0038527171 -0.02868134 0.47463995
0.0046971743 -0.028610062 0.47346041
0.0055380818 -0.028542422 0.47234106
0.0063767466 -0.028482802 0.47135442
0.0072142384 -0.028432587 0.47052342
0.0080510713 -0.02839062 0.46982893
0.0088873599 -0.028354909 0.46923795
0.0097232182 -0.028324157 0.46872905
0.010558499 -0.028296776 0.46827593
0.011393218 -0.028272059 0.4678669
0.012227385 -0.028249476 0.46749318
0.013061282 -0.028229224 0.46715802
0.013894813 -0.028210683 0.46685117
0.014728189 -0.028193962 0.46657449
0.01556138 -0.028178716 0.46632218
0.016394669 -0.028165201 0.46609852
0.017228074 -0.028153194 0.46589983
0.018061735 -0.028142702 0.4657262
0.018895676 -0.028133562 0.46557495
0.019730097 -0.028125884 0.46544787
0.020565275 -0.028119868 0.4653483
0.021401213 -0.028115319 0.46527305
0.02223805 -0.028112251 0.46522227
0.023075908 -0.028110651 0.4651958
0.023914944 -0.028110549 0.46519411
0.024755483 -0.02811216 0.46522075
0.025597516 -0.028115306 0.46527281
0.026441114 -0.028119916 0.46534911
0.0272865 -0.028126083 0.46545118
0.028133839 -0.028133839 0.46557954
0.028983399 -0.0281433 0.46573609
0.029835116 -0.028154263 0.46591753
0.030689169 -0.028166771 0.4661245
0.031546 -0.028181093 0.46636152
0.032405399 -0.028196905 0.46662319
0.033268027 -0.028214656 0.46691695
0.034134023 -0.028234314 0.46724227
0.035003673 -0.028255979 0.46760076
0.035877828 -0.028280169 0.4680011
0.036756985 -0.028307103 0.46844682
0.037642065 -0.028337283 0.46894628
0.038534764 -0.028371749 0.46951663
0.039438304 -0.028412541 0.47019169
0.040357172 -0.028462427 0.47101724
0.041296806 -0.028524598 0.47204611
0.042260677 -0.028600659 0.47330481
0.043241981 -0.028685275 0.4747051
0.044233367 -0.028773161 0.47615948
0.045244645 -0.028870394 0.47776857
0.046320241 -0.029004265 0.47998396
-0.0013079225 -0.028338322 0.4833931
-0.00043280405 -0.028132264 0.47987816
0.00043109097 -0.028020913 0.47797877
0.0012892801 -0.027934402 0.47650307
0.0021428431 -0.027856961 0.47518209
0.0029919576 -0.027782464 0.47391132
0.0038367794 -0.027710073 0.47267649
0.0046784272 -0.027645253 0.47157076
0.0055180849 -0.027590426 0.47063553
0.0063565779 -0.027545171 0.46986359
0.0071941488 -0.027507041 0.46921316
0.0080308327 -0.027473902 0.4686479
0.0088666752 -0.027444471 0.46814585
0.0097016618 -0.02741774 0.46768987
0.010535915 -0.02739338 0.46727434
0.011369405 -0.02737079 0.46688902
0.012202391 -0.027350187 0.46653756
0.013034913 -0.027331268 0.46621487
0.013866991 -0.027313771 0.46591637
0.014698771 -0.027297717 0.46564254
0.015530345 -0.027283039 0.46539214
0.016361846 -0.027269743 0.46516538
0.017193429 -0.027257876 0.46496293
0.018025165 -0.027247345 0.46478328
0.018857321 -0.027238352 0.46462989
0.019690007 -0.027230863 0.46450213
0.020523332 -0.027224828 0.46439919
0.021357369 -0.027220177 0.46431985
0.022192389 -0.027217081 0.46426705
0.023028471 -0.027215464 0.46423948
0.023865808 -0.027215395 0.46423829
0.024704361 -0.027216669 0.46426004
0.025544584 -0.027219638 0.46431068
0.026386429 -0.027224094 0.46438667
0.027229903 -0.027229903 0.46448576
0.0280756 -0.027237521 0.46461573
0.02892332 -0.027246606 0.46477067
0.029773388 -0.027257327 0.46495357
0.030625712 -0.02726947 0.4651607
0.031480636 -0.027283218 0.46539521
0.03233825 -0.027298523 0.46565628
0.033198725 -0.027315406 0.46594429
0.034062218 -0.02733388 0.46625939
0.034928929 -0.02735398 0.46660227
0.035799164 -0.027375832 0.466975
0.036673699 -0.02739989 0.46738541
0.037552755 -0.02742617 0.46783367
0.038437299 -0.027455214 0.4683291
0.039328694 -0.027487798 0.46888492
0.040228963 -0.027525079 0.46952087
0.041141763 -0.027569223 0.47027388
0.042073641 -0.027624108 0.47121009
0.043030825 -0.027693104 0.47238702
0.044016492 -0.027777398 0.47382489
0.04501693 -0.027867625 0.47536397
0.046030696 -0.027962571 0.47698358
0.047082745 -0.028076867 0.47893322
0.048476938 -0.028387398 0.48423022
-0.0021739088 -0.027391249 0.48207095
-0.0012966705 -0.027230082 0.47923449
-0.00043061274 -0.027128603 0.47744852
0.00042928269 -0.02704481 0.47597381
0.0012841636 -0.026967434 0.47461206
0.0021342291 -0.026891286 0.47327188
0.002980011 -0.026820101 0.47201905
0.0038228196 -0.026759736 0.47095668
0.0046636458 -0.026709972 0.47008085
0.0055029928 -0.026668349 0.46934831
0.0063410713 -0.026632499 0.46871737
0.0071779317 -0.026600571 0.46815544
0.0080137132 -0.026571786 0.46764886
0.0088484744 -0.026545422 0.46718487
0.0096822977 -0.026521077 0.4667564
0.010515231 -0.026498381 0.46635696
0.011347295 -0.02647702 0.46598104
0.012178764 -0.026457315 0.46563423
0.013009582 -0.026438827 0.46530885
0.013839897 -0.026421621 0.46500602
0.014669885 -0.026405793 0.46472746
0.015499661 -0.026391314 0.46447265
0.016329473 -0.02637838 0.46424502
0.017159287 -0.026366709 0.46403959
0.017989401 -0.026356565 0.46386108
0.018819811 -0.026347734 0.46370566
0.019650757 -0.026340377 0.46357617
0.020482354 -0.026334455 0.46347195
0.021314694 -0.026329916 0.46339208
0.022148026 -0.026326898 0.46333897
0.022982327 -0.026325213 0.46330929
0.023817908 -0.026325056 0.46330655
0.024654748 -0.026326256 0.46332765
0.025493037 -0.026328873 0.46337372
0.026333109 -0.026333109 0.46344826
0.027174907 -0.026338756 0.46354765
0.028018732 -0.026345972 0.46367463
0.028864609 -0.026354643 0.46382725
0.029712694 -0.026364785 0.46400574
0.0305633 -0.026376547 0.46421275
0.031416479 -0.026389841 0.46444672
0.032272309 -0.026404615 0.46470675
0.033131059 -0.026420971 0.46499461
0.033992901 -0.026438924 0.46531054
0.034857944 -0.026458438 0.46565399
0.035726026 -0.026479289 0.46602094
0.036597773 -0.026501836 0.46641776
0.037473354 -0.026526082 0.4668445
0.038353436 -0.026552377 0.46730727
0.039238527 -0.026580937 0.46780992
0.040129568 -0.026612241 0.46836084
0.041028891 -0.026647629 0.46898365
0.041938923 -0.026688406 0.46970129
0.042864531 -0.026737282 0.4705615
0.043814912 -0.026799412 0.47165495
0.044798352 -0.026879011 0.47305584
0.045808367 -0.026971281 0.47467974
0.046829261 -0.027066452 0.47635472
0.047878582 -0.027174331 0.4782533
0.049052775 -0.027348008 0.48130992
-0.0030391286 -0.026483836 0.48138297
-0.0021591526 -0.026341664 0.47879878
-0.0012907611 -0.026245475 0.47705039
-0.00042891229 -0.026163649 0.47556311
0.00042762901 -0.026085369 0.47414026
0.0012791102 -0.026008574 0.47274441
0.0021262574 -0.025940342 0.47150415
0.0029703346 -0.025884343 0.47048631
0.0038121541 -0.025837932 0.46964273
0.0046522608 -0.025798902 0.46893328
0.0054907724 -0.025764395 0.46830606
0.0063278936 -0.025733434 0.46774331
0.0071637039 -0.025705056 0.46722749
0.0079982746 -0.02567867 0.46674791
0.0088316882 -0.025653951 0.46629858
0.0096640224 -0.025630668 0.46587539
0.01049539 -0.025608752 0.46547702
0.011325849 -0.02558803 0.46510038
0.012155514 -0.025568496 0.46474531
0.012984592 -0.025550326 0.46441507
0.013813232 -0.025533551 0.46411014
0.014641607 -0.025518231 0.46383166
0.015469735 -0.025504159 0.4635759
0.016297953 -0.02549167 0.4633489
0.017126201 -0.025480444 0.46314484
0.017954716 -0.025470644 0.46296671
0.018783562 -0.025462162 0.46281254
0.019612961 -0.025455119 0.46268451
0.020442916 -0.025449345 0.46257958
0.021273779 -0.025445107 0.46250254
0.022105459 -0.025442133 0.46244848
0.022938097 -0.025440434 0.4624176
0.023772022 -0.025440235 0.46241397
0.024607122 -0.025441263 0.46243265
0.025443705 -0.025443705 0.46247706
0.026281916 -0.02544757 0.4625473
0.02712182 -0.025452783 0.46264207
0.027963791 -0.025459571 0.46276546
0.028807806 -0.02546777 0.46291447
0.029653993 -0.025477374 0.46308905
0.030502776 -0.025488621 0.46329346
0.031353917 -0.025501184 0.46352184
0.032207876 -0.025515331 0.46377897
0.033064835 -0.025531076 0.46406513
0.033924919 -0.025548395 0.46437994
0.034788039 -0.025567114 0.46472019
0.035654731 -0.025587512 0.46509096
0.036524914 -0.025609422 0.46548921
0.037398681 -0.025632804 0.46591422
0.038276132 -0.025657628 0.46636543
0.039157707 -0.025684087 0.46684635
0.040044334 -0.025712678 0.46736604
0.040936798 -0.02574376 0.467931
0.041836318 -0.025777932 0.46855214
0.042745113 -0.025816355 0.46925053
0.043667395 -0.025861273 0.47006696
0.04461275 -0.025917884 0.47109595
0.045591604 -0.025991475 0.4724336
0.046606872 -0.026082745 0.47409254
0.047639053 -0.026180021 0.47586069
0.048691787 -0.026284948 0.47776788
0.049834915 -0.026434172 0.48048025
-0.0039044123 -0.02559559 0.48100859
-0.0030210693 -0.0254633 0.47852248
-0.0021500667 -0.025370786 0.4767839
-0.0012858948 -0.025289264 0.47525188
-0.0004272862 -0.025209885 0.47376016
0.00042600435 -0.025134256 0.47233889
0.0012747201 -0.025069496 0.47112185
0.0021200425 -0.0250165 0.47012594
0.0029628347 -0.024972465 0.46929839
0.0038036827 -0.024935255 0.46859911
0.0046427427 -0.024901984 0.46797389
0.005480113 -0.024871282 0.46739691
0.0063159717 -0.024842823 0.46686208
0.0071504354 -0.024816217 0.46636209
0.0079835718 -0.02479109 0.4658899
0.008815431 -0.024767164 0.46544024
0.0096461913 -0.024744578 0.4650158
0.010475923 -0.024723178 0.46461365
0.011304765 -0.024703005 0.46423453
0.01213286 -0.024684096 0.46387917
0.012960397 -0.024666561 0.46354967
0.013787556 -0.024650479 0.46324745
0.014614382 -0.024635673 0.46296918
0.015441076 -0.024622256 0.46271706
0.016267734 -0.024610162 0.46248975
0.017094577 -0.024599511 0.46228963
0.017921574 -0.024590066 0.46211213
0.018749043 -0.024582081 0.46196204
0.019576974 -0.024575349 0.46183556
0.020405568 -0.02456997 0.46173444
0.021234766 -0.02456571 0.46165439
0.022065032 -0.02456296 0.46160275
0.022896215 -0.024561394 0.4615733
0.023728529 -0.024561109 0.46156794
0.024562076 -0.024562076 0.46158612
0.025396872 -0.024564188 0.46162581
0.026233368 -0.024567757 0.46169287
0.027071519 -0.024572609 0.46178406
0.027911698 -0.024578957 0.46190336
0.02875381 -0.02458659 0.4620468
0.029598031 -0.024595547 0.46221513
0.030444812 -0.024606081 0.46241307
0.031293888 -0.024617858 0.46263441
0.03214578 -0.024631184 0.46288481
0.033000652 -0.024646057 0.46316433
0.03385875 -0.024662547 0.46347421
0.034719914 -0.024680423 0.46381015
0.035584725 -0.024699986 0.46417782
0.036453206 -0.02472114 0.46457535
0.037325274 -0.024743721 0.46499971
0.038201239 -0.024767837 0.46545291
0.039081186 -0.02479344 0.46593407
0.039965179 -0.02482048 0.4664422
0.040853847 -0.024849247 0.46698281
0.041748181 -0.024880229 0.46756503
0.042649314 -0.024913955 0.46819887
0.043558851 -0.024951186 0.4688985
0.044480525 -0.02499382 0.46969971
0.045421727 -0.025045626 0.47067329
0.04639741 -0.025114195 0.47196189
0.047414821 -0.025202474 0.47362086
0.048459008 -0.025301605 0.47548383
0.049518827 -0.025405312 0.47743273
0.050655432 -0.025544193 0.48004267
-0.00477063 -0.024720538 0.48086452
-0.0038832177 -0.024593711 0.47839749
-0.0030090793 -0.024502503 0.4766233
-0.0021422235 -0.024421347 0.47504467
-0.0012811357 -0.02434158 0.47349301
-0.00042574128 -0.024267253 0.47204721
0.00042464989 -0.024205044 0.47083712
0.0012712745 -0.024154214 0.46984839
0.002115174 -0.024112983 0.46904635
0.002956762 -0.02407649 0.46833649
0.0037963521 -0.024043562 0.46769598
0.0046341303 -0.024013219 0.46710575
0.0054702158 -0.023984792 0.46655276
0.0063047279 -0.023957966 0.46603096
0.0071377582 -0.023932483 0.46553525
0.0079693571 -0.023908071 0.46506041
0.0087996339 -0.023884721 0.4646062
0.0096287858 -0.023862643 0.46417674
0.01045697 -0.023841891 0.46377307
0.011284309 -0.023822431 0.46339452
0.012111024 -0.023804426 0.46304429
0.012937162 -0.023787685 0.46271864
0.01376293 -0.023772335 0.46242005
0.014588376 -0.023758212 0.46214533
0.015413781 -0.023745554 0.4618991
0.016239176 -0.023734178 0.46167785
0.017064717 -0.023724118 0.46148214
0.017890422 -0.023715209 0.46130884
0.018716559 -0.023707641 0.46116164
0.019543208 -0.023701338 0.46103901
0.02037037 -0.023696145 0.46093801
0.021198247 -0.023692159 0.46086046
0.02202701 -0.023689425 0.46080729
0.022856804 -0.023687961 0.4607788
0.023687571 -0.023687571 0.46077123
0.024519548 -0.023688376 0.46078688
0.025352806 -0.023690326 0.46082482
0.026187686 -0.023693621 0.46088892
0.02702436 -0.023698285 0.46097964
0.027862674 -0.023704067 0.46109208
0.028702907 -0.023711096 0.46122885
0.029545298 -0.023719465 0.46139163
0.030390009 -0.023729185 0.46158069
0.031236965 -0.023740092 0.46179289
0.032086749 -0.023752529 0.46203479
0.032939393 -0.023766398 0.46230456
0.03379529 -0.02378187 0.46260554
0.03465455 -0.023798909 0.46293697
0.035517167 -0.023817394 0.46329653
0.036383506 -0.02383747 0.46368706
0.037253916 -0.023859249 0.4641107
0.038128205 -0.023882501 0.46456301
0.039006546 -0.023907237 0.46504417
0.039889064 -0.023933439 0.46555385
0.040775657 -0.023960954 0.46608907
0.041666839 -0.023989998 0.46665403
0.042563546 -0.024021011 0.46725732
0.043466635 -0.024054352 0.46790585
0.044378176 -0.024091011 0.46861893
0.045301221 -0.024132425 0.46942455
0.046242684 -0.024181953 0.47038797
0.047215141 -0.024245614 0.47162628
0.048234142 -0.024330497 0.47327742
0.049289215 -0.024430307 0.47521892
0.050360251 -0.024534483 0.47724536
0.051502001 -0.024669025 0.47986251
-0.0056386576 -0.023855859 0.48091912
-0.0047460911 -0.023730457 0.47839108
-0.0038683452 -0.023639888 0.47656527
-0.0029984207 -0.023559019 0.47493502
-0.0021345031 -0.023479534 0.47333264
-0.0012767192 -0.023406517 0.47186068
-0.00042447486 -0.023346117 0.47064304
0.00042359903 -0.023297947 0.46967196
0.0012685801 -0.023257302 0.46885258
0.0021110715 -0.023221787 0.46813664
0.0029513526 -0.023189198 0.46747968
0.0037896654 -0.023159066 0.46687222
0.0046261307 -0.023130653 0.46629941
0.0054608462 -0.02310358 0.46575364
0.0062938579 -0.023077479 0.46522745
0.0071253399 -0.023052569 0.46472532
0.0079553509 -0.023028648 0.46424305
0.0087841619 -0.023006137 0.46378928
0.0096119 -0.02298498 0.46336272
0.010438715 -0.022965174 0.46296346
0.011264696 -0.022946604 0.46258909
0.012090063 -0.022929428 0.46224287
0.012914998 -0.022913707 0.46192592
0.013739527 -0.022899212 0.46163371
0.0145638 -0.022885971 0.4613668
0.015388072 -0.02287416 0.46112868
0.016212257 -0.022863438 0.46091256
0.017036552 -0.022853911 0.46072048
0.017861033 -0.022845509 0.46055108
0.018685838 -0.022838246 0.46040469
0.019511141 -0.022832185 0.4602825
0.020336974 -0.022827215 0.46018231
0.021163514 -0.022823399 0.46010536
0.021990851 -0.022820694 0.46005085
0.022819195 -0.022819195 0.46002063
0.023648607 -0.022818832 0.4600133
0.024479132 -0.02281953 0.4600274
0.025310962 -0.022821357 0.46006423
0.026144421 -0.022824494 0.46012747
0.026979506 -0.022828814 0.46021453
0.027816189 -0.022834186 0.46032283
0.028654786 -0.022840772 0.4604556
0.029495448 -0.022848586 0.46061313
0.030338256 -0.022857592 0.46079466
0.031183489 -0.022867892 0.46100232
0.032031406 -0.022879576 0.46123788
0.032881994 -0.022892527 0.46149898
0.033735596 -0.022906886 0.46178845
0.034592561 -0.022922782 0.46210888
0.035452832 -0.022940068 0.46245733
0.036316909 -0.022958964 0.46283829
0.037184991 -0.02297949 0.46325207
0.038057115 -0.023001552 0.46369684
0.038933702 -0.023025308 0.46417573
0.039814588 -0.02305055 0.46468461
0.040699877 -0.02307725 0.46522284
0.041589659 -0.023105366 0.46578965
0.042484082 -0.023134895 0.46638495
0.043383524 -0.02316596 0.46701118
0.044289358 -0.023199188 0.46768102
0.045202881 -0.023235127 0.46840554
0.046128195 -0.023275696 0.46922338
0.047070358 -0.02332315 0.47018003
0.048044071 -0.023384282 0.47141242
0.049066145 -0.023466416 0.47306821
0.050133679 -0.023567114 0.47509822
0.051216394 -0.023671443 0.4772014
0.052370772 -0.023804896 0.47989175
-0.0065099425 -0.023001797 0.48119995
-0.0056103952 -0.022873148 0.47850862
-0.0047284677 -0.022782616 0.47661468
-0.0038551369 -0.022702474 0.47493806
-0.002987911 -0.022622755 0.47327036
-0.0021274178 -0.022550629 0.47176147
-0.0012731318 -0.022491995 0.47053483
-0.0004234949 -0.02244523 0.46955651
0.00042274527 -0.0224055 0.46872535
0.0012662527 -0.022370465 0.46799242
0.0021073818 -0.022338249 0.46731845
0.0029463663 -0.022308201 0.46668985
0.003783334 -0.022279635 0.46609223
0.0046183895 -0.022252239 0.46551913
0.0054516373 -0.022225907 0.46496823
0.0062831845 -0.022200586 0.46443853
0.00711325 -0.022176603 0.46393681
0.0079419101 -0.02215375 0.46345872
0.0087693902 -0.02213227 0.46300936
0.0095958142 -0.022112092 0.46258724
0.010421366 -0.022093296 0.46219403
0.011246172 -0.022075819 0.46182838
0.012070442 -0.022059774 0.46149272
0.01289419 -0.022044905 0.46118167
0.013717554 -0.022031222 0.46089542
0.014540728 -0.022018816 0.4606359
0.015363647 -0.022007385 0.46039677
0.016186606 -0.021997184 0.46018332
0.017009588 -0.021988004 0.45999131
0.017832821 -0.021979988 0.45982361
0.018656362 -0.021973049 0.45967844
0.019480312 -0.02196716 0.45955524
0.020304862 -0.021962402 0.4594557
0.021130031 -0.02195866 0.45937741
0.021955978 -0.021955978 0.45932132
0.02278294 -0.021954469 0.45928976
0.023611043 -0.021954127 0.45928258
0.024440227 -0.02195478 0.45929626
0.025270596 -0.02195642 0.45933056
0.026102638 -0.021959363 0.4593921
0.02693627 -0.021963421 0.45947701
0.027771581 -0.021968564 0.45958459
0.028608674 -0.02197478 0.45971462
0.029447846 -0.021982195 0.45986977
0.030289153 -0.021990754 0.46004882
0.031132879 -0.022000568 0.46025413
0.031978983 -0.022011507 0.46048298
0.032827824 -0.02202373 0.46073869
0.033679325 -0.022037091 0.46101817
0.034534033 -0.022051852 0.46132702
0.035392039 -0.022067975 0.46166432
0.036253512 -0.022085473 0.46203035
0.037119169 -0.022104675 0.46243206
0.037988901 -0.022125404 0.46286571
0.038862973 -0.022147715 0.46333247
0.039741736 -0.022171706 0.46383435
0.040625386 -0.022197375 0.46437135
0.041513927 -0.022224627 0.46494147
0.042406857 -0.022253104 0.46553719
0.04330489 -0.0222831 0.46616471
0.044207707 -0.022314366 0.46681884
0.045116626 -0.022347488 0.46751174
0.046033714 -0.022383366 0.46826228
0.046961524 -0.02242307 0.46909291
0.047906432 -0.022469388 0.4700619
0.048883189 -0.022528775 0.47130427
0.049911216 -0.022609355 0.47299001
0.050991207 -0.02271037 0.47510326
0.052087601 -0.022815229 0.47729695
0.053268705 -0.022953182 0.48018292
-0.0073857764 -0.02215733 0.48171139
-0.0064767483 -0.022020943 0.47874629
-0.0055900663 -0.021930261 0.47677478
-0.0047128117 -0.021850308 0.47503659
-0.0038419527 -0.021771066 0.47331381
-0.0029784197 -0.021699915 0.47176698
-0.0021217715 -0.021642068 0.47050935
-0.0012703323 -0.021595648 0.46950015
-0.00042268596 -0.021556985 0.46865958
0.00042200502 -0.021522256 0.46790457
0.0012641383 -0.02149035 0.46721095
0.0021039471 -0.021460261 0.46655676
0.002941607 -0.021431709 0.46593603
0.0037772087 -0.021404183 0.4653376
0.0046108523 -0.021377588 0.46475941
0.0054426766 -0.02135204 0.46420398
0.0062728799 -0.021327792 0.46367684
0.0071015535 -0.02130466 0.46317393
0.0079289544 -0.021282984 0.46270266
0.0087551875 -0.021262597 0.46225947
0.009580452 -0.021243609 0.46184668
0.01040492 -0.021226037 0.46146464
0.011228653 -0.021209678 0.46110895
0.01205182 -0.021194581 0.46078074
0.012874339 -0.021180363 0.46047166
0.013696642 -0.021167537 0.4601928
0.014518551 -0.021155601 0.45993334
0.015340323 -0.021144768 0.45969781
0.01616204 -0.021134976 0.45948491
0.016983753 -0.021126131 0.45929262
0.017805666 -0.021118347 0.4591234
0.018627781 -0.021111485 0.45897421
0.019450437 -0.021105794 0.45885047
0.0202736 -0.021101095 0.45874831
0.021097388 -0.021097388 0.45866776
0.021922037 -0.02109479 0.45861125
0.02274755 -0.021093184 0.45857632
0.023574295 -0.021092789 0.45856777
0.024402147 -0.021093382 0.45858061
0.025231224 -0.021094957 0.45861489
0.026061947 -0.021097766 0.45867595
0.026894229 -0.021101626 0.45875984
0.027728183 -0.021106526 0.45886642
0.028564002 -0.021112522 0.45899677
0.029401854 -0.021119641 0.45915154
0.030241933 -0.021127926 0.45933163
0.031084165 -0.021137232 0.45953396
0.031928763 -0.021147622 0.45975983
0.032775939 -0.021159152 0.4600105
0.033625923 -0.021171877 0.46028718
0.034478791 -0.021185763 0.46058905
0.035334919 -0.021200951 0.46091926
0.036194433 -0.021217424 0.4612774
0.037057482 -0.021235187 0.46166354
0.037924793 -0.021254554 0.46208459
0.038796514 -0.021275507 0.46254015
0.039672799 -0.021298029 0.46302977
0.040554028 -0.021322221 0.46355569
0.041440364 -0.021348067 0.46411762
0.042331692 -0.021375408 0.46471205
0.043228321 -0.021404315 0.46534047
0.0441298 -0.021434475 0.46599618
0.045035962 -0.021465737 0.46667585
0.045948897 -0.021499027 0.46739954
0.046869427 -0.021534601 0.46817297
0.047801703 -0.021574222 0.46903431
0.048750658 -0.021619856 0.47002646
0.049731985 -0.021678045 0.47129151
0.05076953 -0.02175837 0.47303781
0.051862985 -0.021859605 0.47523871
0.052975189 -0.021965323 0.47753707
0.054201335 -0.022114145 0.48077253
-0.0082696676 -0.021327037 0.48258534
-0.0073462431 -0.021174464 0.47913295
-0.0064537157 -0.021082137 0.47704378
-0.0055720466 -0.021002328 0.47523788
-0.00469728 -0.020924246 0.47347105
-0.0038301216 -0.020852884 0.47185627
-0.0029707532 -0.020795273 0.47055265
-0.0021172853 -0.020749396 0.46951455
-0.0012680324 -0.020711195 0.46865013
-0.00042197265 -0.020676659 0.46786869
0.00042132547 -0.020644948 0.46715111
0.0012621502 -0.020615119 0.46647617
0.0021006756 -0.020586621 0.46583128
0.0029369809 -0.020558866 0.46520326
0.0037712024 -0.020532101 0.46459764
0.0046035219 -0.020506598 0.46402055
0.0054340633 -0.020482238 0.46346933
0.0062630042 -0.020459147 0.46294683
0.0070905252 -0.020437395 0.46245465
0.0079167588 -0.020416904 0.46199098
0.0087419515 -0.020397887 0.46156064
0.0095661953 -0.020380156 0.46115944
0.010389519 -0.020363458 0.46078157
0.011212133 -0.020347945 0.46043056
0.012034127 -0.020333525 0.46010426
0.012855532 -0.020320034 0.45979899
0.013676569 -0.020307632 0.45951837
0.014497186 -0.02029606 0.45925653
0.015317692 -0.020285591 0.45901966
0.016138045 -0.020276006 0.45880273
0.016958497 -0.020267474 0.45860967
0.017779069 -0.02025987 0.45843762
0.018599836 -0.020253155 0.45828569
0.019420983 -0.020247407 0.45815563
0.020242764 -0.020242764 0.45805055
0.021065306 -0.020239215 0.45797026
0.021888595 -0.020236624 0.45791164
0.022712743 -0.020234989 0.45787463
0.023538122 -0.020234525 0.45786414
0.024364671 -0.020235065 0.45787635
0.025192432 -0.020236544 0.45790979
0.026021786 -0.020239167 0.45796916
0.02685288 -0.020242941 0.45805454
0.027685588 -0.020247668 0.45816153
0.028520184 -0.020253465 0.45829266
0.029356834 -0.020260349 0.45844847
0.030195652 -0.020268314 0.45862868
0.031036643 -0.020277273 0.45883143
0.031880006 -0.020287275 0.45905775
0.032726031 -0.020298423 0.45931
0.033574656 -0.020310594 0.4595854
0.034426086 -0.020323833 0.45988497
0.035280522 -0.020338183 0.46020967
0.036138203 -0.020353701 0.46056083
0.036999367 -0.020370439 0.46093956
0.037864268 -0.02038845 0.46134713
0.038733337 -0.020407889 0.46178696
0.039606992 -0.02042887 0.46226174
0.040485598 -0.020451486 0.4627735
0.041369591 -0.020475857 0.46332496
0.042258844 -0.020501815 0.46391231
0.043153469 -0.02052932 0.4645347
0.044053786 -0.020558432 0.46519345
0.044959333 -0.020588852 0.46588179
0.045869779 -0.020620359 0.46659473
0.046786476 -0.02065349 0.4673444
0.047710817 -0.020688761 0.46814251
0.048647512 -0.02072807 0.46903199
0.04960217 -0.020773558 0.47006127
0.050591707 -0.020831879 0.47138098
0.051641867 -0.020912822 0.47321254
0.052749597 -0.021014066 0.47550347
0.053879999 -0.02112096 0.47792223
0.055196974 -0.021296471 0.48189369
-0.0091724675 -0.020528855 0.48429117
-0.0082201399 -0.02033403 0.47969508
-0.0073199263 -0.020237444 0.47741655
-0.0064334739 -0.020158218 0.47554755
-0.0055543981 -0.020081285 0.47373265
-0.0046830578 -0.02000943 0.47203752
-0.0038204838 -0.019951416 0.47066894
-0.0029646831 -0.019905729 0.46959117
-0.0021135737 -0.019867592 0.46869147
-0.0012659642 -0.01983344 0.46788579
-0.00042132061 -0.019802069 0.46714574
0.00042068877 -0.019772371 0.46644515
0.0012602394 -0.01974375 0.46576995
0.0020974723 -0.01971624 0.46512097
0.0029324836 -0.019689532 0.46449092
0.0037654396 -0.019663962 0.46388769
0.0045964802 -0.019639505 0.46331075
0.0054258192 -0.019616423 0.4627662
0.0062535764 -0.019594539 0.46224996
0.0070800283 -0.019574195 0.46177003
0.0079052392 -0.019555066 0.46131873
0.0087293722 -0.019537166 0.46089646
0.0095524844 -0.019520294 0.46049845
0.010374743 -0.019504515 0.46012622
0.011196237 -0.019489747 0.4597778
0.012017012 -0.019475846 0.45944989
0.012837262 -0.019462945 0.45914555
0.013656997 -0.019450875 0.45886078
0.014476434 -0.019439783 0.45859915
0.015295565 -0.019429501 0.45835659
0.016114568 -0.019420121 0.45813531
0.016933631 -0.019411724 0.45793718
0.0177528 -0.019404225 0.45776027
0.018572381 -0.019397819 0.45760918
0.019392429 -0.019392429 0.45748201
0.020212961 -0.019387942 0.45737618
0.02103428 -0.019384533 0.45729575
0.021856433 -0.019382121 0.45723882
0.022679392 -0.019380571 0.45720229
0.023503507 -0.019380083 0.45719078
0.024328699 -0.019380489 0.45720035
0.025155218 -0.019381888 0.45723337
0.025983194 -0.019384287 0.45728996
0.026812762 -0.019387688 0.45737019
0.027644033 -0.019392082 0.45747384
0.028477319 -0.019397594 0.45760387
0.029312622 -0.01940413 0.45775804
0.030150104 -0.019411711 0.45793688
0.030989824 -0.01942029 0.45813927
0.0318323 -0.019430105 0.4583708
0.032677166 -0.019440845 0.45862418
0.033524752 -0.019452633 0.4589023
0.034374941 -0.019465329 0.45920178
0.035228096 -0.019479064 0.45952582
0.03608438 -0.019493859 0.45987484
0.036943927 -0.019509716 0.46024889
0.037807267 -0.01952683 0.46065265
0.038674284 -0.019545067 0.46108288
0.039545558 -0.019564645 0.46154472
0.040421408 -0.019585632 0.4620398
0.041302644 -0.019608324 0.46257517
0.042189304 -0.019632647 0.46314892
0.043081678 -0.019658631 0.4637619
0.043979961 -0.019686269 0.46441391
0.044883732 -0.019715285 0.46509841
0.045793187 -0.019745687 0.46581563
0.046708204 -0.019777348 0.46656254
0.04762936 -0.019810442 0.46734327
0.048558626 -0.019845698 0.46817499
0.049500331 -0.019884748 0.46909621
0.050461348 -0.019930113 0.47016639
0.05146141 -0.019989144 0.47155896
0.052530959 -0.020072807 0.47353262
0.053654905 -0.020174244 0.47592562
0.054808032 -0.020283287 0.47849804
-0.0091003589 -0.01950077 0.48048398
-0.0081897648 -0.019396812 0.47792253
-0.0072976914 -0.019317418 0.47596636
-0.006413871 -0.019241612 0.47409856
-0.005537807 -0.019169332 0.47231761
-0.0046714763 -0.019110585 0.47087011
-0.0038128512 -0.019064255 0.46972862
-0.0029596344 -0.01902622 0.46879146
-0.0021102612 -0.018992351 0.46795693
-0.0012640757 -0.018961135 0.46718782
-0.00042070288 -0.018931631 0.46646082
0.00042007479 -0.018903365 0.4657644
0.0012583907 -0.018875862 0.46508673
0.0020943563 -0.018849207 0.46442997
0.0029281329 -0.018823711 0.4638018
0.0037598906 -0.018799454 0.46320409
0.0045897923 -0.018776422 0.46263662
0.0054180264 -0.018754706 0.46210155
0.0062447591 -0.018734276 0.46159819
0.007070167 -0.018715147 0.46112686
0.0078943372 -0.018697113 0.46068251
0.008717401 -0.018680144 0.46026441
0.0095394626 -0.018664166 0.45987073
0.0103606 -0.018649081 0.459499
0.011180921 -0.018634867 0.45914882
0.012000483 -0.018621439 0.45881796
0.012819415 -0.018608829 0.45850724
0.013637897 -0.018597132 0.45821905
0.014455968 -0.018586244 0.45795077
0.015273859 -0.018576315 0.45770612
0.016091734 -0.018567385 0.45748609
0.01690975 -0.018559482 0.45729139
0.01772798 -0.018552538 0.45712027
0.018546607 -0.018546607 0.45697415
0.019365752 -0.018541677 0.45685267
0.020185364 -0.018537581 0.45675173
0.021005614 -0.018534366 0.45667252
0.021826843 -0.018532224 0.45661977
0.022648828 -0.018530861 0.45658615
0.02347181 -0.018530376 0.45657423
0.024295857 -0.018530738 0.45658314
0.025121074 -0.018531941 0.45661277
0.025947731 -0.018534092 0.45666581
0.026775718 -0.018537035 0.45673829
0.027605567 -0.018541053 0.4568373
0.028437205 -0.018546004 0.45695928
0.02927071 -0.018551858 0.45710355
0.03010661 -0.018558869 0.45727628
0.03094472 -0.018566832 0.45747247
0.031785764 -0.018576095 0.4577007
0.032629106 -0.0185862 0.4579497
0.033475488 -0.018597493 0.45822793
0.034325011 -0.018609947 0.45853478
0.035177294 -0.018623274 0.45886314
0.036032438 -0.018637469 0.4592129
0.036890779 -0.01865264 0.45958674
0.037752613 -0.018668875 0.45998672
0.03861795 -0.018686105 0.46041125
0.039487388 -0.018704552 0.4608658
0.040360946 -0.018724151 0.46134868
0.041239519 -0.018745236 0.4618682
0.042123206 -0.018767765 0.46242332
0.043013103 -0.018792132 0.46302369
0.043908875 -0.01881809 0.46366325
0.044811018 -0.018845756 0.46434492
0.04571905 -0.018874837 0.46506149
0.04663296 -0.018905254 0.46581095
0.047552459 -0.018936818 0.46658868
0.048477918 -0.01896962 0.46739686
0.049412485 -0.019004801 0.46826372
0.050360471 -0.019043876 0.46922645
0.051330149 -0.019089725 0.47035617
0.052344892 -0.01915057 0.47185534
0.053436998 -0.019237319 0.47399276
0.0545775 -0.019338485 0.4764854
0.055766419 -0.019453401 0.47931686
-0.0099904658 -0.018677827 0.48161229
-0.0090641249 -0.018559873 0.47857085
-0.0081651388 -0.018478999 0.47648546
-0.0072762505 -0.018404635 0.47456795
-0.0063950713 -0.018332537 0.47270894
-0.0055240965 -0.018272012 0.47114825
-0.0046622241 -0.018225057 0.46993753
-0.00380653 -0.018186755 0.46894988
-0.0029551175 -0.018152865 0.46807602
-0.0021072202 -0.018122094 0.46728259
-0.0012622955 -0.018092902 0.46652988
-0.00042011213 -0.018064821 0.4658058
0.00041947752 -0.018037533 0.46510217
0.0012565971 -0.018011225 0.46442381
0.0020913749 -0.017985826 0.46376887
0.0029239852 -0.017961623 0.46314481
0.0037545972 -0.017938631 0.46255195
0.0045834258 -0.017917028 0.46199492
0.0054106675 -0.017896824 0.46147391
0.0062364321 -0.017877772 0.46098268
0.0070608202 -0.017859722 0.46051726
0.007883965 -0.017842658 0.46007726
0.0087059531 -0.017826475 0.45965999
0.0095268823 -0.017811127 0.45926425
0.010346855 -0.017796591 0.45888939
0.011165925 -0.01778277 0.45853305
0.011984205 -0.017769683 0.4581956
0.012801948 -0.017757541 0.45788249
0.013619286 -0.017746342 0.45759374
0.014436398 -0.017736146 0.45733082
0.015253404 -0.01772693 0.45709318
0.016070498 -0.017718753 0.45688236
0.016887713 -0.017711505 0.45669544
0.017705377 -0.017705377 0.45653743
0.018523237 -0.017699981 0.45639831
0.019341728 -0.017695623 0.45628592
0.020160781 -0.017692113 0.45619544
0.020980289 -0.017689263 0.45612195
0.021800555 -0.017687242 0.45606986
0.022621766 -0.017686108 0.45604059
0.023443755 -0.017685641 0.45602852
0.02426685 -0.017686009 0.45603803
0.025090838 -0.017686984 0.45606318
0.025916178 -0.01768882 0.45611051
0.026742967 -0.0176915 0.45617965
0.027571283 -0.017695004 0.45626995
0.028401192 -0.017699294 0.45638058
0.029232949 -0.017704463 0.45651385
0.03006692 -0.017710652 0.45667344
0.030903121 -0.01771779 0.4568575
0.03174198 -0.017726041 0.45707026
0.032583598 -0.017735377 0.45731097
0.033428289 -0.017745882 0.45758188
0.034276038 -0.017757466 0.45788056
0.035127111 -0.017770184 0.45820853
0.035981487 -0.017783953 0.45856354
0.036839046 -0.01779864 0.45894223
0.037699945 -0.01781426 0.45934501
0.038564142 -0.017830733 0.45976976
0.039432049 -0.01784819 0.46021992
0.040304068 -0.017866751 0.46069852
0.041180555 -0.017886505 0.46120784
0.042061623 -0.017907424 0.46174726
0.042948533 -0.017929971 0.46232864
0.043841798 -0.01795426 0.46295497
0.044741206 -0.01798011 0.4636215
0.045647193 -0.018007608 0.46433055
0.046559412 -0.018036529 0.46507627
0.047478054 -0.01806687 0.46585864
0.048402391 -0.018098285 0.4666687
0.049333267 -0.018131029 0.467513
0.050273102 -0.018165911 0.46841243
0.05122802 -0.018204998 0.46942031
0.052208479 -0.018251745 0.47062567
0.053243637 -0.018315811 0.47227764
0.054364242 -0.018406792 0.47462356
0.055520784 -0.018506927 0.47720563
0.056781922 -0.018638341 0.48059413
-0.010903792 -0.017882219 0.48358989
-0.0099450117 -0.017728064 0.47942111
-0.0090366444 -0.017642971 0.47711992
-0.0081422897 -0.017570205 0.47515208
-0.0072554313 -0.017498393 0.47321007
-0.0063790823 -0.017436158 0.47152707
-0.0055131288 -0.01738756 0.47021282
-0.0046545039 -0.017348606 0.46915936
-0.0038009011 -0.017315216 0.46825641
-0.0029510171 -0.017284529 0.46742654
-0.0021043436 -0.017255617 0.4666447
-0.0012605895 -0.017228056 0.46589935
-0.0004195396 -0.017201124 0.46517101
0.00041890008 -0.017174903 0.46446192
0.0012548674 -0.017149854 0.46378455
0.0020885214 -0.017125877 0.46313608
0.0029200525 -0.017103164 0.46252188
0.003749643 -0.017081706 0.4619416
0.0045774886 -0.01706155 0.46139649
0.0054037264 -0.017042521 0.46088192
0.0062284842 -0.017024523 0.46039519
0.007051874 -0.017007461 0.45993376
0.0078739682 -0.016991194 0.45949388
0.0086948359 -0.016975632 0.45907304
0.0095146252 -0.016960854 0.45867336
0.010333355 -0.016946701 0.45829067
0.01115127 -0.016933409 0.45793119
0.011968541 -0.016921042 0.45759672
0.012785373 -0.016909687 0.45728967
0.01360189 -0.016899318 0.45700926
0.014418267 -0.016889969 0.45675644
0.015234767 -0.01688177 0.45653468
0.016051397 -0.016874546 0.45633933
0.016868167 -0.016868167 0.4561668
0.017685311 -0.016862739 0.45602003
0.018502878 -0.016858177 0.45589671
0.019320725 -0.016854249 0.45579046
0.020139342 -0.016851287 0.45571035
0.020958457 -0.016848955 0.45564732
0.02177811 -0.016847217 0.45560029
0.022598568 -0.016846206 0.45557293
0.023419704 -0.016845753 0.45556068
0.024241924 -0.016846083 0.45556962
0.025065007 -0.016846972 0.45559365
0.025889281 -0.016848579 0.45563713
0.026714712 -0.016850818 0.45569769
0.027541498 -0.016853752 0.45577702
0.028369745 -0.016857384 0.45587525
0.0291999 -0.016861914 0.45599774
0.030031879 -0.016867219 0.4561412
0.030866068 -0.016873449 0.45630971
0.031702548 -0.016880577 0.45650247
0.032542042 -0.016888909 0.45672774
0.033384353 -0.016898252 0.45698044
0.034229804 -0.016908698 0.45726293
0.035079081 -0.016920498 0.457582
0.03593193 -0.016933437 0.45793197
0.036788359 -0.016947446 0.45831078
0.037648439 -0.016962484 0.45871744
0.038511809 -0.016978323 0.45914581
0.039378688 -0.016995013 0.45959714
0.04024953 -0.017012689 0.46007514
0.041124247 -0.017031252 0.46057719
0.042003702 -0.017051008 0.4611114
0.042888071 -0.017071951 0.46167779
0.043778241 -0.017094361 0.46228379
0.04467497 -0.017118447 0.46293518
0.045578524 -0.017144216 0.46363205
0.046488956 -0.017171595 0.46437249
0.047405899 -0.017200369 0.46515062
0.048329283 -0.01723044 0.46596381
0.049258221 -0.017261429 0.46680182
0.050194558 -0.017293924 0.4676806
0.051141549 -0.017328953 0.46862793
0.052104786 -0.017368263 0.46969095
0.053099297 -0.017416568 0.4709973
0.054161731 -0.017485283 0.47285554
0.055312876 -0.01758006 0.47541863
0.0564912 -0.017680451 0.4781335
-0.010835337 -0.016903125 0.48055387
-0.0099133644 -0.016809618 0.47789547
-0.0090122269 -0.016736992 0.47583073
-0.0081196576 -0.016666666 0.47383133
-0.0072369799 -0.016602483 0.47200665
-0.0063661118 -0.016551889 0.4705683
-0.0055041579 -0.016512472 0.46944767
-0.004647851 -0.016478745 0.46848878
-0.0037957302 -0.016448164 0.46761939
-0.0029471719 -0.016419958 0.46681747
-0.0021016228 -0.016392658 0.46604133
-0.0012589329 -0.016366128 0.46528709
-0.00041898384 -0.016340369 0.46455479
0.00041834783 -0.016315565 0.4638496
0.0012532197 -0.016291857 0.46317557
0.0020858119 -0.016269334 0.46253523
0.0029163493 -0.016248232 0.46193534
0.0037449813 -0.016228253 0.46136731
0.0045718784 -0.016209388 0.46083099
0.005397147 -0.016191442 0.46032077
0.0062209028 -0.016174346 0.45983478
0.0070432564 -0.016158059 0.45937172
0.0078642704 -0.016142448 0.45892793
0.0086840503 -0.016127521 0.45850354
0.009502667 -0.016113218 0.45809689
0.010320389 -0.016099807 0.4577156
0.011137395 -0.016087348 0.45736143
0.011953915 -0.016075956 0.45703754
0.012770065 -0.016065566 0.45674214
0.013586101 -0.016056301 0.45647877
0.014402235 -0.016048204 0.45624858
0.015218381 -0.016040996 0.45604363
0.016034583 -0.016034583 0.4558613
0.016851274 -0.016029261 0.45570999
0.017668108 -0.016024563 0.45557645
0.018485315 -0.016020607 0.45546398
0.019302972 -0.016017359 0.45537165
0.020120917 -0.016014608 0.45529342
0.020939477 -0.01601254 0.45523465
0.021758677 -0.016011102 0.45519376
0.022578532 -0.016010232 0.45516902
0.023399042 -0.016009871 0.45515874
0.024220459 -0.016010134 0.45516622
0.0250427 -0.016010907 0.45518818
0.025865981 -0.016012274 0.45522708
0.026690271 -0.016014162 0.45528075
0.027515989 -0.016016768 0.45535487
0.028343009 -0.016019961 0.45544562
0.029171506 -0.016023785 0.45555434
0.030001752 -0.016028333 0.45568365
0.030834027 -0.016033694 0.45583603
0.031668428 -0.016039854 0.45601115
0.032505319 -0.01604693 0.45621234
0.033345275 -0.016055133 0.45644554
0.034188371 -0.016064415 0.45670944
0.035034645 -0.016074719 0.45700237
0.035885166 -0.016086454 0.45733601
0.036739599 -0.016099375 0.45770332
0.037598215 -0.016113522 0.4581055
0.038460754 -0.016128702 0.45853713
0.039327089 -0.016144805 0.45899493
0.040196963 -0.016161665 0.45947424
0.041070707 -0.01617937 0.45997757
0.041948605 -0.016197976 0.46050656
0.04283116 -0.016217623 0.46106514
0.043718982 -0.016238479 0.46165806
0.044612858 -0.016260762 0.46229154
0.045513581 -0.016284676 0.46297142
0.04642142 -0.016310228 0.46369788
0.04733631 -0.016337311 0.46446782
0.048258115 -0.016365794 0.46527764
0.049186736 -0.016395578 0.46612439
0.050121371 -0.016426332 0.4669987
0.05106331 -0.016458422 0.46791101
0.052017108 -0.016493229 0.46890056
0.05299148 -0.016533341 0.47004098
0.054006815 -0.016584771 0.47150308
0.05510525 -0.016659727 0.47363409
0.056279283 -0.016754901 0.47633988
0.057501689 -0.016861398 0.47936755
-0.011744264 -0.016093992 0.48228273
-0.010796808 -0.015979275 0.47884509
-0.009886764 -0.015904794 0.47661313
-0.0089886226 -0.015837096 0.47458446
-0.0080987718 -0.015771292 0.47261253
-0.0072218496 -0.015718143 0.47101983
-0.0063555874 -0.015677115 0.46979037
-0.0054962724 -0.015643237 0.46877515
-0.0046417667 -0.015613216 0.46787551
-0.0037909828 -0.015585152 0.46703452
-0.0029434904 -0.01555845 0.46623436
-0.0020989815 -0.015532463 0.46545562
-0.0012573323 -0.015507098 0.46469551
-0.00041845164 -0.015482711 0.4639647
0.00041782224 -0.015459423 0.46326685
0.0012516648 -0.015437199 0.46260089
0.0020832843 -0.015416304 0.46197471
0.0029128697 -0.015396597 0.46138418
0.0037405766 -0.015377926 0.46082467
0.0045665386 -0.015360175 0.46029273
0.0053908555 -0.015343203 0.45978415
0.0062136282 -0.015326949 0.45929706
0.0070349369 -0.015311333 0.4588291
0.0078548575 -0.015296302 0.45837867
0.0086735459 -0.015281962 0.45794895
0.0094912257 -0.015268493 0.45754534
0.01030816 -0.015256078 0.45717329
0.011124526 -0.015244721 0.45683295
0.011940559 -0.015234507 0.45652688
0.012756518 -0.015225521 0.45625761
0.013572365 -0.015217501 0.45601726
0.014388187 -0.015210369 0.45580354
0.015204161 -0.015204161 0.45561752
0.016020328 -0.015198772 0.45545602
0.016836572 -0.01519398 0.45531243
0.01765318 -0.015189947 0.45519155
0.018470032 -0.015186472 0.45508742
0.019287135 -0.015183489 0.45499805
0.020104803 -0.015181178 0.45492879
0.020922899 -0.015179357 0.45487425
0.021741502 -0.015178029 0.45483443
0.022560723 -0.015177214 0.45480999
0.023380611 -0.015176888 0.45480022
0.024201304 -0.01517709 0.45480627
0.025022881 -0.015177813 0.45482796
0.025845423 -0.015179059 0.45486528
0.026668962 -0.015180794 0.45491728
0.027493646 -0.015183059 0.45498514
0.028319489 -0.015185813 0.45506769
0.029146967 -0.015189265 0.45517114
0.02997583 -0.015193229 0.4552899
0.0308065 -0.015197874 0.45542911
0.031639088 -0.015203197 0.45558864
0.032473952 -0.01520932 0.4557721
0.033311129 -0.015216194 0.4559781
0.034151625 -0.015224217 0.45621854
0.034995418 -0.0152333 0.4564907
0.035842851 -0.015243511 0.45679671
0.036694515 -0.015255024 0.4571417
0.037550684 -0.015267861 0.45752639
0.038411431 -0.015281967 0.4579491
0.039276607 -0.015297205 0.45840573
0.040145881 -0.015313377 0.45889035
0.041019008 -0.015330336 0.45939857
0.041895837 -0.015347979 0.45992726
0.042777177 -0.015366559 0.46048403
0.043663137 -0.015386058 0.46106836
0.044554811 -0.015406804 0.46169004
