# .PCD v0.7 - Point Cloud Data file format
VERSION 0.7
FIELDS x y z
SIZE 4 4 4
TYPE F F F
COUNT 1 1 1
WIDTH 1420
HEIGHT 1
VIEWPOINT 0 0 0 1 0 0 0
POINTS 1420
DATA ascii
0.18364945 0.014641756 0.46383637
0.18450241 0.014643049 0.46387732
0.18536332 0.014644957 0.46393779
0.18623507 0.014647703 0.46402475
0.18711524 0.014651081 0.46413177
0.18800737 0.014655364 0.46426743
0.18891004 0.014660425 0.46442777
0.18982458 0.014666359 0.46461576
0.19075127 0.014673174 0.46483168
0.19169039 0.014680883 0.46507588
0.19264202 0.014689478 0.46534815
0.19360554 0.014698902 0.46564671
0.19458094 0.014709143 0.46597111
0.19557187 0.014720464 0.46632975
0.19658521 0.014733367 0.46673849
0.19763736 0.014749058 0.46723557
0.19875769 0.01476968 0.46788886
0.19997761 0.014797497 0.46877009
0.2012831 0.014831386 0.46984366
0.20262864 0.01486793 0.47100133
0.2040548 0.014910059 0.47233593
0.20562036 0.014961981 0.47398078
0.20730835 0.015022344 0.47589302
0.20953146 0.015120827 0.47901285
0.15193751 0.01658315 0.49694118
0.15190239 0.016482079 0.4939124
0.15196103 0.016392298 0.49122196
0.15207382 0.016309366 0.48873678
0.15233502 0.016243214 0.48675445
0.15270877 0.016189756 0.48515245
0.15315323 0.016144356 0.48379201
0.15362534 0.016102374 0.4825339
0.15409979 0.016061105 0.48129725
0.15457651 0.016020535 0.4800815
0.15508129 0.015983308 0.47896591
0.1556305 0.015951049 0.47799921
0.15621668 0.015922911 0.47715607
0.15682369 0.015897198 0.47638547
0.15744042 0.015872741 0.47565261
0.15806246 0.01584908 0.47494358
0.15868551 0.015825778 0.47424531
0.15930901 0.015802771 0.47355583
0.15993723 0.015780473 0.47288767
0.1605704 0.015758898 0.47224113
0.16121109 0.015738286 0.47162342
0.16185705 0.015718402 0.47102758
0.16250861 0.015699264 0.4704541
0.16316266 0.015680568 0.46989381
0.16381815 0.015662201 0.46934342
0.16447526 0.015644176 0.46880329
0.16513994 0.015627053 0.46829018
0.16581583 0.015611161 0.46781391
0.16650812 0.015596963 0.46738848
0.16721661 0.015584419 0.46701258
0.16793813 0.015573209 0.46667665
0.16867006 0.015563074 0.46637291
0.1694088 0.015553662 0.46609086
0.17015283 0.015544827 0.46582612
0.170901 0.015536455 0.46557525
0.17165257 0.015528472 0.46533602
0.17240781 0.015520897 0.46510902
0.17316753 0.015513798 0.46489629
0.17393199 0.01550719 0.46469826
0.17470151 0.015501094 0.4645156
0.17547685 0.015495569 0.46435001
0.17625891 0.015490688 0.46420377
0.177047 0.01548638 0.46407467
0.17784093 0.015482623 0.46396208
0.17864287 0.015479593 0.46387127
0.17945039 0.015477073 0.46379578
0.18026561 0.015475238 0.46374077
0.18108715 0.01547396 0.46370247
0.18191577 0.015473295 0.46368256
0.1827518 0.015473264 0.46368164
0.18359606 0.015473927 0.46370152
0.1844483 0.015475255 0.46374127
0.18530859 0.015477242 0.46380082
0.18617815 0.01547998 0.46388289
0.1870569 0.015483458 0.46398708
0.18794686 0.015487825 0.46411797
0.18884791 0.015493066 0.46427503
0.18976064 0.015499214 0.46445924
0.19068617 0.015506347 0.46467301
0.19162478 0.015514478 0.46491668
0.19257611 0.015523564 0.46518895
0.19353992 0.015533573 0.46548888
0.19451675 0.015544535 0.46581736
0.1955054 0.015556344 0.46617123
0.19651386 0.01556962 0.4665691
0.19755125 0.015585067 0.46703199
0.1986455 0.015604849 0.46762478
0.19983336 0.015631786 0.46843198
0.20112753 0.015666777 0.46948054
0.20247467 0.015705582 0.47064343
0.20388542 0.015748978 0.47194386
0.20542641 0.015802031 0.47353369
0.2071121 0.01586573 0.47544253
0.20902941 0.015946573 0.4778651
0.15179488 0.017463129 0.49647468
0.15178593 0.017359681 0.4935337
0.15183829 0.017264413 0.49082521
0.15197007 0.017179227 0.48840338
0.15225293 0.017112 0.48649216
0.1526389 0.017057069 0.48493049
0.15308875 0.01700986 0.48358834
0.15356143 0.01696571 0.48233315
0.15403286 0.016921919 0.48108819
0.15450975 0.016879218 0.47987416
0.15502214 0.016840845 0.47878328
0.15557918 0.016807724 0.47784162
0.15616967 0.01677856 0.47701249
0.15677853 0.016751679 0.47624826
0.15739621 0.016726028 0.475519
0.15801652 0.016700933 0.47480556
0.15863769 0.016676199 0.47410238
0.15926069 0.016651921 0.47341219
0.15988779 0.016628331 0.47274148
0.16052163 0.016605686 0.47209769
0.16116163 0.016583916 0.47147876
0.16180822 0.016563047 0.47088549
0.16245836 0.016542757 0.47030866
0.16311073 0.016522905 0.46974427
0.16376424 0.016503373 0.46918896
0.16442065 0.016484333 0.46864766
0.16508636 0.016466415 0.46813822
0.16576684 0.016450144 0.46767566
0.166464 0.016435686 0.46726462
0.16717604 0.016422834 0.46689928
0.1679007 0.016411345 0.46657264
0.16863377 0.016400792 0.46627256
0.16937308 0.016390944 0.4659926
0.1701165 0.016381588 0.46572664
0.17086302 0.016372623 0.46547177
0.17161299 0.016364075 0.46522874
0.17236742 0.016356032 0.46500009
0.17312618 0.016348477 0.46478528
0.17389005 0.016341476 0.46458623
0.17465927 0.016335038 0.46440324
0.17543484 0.016329257 0.46423888
0.17621668 0.01632411 0.46409255
0.17700487 0.016319597 0.46396425
0.17779908 0.01631568 0.46385285
0.17860091 0.016312495 0.46376231
0.17940819 0.016309835 0.4636867
0.18022268 0.016307851 0.46363032
0.18104322 0.016306434 0.46359
0.18187135 0.016305707 0.46356934
0.18270683 0.016305644 0.46356755
0.18355015 0.016306277 0.46358556
0.184402 0.016307659 0.46362486
0.18526196 0.016309744 0.46368411
0.18613046 0.016312558 0.4637641
0.18700841 0.01631617 0.4638668
0.18789649 0.016320631 0.46399361
0.18879528 0.016325979 0.46414563
0.18970656 0.016332353 0.46432689
0.19063064 0.01633977 0.46453774
0.1915682 0.016348271 0.46477941
0.19251917 0.016357837 0.46505141
0.19348285 0.016368397 0.46535161
0.19446033 0.016380027 0.46568227
0.19544961 0.016392548 0.4660382
0.19645454 0.016406268 0.46642828
0.19748385 0.016421897 0.46687263
0.19855873 0.01644117 0.46742052
0.19971704 0.016467156 0.46815932
0.20099084 0.016502406 0.46916148
0.20234264 0.016543739 0.47033653
0.20374516 0.016588854 0.47161919
0.20526572 0.016643167 0.47316325
0.20694549 0.016709885 0.47506008
0.20878725 0.016789077 0.47731149
0.15168671 0.018345591 0.49612087
0.1516927 0.018238712 0.49323058
0.15174146 0.018138193 0.49051219
0.15188895 0.01805057 0.48814264
0.15218689 0.017981736 0.48628113
0.15258403 0.017925344 0.48475614
0.15303588 0.017875984 0.48342133
0.15350838 0.017829586 0.48216653
0.15397739 0.017783305 0.48091495
0.15445597 0.01773864 0.47970712
0.15497571 0.017699176 0.47863987
0.15554002 0.017665209 0.4777213
0.15613359 0.017634923 0.47690228
0.15674268 0.017606713 0.47613937
0.15735969 0.017579693 0.47540867
0.15797883 0.017553203 0.47469231
0.15859762 0.01752696 0.47398263
0.15922053 0.017501453 0.47329283
0.15984738 0.017476648 0.47262201
0.1604806 0.017452799 0.47197706
0.16112183 0.017430065 0.47136229
0.16176708 0.017408006 0.47076574
0.16241598 0.017386567 0.47018597
0.16306682 0.017365556 0.46961778
0.16371799 0.017344801 0.46905646
0.16437526 0.017324898 0.46851826
0.1650434 0.017306341 0.46801639
0.16572742 0.017289629 0.46756446
0.16642877 0.017274885 0.46716574
0.16714427 0.017261751 0.46681055
0.16787083 0.017249886 0.46648967
0.16860442 0.017238855 0.46619138
0.16934337 0.017228482 0.46591085
0.17008589 0.017218571 0.46564284
0.17083131 0.017209051 0.46538538
0.1715807 0.017200021 0.46514121
0.17233381 0.017191451 0.4649094
0.1730922 0.017183488 0.46469408
0.17385548 0.017176084 0.46449387
0.17462474 0.01716934 0.46431145
0.17540047 0.017163292 0.4641479
0.17618243 0.01715791 0.46400237
0.17697063 0.017153183 0.46387452
0.17776495 0.017149089 0.46376383
0.17856605 0.017145688 0.46367183
0.17937285 0.01714286 0.46359536
0.18018599 0.017140662 0.46353593
0.18100582 0.017139118 0.46349421
0.1818333 0.017138312 0.46347237
0.18266815 0.017138202 0.46346942
0.18351117 0.017138857 0.46348712
0.18436249 0.017140277 0.4635255
0.1852226 0.017142497 0.46358559
0.18609086 0.017145451 0.46366543
0.18696851 0.017149236 0.46376783
0.18785575 0.017153865 0.463893
0.18875311 0.017159374 0.46404198
0.18966237 0.017165909 0.46421871
0.19058497 0.01717359 0.46442643
0.19152123 0.017182428 0.46466544
0.19247088 0.017192388 0.46493477
0.19343556 0.017203597 0.46523789
0.19441324 0.017215859 0.4655695
0.19540413 0.017229181 0.46592975
0.1964076 0.017243493 0.46631682
0.19743225 0.017259536 0.46675065
0.19849426 0.017278692 0.46726871
0.19962756 0.017303869 0.46794957
0.20087682 0.017338842 0.46889532
0.20222886 0.017382355 0.47007206
0.20363019 0.017429724 0.47135305
0.20513293 0.017485343 0.47285718
0.20680586 0.017554948 0.47473952
0.20861827 0.01763577 0.47692519
0.15187804 0.019379098 0.49969473
0.15161441 0.019231327 0.49588442
0.15162325 0.019119646 0.49300474
0.15166984 0.019014005 0.49028072
0.1518279 0.018923478 0.48794645
0.15213911 0.018852973 0.48612848
0.1525429 0.018794684 0.48462549
0.15299727 0.018743254 0.48329937
0.15346681 0.018694257 0.48203596
0.15393369 0.01864549 0.48077846
0.15441513 0.018599022 0.47958028
0.15494004 0.018558279 0.47852969
0.15550886 0.018523216 0.47762564
0.15610522 0.018491803 0.47681561
0.15671498 0.018462313 0.4760552
0.15733127 0.01843391 0.47532284
0.15794894 0.018405974 0.47460252
0.1585671 0.018378396 0.47389141
0.15918842 0.01835148 0.47319737
0.15981524 0.018325482 0.47252697
0.16044886 0.018300535 0.47188371
0.16108878 0.018276563 0.47126561
0.16173393 0.018253436 0.47066927
0.1623819 0.018230867 0.47008732
0.16303073 0.018208627 0.46951386
0.16368121 0.018186802 0.46895108
0.16433892 0.018165998 0.46841466
0.16500975 0.018146852 0.46792099
0.16569684 0.01812968 0.46747822
0.16640198 0.018114647 0.46709055
0.16711996 0.018101154 0.46674266
0.16784726 0.018088803 0.46642417
0.16858152 0.018077319 0.46612808
0.16931999 0.018066401 0.46584651
0.17006105 0.018055866 0.46557486
0.17080586 0.018045828 0.46531603
0.17155436 0.018036276 0.46506977
0.1723073 0.018027283 0.46483788
0.17306517 0.018018892 0.46462148
0.17382835 0.01801113 0.46442136
0.17459759 0.018004069 0.46423927
0.17537323 0.017997731 0.46407583
0.17615539 0.017992118 0.46393111
0.17694345 0.01798716 0.46380326
0.17773774 0.017982878 0.46369287
0.17853788 0.017979223 0.46359864
0.17934339 0.017976142 0.46351922
0.18015528 0.017973728 0.46345693
0.18097417 0.017972032 0.46341318
0.18180035 0.017971069 0.46338838
0.18263453 0.017970905 0.46338412
0.18347742 0.017971592 0.46340185
0.18432909 0.017973131 0.46344155
0.18518965 0.017975518 0.46350312
0.18605809 0.017978648 0.46358377
0.18693639 0.017982695 0.46368816
0.18782333 0.017987534 0.46381295
0.18872018 0.017993277 0.46396101
0.18962784 0.017999994 0.46413419
0.19054864 0.018007895 0.46433792
0.19148324 0.018017022 0.46457329
0.19243331 0.018027522 0.46484402
0.19339713 0.018039212 0.46514547
0.19437496 0.018052101 0.46547782
0.1953671 0.018066205 0.46584147
0.19637106 0.018081276 0.46623006
0.19739315 0.018097879 0.4666582
0.19844621 0.018117171 0.46715564
0.19956113 0.018141922 0.46779385
0.20078756 0.018176557 0.46868694
0.20213647 0.018221946 0.46985731
0.2035372 0.018271606 0.47113779
0.2050277 0.018328881 0.47261462
0.20669195 0.018401148 0.47447804
0.20849785 0.018485377 0.47664991
0.15182368 0.020273192 0.49951586
0.15156946 0.020119838 0.49573737
0.15157579 0.020002671 0.49285042
0.15161958 0.019891782 0.49011821
0.15178843 0.019798491 0.48781961
0.15210634 0.019725608 0.48602381
0.1525147 0.019665219 0.48453587
0.15297036 0.019611584 0.48321438
0.15343769 0.019560046 0.4819445
0.15390122 0.019508606 0.48067707
0.15438654 0.019460486 0.47949144
0.15491545 0.019418372 0.47845376
0.15548787 0.019382143 0.47756112
0.15608537 0.019349426 0.47675499
0.15669563 0.01931864 0.47599643
0.15731111 0.019288829 0.47526193
0.15792654 0.019259335 0.47453523
0.15854366 0.019230364 0.47382137
0.15916543 0.019202264 0.47312903
0.15979153 0.019174984 0.47245687
0.16042507 0.019148881 0.47181371
0.16106513 0.019123828 0.47119644
0.161709 0.019099487 0.4705967
0.1623551 0.019075664 0.47000971
0.16300301 0.019052299 0.46943402
0.16365263 0.019029375 0.46886918
0.16431102 0.019007701 0.46833515
0.16498458 0.018987997 0.46784964
0.16567548 0.018970473 0.4674179
0.16638331 0.018955061 0.46703812
0.16710234 0.018941071 0.46669343
0.16783109 0.018928319 0.46637923
0.16856477 0.018916246 0.46608177
0.16930243 0.018904738 0.46579823
0.17004319 0.018893687 0.46552593
0.17078698 0.018883081 0.46526462
0.1715346 0.018873001 0.46501622
0.17228693 0.018863531 0.46478292
0.17304428 0.018854704 0.46456543
0.17380734 0.018846579 0.46436521
0.17457674 0.018839218 0.46418384
0.17535312 0.018832674 0.46402264
0.17613564 0.01882685 0.46387911
0.17692375 0.018821675 0.46375161
0.17771699 0.018817091 0.46363869
0.17851566 0.018813124 0.46354094
0.1793198 0.018809767 0.46345824
0.18012989 0.018807065 0.46339163
0.1809471 0.018805126 0.46334386
0.18177168 0.018803967 0.46331531
0.18260518 0.018803736 0.46330962
0.18344814 0.018804479 0.46332791
0.18430071 0.018806195 0.46337017
0.18516232 0.018808814 0.46343473
0.18603246 0.018812271 0.4635199
0.18691136 0.018816579 0.46362606
0.18779904 0.018821729 0.46375296
0.18869565 0.018827727 0.46390072
0.1896026 0.018834695 0.46407244
0.19052197 0.018842833 0.46427292
0.19145612 0.018852355 0.46450752
0.19240487 0.018863222 0.46477529
0.19336811 0.018875411 0.46507564
0.19434702 0.018889021 0.46541095
0.19533905 0.018903779 0.4657746
0.19634421 0.018919678 0.46616632
0.19736449 0.018936891 0.46659046
0.19841357 0.01895671 0.46707878
0.19951409 0.018981256 0.46768355
0.20072213 0.019015782 0.46853423
0.20206243 0.019062493 0.4696852
0.20346917 0.019115059 0.47098035
0.20495357 0.019174451 0.47244373
0.20660651 0.019249054 0.47428188
0.20841672 0.019337634 0.47646442
0.15181069 0.021172412 0.49947315
0.15155356 0.021011852 0.4956854
0.15155394 0.020888666 0.49277937
0.15159285 0.020772198 0.49003181
0.15176702 0.020675506 0.48775077
0.15208741 0.020599736 0.48596328
0.1524989 0.020537103 0.48448572
0.15295495 0.020481147 0.48316571
0.15342014 0.020427044 0.48188937
0.15388145 0.020373037 0.48061529
0.15436821 0.020322984 0.47943452
0.15490147 0.020279581 0.4784106
0.15547657 0.020242102 0.47752646
0.1560742 0.020207955 0.47672087
0.15668349 0.020175682 0.47595957
0.1572983 0.02014447 0.47522321
0.15791324 0.02011361 0.47449523
0.15852959 0.020083265 0.47377935
0.15914965 0.020053709 0.47308213
0.15977588 0.020025244 0.47241062
0.16040957 0.019998008 0.47176811
0.16104935 0.019971818 0.47115025
0.16169219 0.019946279 0.47054777
0.16233775 0.019921344 0.4699595
0.16298345 0.01989668 0.4693777
0.16363269 0.019872703 0.46881205
0.16429304 0.019850316 0.46828389
0.16496834 0.019829955 0.46780357
0.1656616 0.019811947 0.46737877
0.16637167 0.019796124 0.46700546
0.16709235 0.019781714 0.46666557
0.16782086 0.01976837 0.46635076
0.16855444 0.019755758 0.46605322
0.16929175 0.019743703 0.46576884
0.17003128 0.019732025 0.46549335
0.17077422 0.019720856 0.46522987
0.17152189 0.01971034 0.46498176
0.17227411 0.019700445 0.46474835
0.17303154 0.01969124 0.46453121
0.17379491 0.019682797 0.46433201
0.1745649 0.01967518 0.46415234
0.17534122 0.019668346 0.46399111
0.17612322 0.019662213 0.46384642
0.17691037 0.019656708 0.46371657
0.17770252 0.019651808 0.46360096
0.17849976 0.019647514 0.46349967
0.17930183 0.019643789 0.46341181
0.18010968 0.019640731 0.46333963
0.18092455 0.019638462 0.4632861
0.18174751 0.019637087 0.46325368
0.1825801 0.019636761 0.46324599
0.18342361 0.019637607 0.46326596
0.18427747 0.01963955 0.46331176
0.18514065 0.019642463 0.46338049
0.18601292 0.019646309 0.46347123
0.18689363 0.019651007 0.46358207
0.18778233 0.019656502 0.46371171
0.18867999 0.019662881 0.46386221
0.18958724 0.0196702 0.46403483
0.19050583 0.019678624 0.46423358
0.19143808 0.019688381 0.46446374
0.19238593 0.019699648 0.46472955
0.19335002 0.019712474 0.46503213
0.19432829 0.01972663 0.46536607
0.19532177 0.0197422 0.46573338
0.1963276 0.01975888 0.46612689
0.19734807 0.019776884 0.46655163
0.19839384 0.019797262 0.46703234
0.19948673 0.019822149 0.46761942
0.20067896 0.019856654 0.46843344
0.20201145 0.019904694 0.4695667
0.20342126 0.019959915 0.47086945
0.204904 0.020021806 0.47232947
0.20655558 0.02009961 0.47416496
0.2083686 0.02019242 0.47635442
0.15183854 0.022077413 0.49956474
0.15156515 0.021907646 0.49572328
0.15155615 0.021777865 0.49278659
0.15158911 0.021655587 0.49001971
0.15176389 0.021554871 0.48774073
0.15208441 0.021475896 0.48595372
0.15249632 0.021410657 0.48447749
0.15295117 0.021352157 0.48315373
0.15341413 0.021295447 0.4818705
0.1538738 0.021238919 0.48059142
0.15436085 0.021186784 0.47941169
0.1548968 0.021141903 0.47839615
0.15547274 0.021102948 0.47751468
0.15607142 0.021067493 0.47671241
0.15668063 0.021033838 0.47595087
0.15729436 0.021001155 0.47521132
0.15790787 0.020968797 0.47447911
0.15852338 0.02093705 0.47376075
0.15914336 0.020906232 0.47306341
0.15976873 0.020876447 0.47238943
0.16040193 0.020847995 0.47174564
0.16104101 0.020820605 0.47112584
0.1616839 0.020793993 0.47052369
0.16232808 0.020767821 0.46993148
0.16297276 0.020741988 0.46934694
0.16362219 0.020717021 0.46878198
0.16428292 0.020693734 0.46825504
0.1649604 0.020672787 0.46778104
0.16565621 0.020654336 0.46736354
0.16636677 0.020637903 0.46699169
0.16708836 0.020622997 0.46665439
0.1678171 0.020609118 0.46634036
0.1685507 0.020595971 0.46604288
0.16928686 0.020583266 0.46575537
0.17002599 0.020571046 0.46547887
0.17076887 0.020559397 0.46521527
0.17151602 0.020548373 0.46496582
0.17226782 0.020538013 0.46473143
0.17302504 0.020528395 0.46451375
0.17378858 0.020519616 0.46431512
0.17455862 0.020511685 0.46413565
0.17533486 0.020504553 0.46397427
0.17611668 0.02049814 0.46382916
0.17690331 0.020492345 0.46369803
0.1776945 0.02048713 0.46358004
0.17848973 0.020482427 0.46347362
0.17929025 0.020478373 0.46338189
0.18009526 0.020474868 0.46330255
0.18090706 0.020472161 0.46324131
0.18172801 0.020470511 0.46320397
0.18255872 0.020469971 0.46319175
0.18340336 0.02047099 0.46321481
0.18425882 0.020473203 0.46326488
0.18512538 0.020476623 0.46334228
0.18600076 0.020480983 0.46344095
0.1868833 0.020486088 0.46355647
0.18777408 0.020492049 0.46369132
0.18867244 0.020498781 0.46384364
0.18957965 0.020506408 0.46401626
0.19049788 0.020515157 0.46421421
0.19142997 0.020525314 0.46444404
0.19237733 0.020537013 0.46470878
0.19334075 0.020550318 0.46500984
0.19431977 0.02056516 0.46534568
0.1953138 0.020581454 0.46571437
0.19632146 0.020599039 0.46611232
0.19734205 0.020617826 0.46653742
0.19838661 0.020638946 0.46701533
0.19947392 0.020664316 0.46758938
0.20065638 0.020699291 0.46838075
0.20198306 0.020748785 0.46950072
0.20339747 0.02080684 0.47081438
0.20488255 0.020871609 0.47228
0.20653248 0.020952569 0.47411194
0.2083585 0.021050652 0.47633132
0.1519115 0.022989573 0.49980479
0.15160453 0.022807762 0.49585211
0.15158679 0.022671336 0.49288616
0.15160722 0.022542182 0.49007827
0.151778 0.022436747 0.48778608
0.15209718 0.02235434 0.48599449
0.15250519 0.022285858 0.48450565
0.15295917 0.022224836 0.48317903
0.15342079 0.022165611 0.48189142
0.15387927 0.022106599 0.48060849
0.154366 0.022052286 0.4794277
0.1549021 0.02200559 0.47841251
0.15547806 0.021965044 0.47753102
0.15607631 0.021928078 0.47672734
0.15668525 0.021893008 0.4759649
0.15729819 0.021858877 0.47522289
0.15791115 0.021825118 0.47448894
0.15852603 0.021791989 0.47376871
0.15914476 0.021759739 0.47306758
0.15977056 0.021728795 0.47239485
0.16040303 0.021699084 0.47174889
0.1610418 0.021670531 0.47112817
0.16168377 0.021642709 0.47052327
0.16232675 0.021615312 0.46992764
0.16297047 0.021588296 0.46934029
0.16362014 0.021562345 0.46877614
0.16428141 0.021538181 0.46825078
0.16496024 0.021516552 0.46778059
0.16565745 0.021497531 0.46736705
0.16636917 0.021480575 0.46699843
0.16709077 0.021465063 0.46666116
0.16781986 0.021450657 0.46634799
0.16855276 0.021436885 0.46604857
0.16928872 0.021423634 0.4657605
0.17002748 0.021410868 0.46548292
0.17077008 0.021398708 0.46521857
0.17151669 0.021387165 0.46496764
0.17226826 0.021376353 0.46473256
0.17302574 0.021366376 0.46451566
0.17378972 0.02135729 0.46431816
0.17456031 0.021349104 0.46414015
0.1753366 0.021341685 0.46397889
0.17611791 0.021334948 0.46383241
0.17690369 0.021328814 0.46369904
0.17769334 0.0213232 0.463577
0.17848691 0.02131811 0.46346632
0.17928505 0.021313608 0.46336845
0.18008721 0.021309623 0.46328184
0.18089581 0.021306435 0.46321252
0.18171318 0.021304304 0.46316618
0.18254338 0.021303691 0.46315286
0.18338828 0.021304788 0.46317673
0.18424729 0.021307509 0.46323588
0.18511729 0.021311471 0.46332201
0.18599603 0.021316398 0.46342912
0.18688114 0.021322008 0.4635511
0.18777321 0.02132836 0.46368918
0.18867314 0.021335542 0.46384534
0.18958156 0.021343619 0.46402091
0.19049986 0.021352733 0.46421903
0.19143081 0.021363176 0.4644461
0.19237883 0.021375425 0.46471241
0.19334166 0.021389209 0.46501204
0.19432195 0.021404793 0.46535087
0.1953163 0.021421788 0.46572036
0.19632466 0.021440167 0.46611992
0.19734678 0.021459885 0.46654859
0.19839004 0.021481723 0.46702337
0.19947694 0.021508085 0.4675965
0.20065229 0.021543721 0.46837121
0.20197663 0.021594986 0.46948576
0.20339881 0.021656241 0.47081748
0.20488381 0.021723649 0.47228295
0.2065431 0.021808898 0.47413632
0.20837606 0.021911711 0.4763715
0.15167525 0.02371324 0.49608341
0.15164162 0.023568934 0.49306449
0.15164961 0.023432737 0.49021527
0.15180883 0.023321357 0.48788518
0.15212305 0.023234934 0.48607719
0.15252897 0.023163425 0.48458123
0.15298007 0.023099555 0.48324504
0.15343916 0.023037609 0.48194912
0.15389578 0.022975991 0.48066008
0.15438187 0.022919437 0.47947696
0.15491737 0.022870811 0.47845969
0.15549296 0.022828607 0.47757679
0.15609001 0.022790002 0.47676915
0.15669817 0.022753432 0.47600412
0.15731017 0.022717819 0.4752591
0.15792254 0.022682641 0.47452316
0.15853688 0.022648126 0.47380111
0.15915568 0.022614613 0.47310004
0.15978049 0.022582309 0.47242421
0.16041274 0.022551393 0.47177747
0.1610506 0.022521587 0.47115391
0.16169165 0.022492539 0.47054622
0.1623345 0.022464043 0.46995008
0.16297734 0.022435842 0.46936011
0.16362637 0.02240878 0.46879396
0.16428773 0.022383675 0.46826878
0.16496737 0.022361306 0.46780083
0.16566567 0.02234168 0.46739024
0.16637793 0.022324128 0.46702304
0.16709991 0.022308048 0.46668664
0.1678289 0.022293063 0.46637315
0.16856167 0.022278724 0.46607319
0.1692972 0.022264892 0.46578383
0.17003584 0.022251602 0.46550581
0.17077792 0.022238893 0.46523994
0.17152424 0.022226857 0.46498814
0.17227612 0.022215657 0.46475381
0.17303389 0.022205317 0.46453753
0.17379782 0.022195866 0.46433979
0.17456849 0.022187363 0.4641619
0.17534468 0.022179637 0.46400028
0.1761256 0.022172581 0.46385267
0.17691053 0.022166096 0.46371698
0.17769954 0.022160178 0.46359318
0.17849226 0.022154776 0.4634802
0.17928803 0.022149803 0.46337616
0.18008699 0.022145268 0.46328127
0.18089268 0.022141598 0.4632045
0.18170688 0.022138998 0.46315011
0.18253441 0.022138041 0.46313009
0.18338202 0.022139514 0.4631609
0.18424462 0.022142777 0.46322915
0.18511786 0.022147283 0.46332341
0.18600047 0.022152863 0.46344018
0.18688792 0.022158971 0.46356794
0.18778172 0.02216577 0.46371019
0.18868218 0.022173295 0.4638676
0.18959148 0.022181785 0.4640452
0.19051057 0.022191342 0.46424514
0.19144145 0.022202181 0.46447191
0.19238977 0.022214942 0.46473885
0.19335373 0.022229386 0.46504104
0.19433405 0.02224558 0.46537983
0.19532922 0.022263329 0.46575114
0.19633916 0.022282602 0.46615434
0.19736184 0.022303149 0.46658418
0.19840559 0.022325894 0.46706
0.19949262 0.022353295 0.46763322
0.20066835 0.022390364 0.4684087
0.20199485 0.022443872 0.46952811
0.20342185 0.022508053 0.47087079
0.20491722 0.022579236 0.47235993
0.2065853 0.022668781 0.47423321
0.20843589 0.022777529 0.47650826
0.15178145 0.024625311 0.49643078
0.1517234 0.024471516 0.49333039
0.1517197 0.024328232 0.49044186
0.15185907 0.024209417 0.48804665
0.15216382 0.024118185 0.48620746
0.1525656 0.02404329 0.48469761
0.15301326 0.023976436 0.48334989
0.15347077 0.023911877 0.48204839
0.15392436 0.023847437 0.48074934
0.15440817 0.023788374 0.47955865
0.15494142 0.023737544 0.47853395
0.15551582 0.023693547 0.47764701
0.15611246 0.023653405 0.47683775
0.15671979 0.023615312 0.47606984
0.15733114 0.023578236 0.47532243
0.15794304 0.023541644 0.47458476
0.15855649 0.023505678 0.4738597
0.15917394 0.023470687 0.47315431
0.15979862 0.023437133 0.47247785
0.1604304 0.023404965 0.47182938
0.16106789 0.023373969 0.47120452
0.16170844 0.023343738 0.47059509
0.16235045 0.023314033 0.46999624
0.16299284 0.02328469 0.46940473
0.16364136 0.023256524 0.4688369
0.16430296 0.023230497 0.4683122
0.16498238 0.02320724 0.46784335
0.1656808 0.023186879 0.46743292
0.16639347 0.023168713 0.46706668
0.16711542 0.023152011 0.46672997
0.16784427 0.023136428 0.46641582
0.1685769 0.023121519 0.4661153
0.16931243 0.023107156 0.46582574
0.17005078 0.023093317 0.46554676
0.17079255 0.023080075 0.46527979
0.17153902 0.023067595 0.46502823
0.17229098 0.023055971 0.46479389
0.17304872 0.023045229 0.46457732
0.17381285 0.023035439 0.46437997
0.17458349 0.0230266 0.46420178
0.17535961 0.023018565 0.4640398
0.17614023 0.023011195 0.46389121
0.1769252 0.023004459 0.46375543
0.17771403 0.022998286 0.463631
0.17850579 0.022992549 0.46351534
0.17930053 0.022987248 0.46340847
0.18009898 0.022982469 0.46331212
0.18090229 0.022978351 0.46322912
0.18171135 0.022974998 0.4631615
0.18253039 0.022972932 0.46311986
0.18338732 0.022975633 0.46317431
0.18425533 0.02297969 0.46325609
0.18513209 0.022984795 0.46335903
0.1860155 0.022990679 0.46347764
0.18690448 0.022997195 0.46360898
0.18779945 0.023004388 0.463754
0.18870085 0.023012299 0.4639135
0.1896106 0.023021156 0.46409202
0.19053051 0.02303116 0.46429372
0.19146191 0.023042461 0.46452153
0.19241069 0.023055747 0.46478936
0.19337527 0.023070803 0.4650929
0.19435653 0.023087708 0.46543369
0.19535272 0.023106234 0.46580717
0.19636403 0.023126384 0.46621338
0.19738734 0.023147769 0.46664447
0.19843261 0.023171537 0.4671236
0.19952251 0.023200292 0.46770331
0.20070259 0.023239248 0.46848863
0.20203835 0.023295827 0.46962923
0.20347103 0.023363061 0.47098464
0.2049742 0.0234378 0.47249129
0.2066617 0.023532907 0.4744086
0.20852923 0.023647645 0.47672167
0.15192825 0.025545457 0.49691087
0.15183316 0.025379736 0.49368727
0.15181668 0.025229013 0.49075538
0.15193026 0.02510152 0.48827541
0.15222095 0.025004594 0.48638999
0.15261476 0.024925619 0.48485377
0.1530593 0.024855785 0.48349535
0.15351543 0.024788611 0.48218867
0.15396695 0.024721453 0.48088232
0.15444544 0.024659356 0.4796744
0.154975 0.024606058 0.47863767
0.15554729 0.024560099 0.47774366
0.15614291 0.024518307 0.47693074
0.15674986 0.024478747 0.47616118
0.15736055 0.024440194 0.47541127
0.15797167 0.024402129 0.4746708
0.15858497 0.024364807 0.47394484
0.1592021 0.02432847 0.47323802
0.15982567 0.024293503 0.47255781
0.16045663 0.02426002 0.47190651
0.16109352 0.024227785 0.47127947
0.16173379 0.024196394 0.47066885
0.16237557 0.024165554 0.47006896
0.16301727 0.024135025 0.46947512
0.16366507 0.024105709 0.46890485
0.16432619 0.024078647 0.46837842
0.1650053 0.024054481 0.46790835
0.16570342 0.024033319 0.46749672
0.16641547 0.024014384 0.4671284
0.16713734 0.023997048 0.46679118
0.1678662 0.023980886 0.4664768
0.1685988 0.023965415 0.46617585
0.16933441 0.023950525 0.46588621
0.17007248 0.023936126 0.46560612
0.17081456 0.023922432 0.46533975
0.17156087 0.023909461 0.46508741
0.17231277 0.023897391 0.46485263
0.17307062 0.02388626 0.46463612
0.17383476 0.023876099 0.46443847
0.17460541 0.023866927 0.46426007
0.17538173 0.023858612 0.46409833
0.17616263 0.023850998 0.46395022
0.17694771 0.023844019 0.46381444
0.17773664 0.02383762 0.46368998
0.17852859 0.023831684 0.46357453
0.17932336 0.02382618 0.46346745
0.18012254 0.023821309 0.46337271
0.18092673 0.023817144 0.46329167
0.18173788 0.023813929 0.46322915
0.18256249 0.023812499 0.46320131
0.18341526 0.023814738 0.46324489
0.18428253 0.02381883 0.46332449
0.18515784 0.023823921 0.46342349
0.1860418 0.023830073 0.46354318
0.18693128 0.023836875 0.4636755
0.18782675 0.023844376 0.46382141
0.18872836 0.023852587 0.46398112
0.18963879 0.023861835 0.46416101
0.19055901 0.023872228 0.46436319
0.19149129 0.023884036 0.46459284
0.19244155 0.02389797 0.46486393
0.19340725 0.023913695 0.46516979
0.19438979 0.023931356 0.46551335
0.19538721 0.02395069 0.46588942
0.19639921 0.023971638 0.46629691
0.19742396 0.023993956 0.46673104
0.19847293 0.024019018 0.46721852
0.19956569 0.024049142 0.46780452
0.20075783 0.02409094 0.46861756
0.20210609 0.024151042 0.46978667
0.2035463 0.024221584 0.47115886
0.20506246 0.024300542 0.47269475
0.20677395 0.024401896 0.47466627
0.20866017 0.024522949 0.47702101
0.15212384 0.02647583 0.49755061
0.1519791 0.026295505 0.49416181
0.15193941 0.02613535 0.49115208
0.15202625 0.025998691 0.48858389
0.15229525 0.02589458 0.48662737
0.15267734 0.025810782 0.48505259
0.1531184 0.025737852 0.48368204
0.15357305 0.025668018 0.48236966
0.1540224 0.025598088 0.48105553
0.15449685 0.025533091 0.47983405
0.15502015 0.025476849 0.47877711
0.15558966 0.025428781 0.47787377
0.15618253 0.025385039 0.47705176
0.15678826 0.025343856 0.47627783
0.15739837 0.025303826 0.47552556
0.15800902 0.025264315 0.47478303
0.15862183 0.025225574 0.47405499
0.15923788 0.025187761 0.47334439
0.15986066 0.025151409 0.47266123
0.16049083 0.0251166 0.4720071
0.16112749 0.025083173 0.47137889
0.16176775 0.025050649 0.47076771
0.16240901 0.025018621 0.47016579
0.16305107 0.024987048 0.46957245
0.16369815 0.024956565 0.46899959
0.16435789 0.024928318 0.46846876
0.16503584 0.024903107 0.46799499
0.1657328 0.024881005 0.46757963
0.16644455 0.024861338 0.46721002
0.16716582 0.024843283 0.46687073
0.16789471 0.024826536 0.46655601
0.16862728 0.024810497 0.46625459
0.1693628 0.02479505 0.46596432
0.17010127 0.024780184 0.46568495
0.17084344 0.024766002 0.46541843
0.17158988 0.024752576 0.46516609
0.17234151 0.024740022 0.46493018
0.1730994 0.024728486 0.46471339
0.17386368 0.024717968 0.46451575
0.17463458 0.024708489 0.46433759
0.17541091 0.024699867 0.46417555
0.17619227 0.024692027 0.46402824
0.17697793 0.024684865 0.46389365
0.1777676 0.024678327 0.46377078
0.17856072 0.024672324 0.46365798
0.17935763 0.024666902 0.46355605
0.18015826 0.024662036 0.46346462
0.18096584 0.024658162 0.46339184
0.18178281 0.024655601 0.46334368
0.18261352 0.024654916 0.46333081
0.18346134 0.024656534 0.46336123
0.18432462 0.024660211 0.46343032
0.18519872 0.024665292 0.46352583
0.18607987 0.024671264 0.46363804
0.18696877 0.024678204 0.46376848
0.18786308 0.024685794 0.46391112
0.18876512 0.024694329 0.46407148
0.189676 0.024703939 0.46425208
0.19059688 0.02471476 0.46445546
0.1915313 0.024727236 0.46468991
0.19248281 0.024741799 0.46496359
0.19344999 0.024758242 0.46527258
0.19443384 0.024776665 0.46561882
0.19543272 0.024796842 0.46599796
0.19644567 0.024818618 0.46640721
0.19747254 0.024841962 0.4668459
0.19852452 0.024868252 0.46733996
0.19962564 0.024900449 0.46794504
0.20083395 0.024945691 0.46879524
0.20220019 0.025010087 0.47000542
0.20364496 0.025083616 0.47138724
0.20517994 0.025167601 0.47296554
0.20692213 0.025276203 0.47500643
0.2088507 0.02540658 0.47745657
0.15237893 0.027419219 0.49838495
0.15215477 0.027218301 0.49473298
0.15209757 0.027049422 0.49166334
0.1521453 0.026901051 0.48896649
0.15238965 0.026788957 0.486929
0.15275739 0.026699716 0.48530692
0.15319 0.026622763 0.48390818
0.1536431 0.026550224 0.48258969
0.15409102 0.026477611 0.48126984
0.15455946 0.026409321 0.48002854
0.15507534 0.026349848 0.47894755
0.15564002 0.026299283 0.47802845
0.15623081 0.026253663 0.47719923
0.1568355 0.026210865 0.47642133
0.15744589 0.026169481 0.47566912
0.15805599 0.026128497 0.47492418
0.15866828 0.026088316 0.47419381
0.15928377 0.026049089 0.47348079
0.15990561 0.026011312 0.47279418
0.16053523 0.025975198 0.47213772
0.16117123 0.025940489 0.47150683
0.16181058 0.02590668 0.47089231
0.16245236 0.025873614 0.47029129
0.16309372 0.025840823 0.46969527
0.16374014 0.025809169 0.46911991
0.16439885 0.025779767 0.46858549
0.16507448 0.025753308 0.46810454
0.16576968 0.025730154 0.46768367
0.16648003 0.025709575 0.46730965
0.16720118 0.025690861 0.46696949
0.16792972 0.025673468 0.46665332
0.16866265 0.025656912 0.4663524
0.16939823 0.025640924 0.4660618
0.17013715 0.025625596 0.46578318
0.17087948 0.025610929 0.4655166
0.17162614 0.025597051 0.46526435
0.17237772 0.02558404 0.46502787
0.17313518 0.025572022 0.46480942
0.17389934 0.025561107 0.46461102
0.17467044 0.025551312 0.46443295
0.17544715 0.025542427 0.46427146
0.17622904 0.025534375 0.46412513
0.17701563 0.025527077 0.46399245
0.17780681 0.025520505 0.46387303
0.17860158 0.025514511 0.46376407
0.17940111 0.025509249 0.46366844
0.18020511 0.025504667 0.46358514
0.18101621 0.025501128 0.4635208
0.18183775 0.025499087 0.46348369
0.18267101 0.025498699 0.46347666
0.18351749 0.025500152 0.46350306
0.18437845 0.025503594 0.46356565
0.18524961 0.025508413 0.46365321
0.18612845 0.025514238 0.46375909
0.18701521 0.02552109 0.46388364
0.18790917 0.025528863 0.46402493
0.18881123 0.02553766 0.46418482
0.18972203 0.025547558 0.46436474
0.19064456 0.025558941 0.46457165
0.19158135 0.025572127 0.46481133
0.19253354 0.025587246 0.46508613
0.19350356 0.025604593 0.46540141
0.19448808 0.0256237 0.46574873
0.19548924 0.025644824 0.4661327
0.19650295 0.025667408 0.4665432
0.1975316 0.025691744 0.46698552
0.19858785 0.025719445 0.46748903
0.19970141 0.025754305 0.46812266
0.20093334 0.025804071 0.46902725
0.20231991 0.025873195 0.47028369
0.20377372 0.025950307 0.47168529
0.20533514 0.026040424 0.47332329
0.20711078 0.026156848 0.47543949
0.20910692 0.026300045 0.4780423
0.15271521 0.028380701 0.49948478
0.15236442 0.028149437 0.49541464
0.15229169 0.027971944 0.49229085
0.15229467 0.02781033 0.48944655
0.15250373 0.027687997 0.48729354
0.15285267 0.027592314 0.48560959
0.15327762 0.027511368 0.48418498
0.15372631 0.027435573 0.48285103
0.15417324 0.027360322 0.48152664
0.15463483 0.0272885 0.48026264
0.15514277 0.027225612 0.47915584
0.15569988 0.027172003 0.47821233
0.156288 0.027124364 0.47737393
0.15689124 0.02707986 0.47659066
0.15750082 0.027036926 0.47583506
0.15811154 0.026994653 0.47509107
0.15872295 0.026952954 0.47435719
0.15933815 0.026912341 0.47364244
0.1599592 0.026873145 0.4729526
0.16058809 0.026835676 0.47229317
0.16122335 0.02679966 0.4716593
0.16186285 0.026764724 0.47104445
0.16250406 0.026730433 0.47044095
0.16314617 0.026696645 0.46984631
0.16379181 0.026663782 0.46926793
0.1644481 0.026632983 0.46872589
0.16512139 0.026605235 0.46823755
0.16581391 0.026580857 0.46780849
0.16652273 0.026559319 0.46742946
0.16724327 0.026539866 0.46708706
0.1679711 0.026521754 0.46676829
0.16870458 0.02650471 0.46646836
0.16944055 0.026488226 0.46617824
0.1701798 0.026472414 0.46589994
0.17092259 0.026457304 0.46563405
0.17166992 0.026443044 0.46538305
0.17242178 0.026429616 0.46514675
0.17317922 0.02641717 0.4649277
0.17394295 0.026405798 0.46472755
0.17471352 0.026395569 0.46454751
0.1754905 0.026386401 0.46438617
0.17627324 0.026378181 0.4642415
0.17706072 0.026370747 0.46411067
0.17785291 0.026364079 0.46399331
0.17865047 0.026358267 0.46389103
0.17945246 0.02635316 0.46380115
0.18026035 0.02634896 0.46372724
0.18107536 0.02634584 0.46367231
0.18189947 0.026344061 0.46364102
0.18273516 0.02634397 0.46363941
0.18358172 0.026345441 0.46366531
0.18444015 0.026348593 0.46372077
0.18530855 0.026353134 0.4638007
0.18618573 0.026358878 0.46390179
0.18707041 0.02636563 0.46402061
0.18796371 0.026373528 0.46415961
0.18886583 0.026382588 0.46431908
0.18977804 0.026392974 0.46450186
0.19070166 0.026404846 0.4647108
0.1916402 0.026418671 0.46495411
0.19259635 0.026434792 0.46523783
0.19356744 0.026452817 0.46555507
0.19455451 0.026472861 0.46590781
0.19555591 0.026494673 0.4662917
0.19657072 0.026518106 0.46670413
0.19760236 0.0265436 0.4671528
0.19866726 0.026573328 0.46767598
0.19979775 0.02661154 0.4683485
0.20106198 0.026667167 0.46932751
0.20246623 0.026740823 0.47062382
0.20393035 0.026821736 0.47204784
0.20552738 0.026919387 0.47376645
0.20733957 0.027044293 0.4759647
0.20952074 0.027216095 0.47898835
0.15262729 0.02909318 0.4962694
0.15252104 0.028903404 0.49303225
0.1524794 0.028728003 0.49004024
0.15264198 0.028592879 0.4877353
0.15296638 0.028489439 0.48597085
0.15337904 0.028403524 0.48450533
0.15382494 0.028324706 0.48316085
0.15427181 0.02824695 0.4818345
0.15472569 0.028171342 0.48054478
0.15522186 0.028104236 0.4794001
0.15577227 0.028047638 0.47843462
0.15635601 0.027997632 0.47758162
0.15695721 0.027951283 0.47679102
0.15756613 0.027906807 0.47603235
0.15817668 0.0278631 0.47528681
0.15878798 0.027819997 0.47455156
0.15940224 0.027777869 0.47383294
0.1600223 0.0277372 0.4731392
0.16064942 0.027698176 0.47247353
0.16128419 0.027660878 0.47183731
0.16192278 0.027624622 0.47121885
0.16256496 0.027589355 0.47061726
0.16320764 0.027554536 0.47002333
0.16385256 0.027520457 0.46944201
0.1645067 0.027488265 0.4688929
0.16517654 0.027459016 0.46839395
0.16586678 0.027433438 0.46795765
0.16657329 0.027410792 0.46757138
0.16729188 0.027390359 0.46722281
0.16802 0.027371679 0.46690416
0.16875307 0.027353989 0.46660241
0.16949017 0.027337125 0.46631473
0.17022979 0.02732083 0.4660368
0.17097287 0.027305249 0.46577102
0.17172016 0.02729049 0.46551925
0.17247246 0.027276667 0.46528345
0.17323028 0.027263846 0.46506476
0.17399418 0.027252102 0.46486443
0.17476453 0.027241474 0.46468315
0.17554171 0.027232008 0.46452168
0.17632484 0.02722355 0.4643774
0.1771135 0.027216023 0.46424901
0.17790745 0.027209375 0.46413562
0.17870644 0.027203556 0.46403635
0.17951109 0.027198648 0.46395263
0.18032266 0.027194833 0.46388754
0.18114118 0.027192095 0.46384084
0.18196802 0.027190624 0.46381575
0.18280469 0.027190629 0.46381584
0.18365151 0.027192136 0.46384156
0.18450831 0.027195102 0.46389213
0.18537459 0.02719943 0.46396598
0.18625022 0.027205089 0.46406248
0.18713439 0.027211936 0.46417928
0.18802717 0.02721997 0.46431634
0.18892933 0.027229285 0.46447521
0.18984267 0.027240118 0.46466002
0.19076948 0.027252784 0.46487606
0.19171165 0.027267521 0.46512747
0.19266888 0.027284265 0.46541306
0.19364293 0.027303234 0.46573663
0.19463152 0.02732408 0.46609223
0.1956342 0.027346717 0.46647838
0.19665046 0.027371049 0.46689343
0.1976866 0.027397929 0.46735194
0.19876206 0.027430007 0.46789914
0.19991763 0.027472824 0.46862951
0.20122032 0.027535412 0.46969712
0.20263809 0.027613157 0.47102329
0.20411745 0.027698608 0.47248092
0.20576398 0.027805943 0.47431183
0.2076067 0.027938789 0.47657791
0.15297419 0.030056512 0.49739733
0.15278873 0.029845029 0.49389756
0.15271024 0.029656772 0.49078214
0.15280861 0.029504832 0.48826772
0.15310077 0.029391838 0.48639783
0.15349558 0.029299725 0.48487347
0.15393753 0.029217605 0.48351449
0.15438461 0.029137379 0.48218682
0.15483156 0.029058024 0.48087361
0.15531693 0.028986728 0.47969374
0.15585452 0.028925907 0.47868726
0.15643269 0.02887325 0.47781584
0.15703183 0.028825022 0.47701773
0.15763976 0.02877892 0.47625479
0.15825036 0.028733805 0.47550821
0.15886155 0.028689282 0.47477141
0.15947561 0.028645754 0.47405106
0.16009481 0.028603608 0.47335359
0.16072123 0.028563188 0.47268471
0.16135481 0.028524464 0.47204387
0.16199353 0.028487051 0.47142473
0.16263561 0.028450616 0.47082177
0.16327837 0.028414676 0.47022703
0.16392355 0.02837953 0.46964538
0.16457574 0.02834595 0.46908969
0.16524239 0.028315192 0.46858069
0.16592784 0.028287953 0.4681299
0.16663101 0.028263995 0.46773344
0.1673484 0.028242677 0.46738067
0.16807519 0.028223153 0.46705756
0.16880862 0.028204931 0.46675602
0.16954608 0.028187562 0.46646857
0.17028679 0.028170902 0.46619287
0.17103082 0.028154952 0.46592891
0.17177868 0.028139783 0.46567789
0.17253113 0.028125513 0.46544173
0.1732889 0.028112242 0.46522212
0.17405272 0.028100077 0.46502081
0.17482287 0.028089045 0.46483824
0.17560017 0.028079264 0.46467638
0.17638367 0.028070562 0.46453235
0.17717329 0.028062908 0.46440572
0.1779687 0.028056242 0.46429539
0.1787695 0.028050482 0.46420008
0.17957647 0.028045742 0.46412164
0.18039019 0.028042097 0.46406129
0.18121108 0.028039591 0.46401983
0.18204027 0.028038386 0.4639999
0.18287826 0.028038543 0.46400249
0.18372509 0.028040048 0.4640274
0.18458174 0.02804303 0.46407676
0.18544739 0.028047349 0.46414822
0.18632226 0.028053014 0.46424195
0.18720612 0.028059976 0.4643572
0.18809941 0.028068285 0.46449471
0.18900283 0.028078025 0.46465588
0.18991791 0.028089404 0.46484417
0.19084762 0.028102836 0.46506646
0.19179328 0.028118489 0.4653255
0.19275355 0.02813614 0.4656176
0.19372906 0.02815585 0.46594378
0.19471954 0.028177556 0.46630299
0.19572343 0.02820101 0.46669111
0.19674154 0.028226303 0.46710968
0.19778484 0.028254978 0.46758422
0.19887595 0.028290208 0.46816725
0.20006782 0.028339416 0.46898156
0.20141082 0.028409524 0.47014177
0.20283708 0.028490743 0.47148582
0.20434545 0.028582765 0.47300869
0.20604372 0.028700477 0.47495666
0.20792569 0.028842695 0.47731018
0.15344009 0.031047994 0.49891222
0.15310356 0.030799259 0.49491525
0.15299043 0.030598087 0.49168262
0.15301387 0.030426389 0.48892358
0.15326047 0.030300781 0.48690519
0.1536323 0.030201221 0.48530537
0.1540634 0.030114377 0.48390985
0.15451017 0.030031556 0.48257899
0.15495208 0.029948721 0.4812479
0.15542522 0.029872814 0.48002815
0.15595062 0.029807737 0.47898245
0.15652123 0.029751971 0.47808632
0.15711577 0.029701339 0.47727272
0.15772285 0.029653613 0.47650582
0.15833414 0.029607197 0.47575995
0.15894581 0.02956135 0.47502324
0.15955919 0.029516313 0.47429952
0.16017702 0.029472571 0.47359663
0.16080156 0.029430524 0.47292098
0.16143374 0.029390313 0.47227481
0.16207297 0.029351799 0.47165594
0.16271542 0.029314267 0.47105283
0.16335961 0.029277436 0.47046101
0.16400437 0.029241089 0.46987695
0.16465476 0.029206116 0.46931493
0.16531801 0.029173767 0.46879515
0.1659985 0.029144777 0.46832928
0.16669825 0.029119439 0.46792215
0.16741225 0.02909684 0.46755898
0.16813809 0.029076511 0.46723232
0.1688711 0.029057622 0.46692878
0.16960935 0.029039815 0.46664265
0.17035075 0.02902272 0.46636793
0.1710954 0.029006345 0.46610484
0.17184384 0.028990772 0.46585456
0.17259729 0.028976187 0.46562022
0.1733557 0.028962575 0.46540147
0.17411949 0.028949987 0.4651992
0.17488961 0.028938569 0.46501571
0.17566611 0.028928308 0.46485084
0.17644987 0.028919337 0.46470669
0.17724043 0.028911559 0.4645817
0.17803705 0.028904838 0.46447369
0.17883945 0.028899115 0.46438172
0.17964834 0.028894488 0.46430737
0.18046412 0.028891008 0.46425146
0.18128689 0.028888673 0.46421394
0.18211754 0.028887609 0.46419683
0.18295668 0.028887898 0.46420148
0.18380451 0.028889546 0.46422797
0.18466118 0.028892566 0.46427649
0.18552707 0.028896993 0.46434763
0.18640149 0.028902704 0.46443939
0.18728609 0.028909935 0.46455559
0.18818043 0.028918596 0.46469477
0.18908569 0.028928854 0.4648596
0.1900046 0.028941099 0.46505636
0.19093759 0.028955372 0.46528572
0.19188572 0.028971806 0.4655498
0.19284901 0.028990373 0.46584818
0.19382635 0.029010884 0.46617776
0.19481833 0.029033402 0.46653959
0.19582278 0.029057574 0.46692801
0.19684531 0.029084211 0.46735606
0.19789982 0.029115325 0.46785602
0.19901609 0.029155223 0.46849716
0.20025416 0.029212553 0.46941838
0.2016304 0.029289467 0.47065434
0.20306706 0.02937448 0.47202042
0.20461521 0.029474841 0.47363311
0.20637454 0.029604664 0.47571924
0.20834932 0.029764188 0.47828266
0.15347162 0.031768177 0.49610502
0.1533241 0.031553652 0.49275494
0.15326725 0.031360157 0.48973322
0.15344961 0.031217542 0.48750606
0.15378831 0.031108176 0.48579818
0.15420817 0.031016374 0.48436454
0.15465239 0.030930478 0.48302317
0.15509327 0.03084488 0.48168644
0.15555151 0.030763669 0.48041821
0.15606083 0.030693406 0.47932094
0.15662122 0.030633902 0.47839171
0.15721132 0.030580834 0.47756296
0.15781632 0.030531222 0.47678822
0.15842725 0.030483292 0.47603974
0.1590393 0.030436093 0.47530264
0.15965214 0.030389549 0.47457579
0.16026993 0.03034444 0.47387135
0.1608931 0.030300822 0.47319019
0.16152439 0.030259186 0.47253999
0.16216199 0.030219164 0.47191498
0.16280472 0.03018051 0.47131136
0.16345002 0.03014273 0.47072136
0.16409576 0.030105423 0.47013876
0.16474459 0.030069062 0.46957093
0.16540398 0.030034993 0.4690389
0.16607903 0.030004101 0.46855646
0.16677389 0.029977078 0.46813446
0.16748516 0.029953266 0.46776262
0.16820791 0.029931733 0.46742636
0.16894117 0.029912276 0.4671225
0.16967931 0.029893873 0.46683511
0.17042191 0.029876433 0.46656278
0.17116788 0.029859753 0.46630228
0.1719175 0.029843869 0.46605423
0.17267138 0.029828874 0.46582007
0.17343043 0.029814916 0.46560207
0.17419459 0.029801965 0.46539983
0.1749649 0.029790187 0.46521592
0.17574161 0.029779606 0.46505067
0.1765248 0.029770216 0.46490404
0.17731524 0.02976213 0.46477777
0.17811279 0.029755315 0.46467131
0.17891631 0.02974955 0.46458131
0.17972685 0.029745003 0.46451029
0.18054409 0.029741602 0.46445718
0.18136878 0.029739454 0.46442366
0.18220098 0.029738553 0.46440956
0.18304127 0.02973897 0.46441609
0.18388981 0.029740721 0.46444342
0.18474682 0.029743819 0.46449178
0.18561389 0.029748501 0.46456492
0.18648922 0.029754462 0.46465799
0.18737479 0.029761991 0.46477559
0.18827146 0.029771211 0.46491957
0.18918051 0.029782297 0.46509269
0.19010274 0.029795352 0.46529657
0.19103931 0.029810529 0.46553358
0.19198978 0.029827734 0.46580225
0.19295564 0.029847169 0.46610576
0.19393502 0.029868519 0.46643916
0.19492793 0.029891757 0.46680206
0.19593456 0.02991689 0.46719456
0.19696437 0.029945333 0.46763873
0.19803497 0.029979708 0.46817553
0.19918889 0.03002635 0.46890393
0.2004835 0.030093718 0.46995598
0.20187661 0.030175241 0.47122908
0.20333208 0.030265361 0.47263643
0.20494184 0.0303776 0.4743892
0.20674664 0.030517695 0.47657698
0.15397073 0.032769281 0.49771842
0.15371042 0.032524236 0.49399653
0.15358284 0.032309934 0.49074161
0.15367724 0.03214452 0.48822924
0.15397123 0.032022506 0.48637599
0.15437075 0.031923696 0.48487523
0.1548086 0.031833883 0.48351106
0.15525195 0.031746197 0.48217925
0.15569784 0.031660005 0.48087013
0.15618825 0.031583775 0.47971228
0.15673451 0.03151961 0.47873774
0.15731731 0.031463463 0.47788492
0.15791918 0.031411715 0.47709897
0.15852904 0.031362116 0.4763456
0.15914229 0.031313714 0.47561044
0.15975609 0.031265937 0.47488481
0.16037257 0.031219194 0.47417483
0.16099384 0.031173874 0.47348648
0.16162458 0.031130856 0.4728331
0.16226141 0.031089459 0.47220433
0.16290365 0.031049522 0.47159776
0.16354971 0.031010725 0.47100848
0.16419744 0.030972645 0.47043011
0.16484602 0.030935112 0.46986005
0.16550252 0.030899446 0.46931833
0.16617212 0.030866576 0.46881908
0.16686022 0.030837459 0.46837685
0.16756713 0.030812094 0.46799156
0.16828763 0.030789468 0.46764791
0.16901854 0.030768959 0.46733642
0.16975653 0.030749943 0.46704757
0.17050037 0.030732164 0.46677756
0.17124735 0.030715127 0.46651876
0.17199816 0.030698938 0.46627289
0.17275314 0.030683646 0.46604064
0.17351282 0.030669335 0.46582326
0.17427772 0.030656083 0.46562198
0.1750485 0.030643983 0.46543819
0.1758256 0.030633099 0.4652729
0.17660886 0.030623389 0.46512541
0.17739895 0.03061495 0.46499723
0.17819723 0.030607997 0.46489161
0.17900127 0.03060209 0.46480191
0.17981316 0.030597577 0.46473336
0.18063098 0.030594112 0.46468073
0.18145716 0.030592086 0.46464995
0.18229093 0.030591352 0.4646388
0.18313253 0.030591933 0.46464765
0.18398218 0.030593846 0.46467671
0.18484089 0.030597245 0.46472833
0.18570878 0.030602124 0.46480241
0.1865865 0.030608572 0.46490037
0.18747361 0.030616496 0.46502072
0.18837425 0.030626548 0.46517339
0.1892868 0.03063844 0.465354
0.19021258 0.030652359 0.46556541
0.1911521 0.030668357 0.46580842
0.19210526 0.030686397 0.46608242
0.19307327 0.030706644 0.46638992
0.19405425 0.030728763 0.46672589
0.19504812 0.030752728 0.46708989
0.19605988 0.030779295 0.46749339
0.1971021 0.030810392 0.46796572
0.19820024 0.03084993 0.46856624
0.1994089 0.030906264 0.46942186
0.20074891 0.030982388 0.4705781
0.20215015 0.031067286 0.47186756
0.2036434 0.031165551 0.47336009
0.20532461 0.031291641 0.47527519
