# .PCD v0.7 - Point Cloud Data file format
VERSION 0.7
FIELDS x y z
SIZE 4 4 4
TYPE F F F
COUNT 1 1 1
WIDTH 93
HEIGHT 1
VIEWPOINT 0 0 0 1 0 0 0
POINTS 93
DATA ascii
-0.12038605 0.019861672 0.44942725
-0.13993603 0.019315112 0.43705979
-0.11878441 0.019054154 0.44950187
-0.11855659 0.016256923 0.43963695
-0.12568043 0.019426944 0.43959028
-0.12979533 0.012010911 0.42958978
-0.13919671 0.012795241 0.42990667
-0.1461246 0.010465157 0.42975572
-0.14847676 0.01781721 0.43900239
-0.15912382 0.010714074 0.43997756
-0.11021096 0.009946838 0.4411484
-0.14947642 0.0097062606 0.43047866
-0.12011706 0.0097182086 0.43100855
-0.16231632 0.0067466442 0.44002622
-0.10748903 0.009329237 0.44973633
-0.10832671 0.0067456192 0.43995938
-0.11127218 0.00989966 0.43905604
-0.11975896 0.0073638191 0.42972359
-0.1293463 0.0096527087 0.42810357
-0.13928495 0.0096457722 0.42779595
-0.14998953 0.0081389667 0.42972404
-0.1569427 0.00038751282 0.42966083
-0.15988395 0.0082902787 0.43771306
-0.16477562 0.00039514538 0.43812355
-0.13961354 -0.00038041835 0.42179471
-0.1599616 -0.00038920096 0.43153256
-0.11025433 -0.0003895913 0.43196535
-0.10185757 -0.0020290352 0.44994482
-0.10278061 -0.009127236 0.43999842
-0.11279977 -0.0011628843 0.42978862
-0.12026297 -0.00038422673 0.42601731
-0.13898602 -0.0018935425 0.4198989
-0.15980221 -0.029447582 0.43533948
-0.14344172 -0.0071910098 0.41963911
-0.16757229 -0.0099037997 0.43923962
-0.15674366 -0.036110565 0.43997961
-0.14349993 -0.013251972 0.4198094
-0.10105739 -0.017451677 0.44999573
-0.16014425 -0.017449133 0.42993322
-0.14978358 -0.039915942 0.43819222
-0.13971987 -0.017796298 0.41982809
-0.14998667 -0.0019179881 0.42531976
-0.10353637 -0.01864448 0.43983734
-0.1299078 -0.0026511794 0.41993374
-0.15934186 -0.0042646239 0.42986068
-0.11062845 -0.019796669 0.43038946
-0.12066437 -0.019536136 0.42472532
-0.13929978 -0.019357733 0.42084679
-0.16752255 -0.013069135 0.43910924
-0.11127604 -0.019773791 0.42989206
-0.10429303 -0.027189234 0.44994751
-0.15356471 -0.039488066 0.44225255
-0.14973116 -0.019530151 0.42459521
-0.10830529 -0.029754201 0.43987238
-0.14517273 0.021313448 0.44587952
-0.13997567 -0.039380338 0.43231246
-0.12980528 -0.017029846 0.41960233
-0.15930794 -0.019768139 0.42976919
-0.11046323 -0.029483069 0.43586409
-0.16016507 -0.0065927515 0.4299891
-0.10670581 -0.031240864 0.4498544
-0.12988016 -0.045721054 0.4486188
-0.11746372 -0.029850515 0.42983401
-0.11454165 -0.039259858 0.44876263
-0.1391324 -0.045308243 0.44456825
-0.12938946 -0.029563766 0.42570496
-0.16204743 -0.0297153 0.43929729
-0.14269108 -0.044366132 0.44316787
-0.13927801 -0.029543821 0.42541775
-0.10901285 -0.030523598 0.43952611
-0.15133207 -0.040116899 0.44039831
-0.14936332 -0.029718285 0.42792997
-0.12744416 0.022252155 0.44858947
-0.11850217 -0.039236505 0.43943515
-0.15857002 -0.022098999 0.42987031
-0.14243986 0.02023519 0.43992311
-0.1399374 -0.036825635 0.42979988
-0.10815665 0.010127027 0.44913989
-0.16063111 -0.030389668 0.43759757
-0.12815781 0.020235443 0.43992862
-0.11983161 -0.032187779 0.42998427
-0.11691036 -0.040857945 0.44853345
-0.13610242 0.021030404 0.43995818
-0.12990548 -0.036838867 0.42995432
-0.1523274 -0.030620521 0.42975917
-0.1380907 0.023082608 0.44900349
-0.12061063 -0.039939914 0.4384554
-0.14851113 -0.033734903 0.42993212
-0.12808989 -0.043225382 0.43969551
-0.14846277 0.019608291 0.44369379
-0.13768142 -0.044042189 0.43993202
-0.15619934 0.014781011 0.44293714
-0.14561474 -0.042454433 0.43992531
