# .PCD v0.7 - Point Cloud Data file format
VERSION 0.7
FIELDS x y z
SIZE 4 4 4
TYPE F F F
COUNT 1 1 1
WIDTH 145
HEIGHT 1
VIEWPOINT 0 0 0 1 0 0 0
POINTS 145
DATA ascii
0.016167514 0.044132944 0.48448598
0.023809489 0.043722879 0.47998434
0.015992204 0.042789951 0.47923252
0.029319549 0.039517652 0.4711377
0.010700958 0.039807562 0.47459409
0.048452742 0.03623043 0.48398852
0.036027554 0.036875263 0.46995419
0.029234042 0.038555041 0.4697637
0.027789691 0.030278321 0.45988432
0.017374722 0.038563408 0.46986562
0.003894794 0.038515184 0.47982365
0.053378038 0.030811712 0.48116848
0.046195455 0.03093824 0.46990755
0.0089008696 0.036027331 0.46995127
0.010418152 0.02958755 0.46205145
0.039739627 0.029700141 0.46380973
0.055294022 0.029170861 0.48274094
0.05467857 0.02076938 0.46996674
0.049564667 0.027535925 0.46970588
0.039398182 0.02529778 0.45982465
0.029419038 0.029419038 0.45941991
0.015350329 0.029456038 0.45999768
0.00042245802 0.029149603 0.46840686
-0.005509445 0.024156796 0.46989861
0.060415961 0.020428419 0.48192179
0.041515559 0.04064155 0.48453704
0.00041588646 0.019546663 0.46112052
-0.0097823646 0.019139409 0.47158033
0.049795181 0.019667005 0.46395946
0.057208568 0.01483185 0.46985838
0.0399791 0.019371316 0.45698395
0.029911049 0.019257799 0.45430598
0.010278383 0.01932336 0.45585263
0.0012445265 0.018667897 0.45996264
0.037658487 0.041121334 0.47993594
-0.0012443502 0.013687853 0.45989752
0.0073561314 0.040242366 0.4797779
0.050198384 0.0053932145 0.45998538
0.0074302806 0.041522156 0.48461401
0.058911324 0.007204982 0.46991971
0.049336683 0.0095356619 0.45968747
0.039753217 0.0094260201 0.45440197
0.029750701 0.0093735084 0.45187053
0.052101143 0.030571746 0.47742105
0.010222662 0.0094048493 0.45338139
0.047177549 0.035924189 0.47989759
0.00041265119 0.009490977 0.45753336
0.039979115 0.039119348 0.47663936
-0.0029039334 0.00041484763 0.45996872
0.017009588 -0.021988004 0.45999131
0.05997473 0.0080817016 0.47161636
-0.011440534 -0.0029660645 0.46980995
-0.00041487408 -0.0078826072 0.45999804
0.059724208 -0.0098824231 0.47640386
0.0021918183 0.039014366 0.48604247
0.058916934 -0.00042386283 0.46996444
-0.00043808777 0.037237462 0.48573658
0.049642999 -0.0095948651 0.46254152
-0.0012986285 0.035062969 0.47995812
0.048539631 -0.0053932923 0.45999199
0.039878912 -0.0094558252 0.45583877
0.029844875 -0.0094031794 0.45330089
0.031062821 0.044187959 0.4850899
-0.0088991942 0.018222159 0.46986279
0.058373176 0.022916876 0.4794234
0.010253639 -0.0094333477 0.45475522
0.029134749 0.043919545 0.48214331
-0.01059697 0.013988001 0.46998218
0.049776115 0.029355144 0.4717097
0.00041459023 -0.0087063955 0.45968333
0.009748959 -0.029246876 0.46996993
-0.014283529 -0.0090895183 0.47991163
-0.0004234949 -0.02244523 0.46955651
0.060064394 -0.011667185 0.47911742
-0.00043280405 -0.028132264 0.47987816
0.061437402 -0.010893157 0.48311821
-0.009955449 0.025537889 0.47992423
0.046048887 -0.010371371 0.4599767
0.058615159 -0.016064895 0.48141083
0.053798318 -0.014826308 0.46968278
0.011196237 -0.019489747 0.4597778
0.059907515 0.018532541 0.47786605
-0.011438756 0.0097441254 0.46973693
0.0095394626 -0.018664166 0.45987073
0.019480953 -0.035931535 0.47999573
-0.0099904658 -0.018677827 0.48161229
0.057501689 -0.016861398 0.47936755
-0.0091669997 0.028374048 0.4840025
0.049500331 -0.019884748 0.46909621
-0.010902903 0.025730852 0.48355049
0.039545558 -0.019564645 0.46154472
-0.010806699 0.023774737 0.47928378
0.037752613 -0.018668875 0.45998672
-0.013396003 -0.010803228 0.47912985
0.029312622 -0.01940413 0.45775804
0.062723666 0.010814425 0.47962642
-0.0096987924 0.0096987924 0.46755153
0.0090821711 -0.033301294 0.47952369
-0.010903792 -0.017882219 0.48358989
0.061495095 0.018753823 0.48357189
0.010374743 -0.019504515 0.46012622
-0.016009286 0.0090863509 0.47974437
0.00042068877 -0.019772371 0.46644515
0.026696457 -0.031781495 0.46984297
0.062192515 -0.0082633412 0.48221615
0.019919556 -0.031786524 0.46991733
-0.0099450117 -0.017728064 0.47942111
0.029447846 -0.021982195 0.45986977
0.062626511 0.00993386 0.4788835
-0.0097444151 -0.0088970745 0.46975088
0.052370772 -0.023804896 0.47989175
0.044480525 -0.02499382 0.46969971
0.046320241 -0.029004265 0.47998396
0.039589062 -0.02937253 0.47198907
0.047708243 0.015349608 0.45997608
0.0074722804 -0.033845033 0.4873533
-0.017048707 0.0091800736 0.48469275
0.031779148 -0.030931702 0.46980825
-0.015140519 0.013410173 0.47963667
0.034426086 -0.020323833 0.45988497
-0.017054059 -0.0013118507 0.48484489
0.0021630274 -0.029849777 0.47965798
0.040259976 -0.032467723 0.47998786
0.062692687 -0.0030265437 0.47938955
-0.0046622241 -0.018225057 0.46993753
0.018668991 0.03028525 0.45998958
0.055196974 -0.021296471 0.48189369
0.00041491591 -0.0095430659 0.46004441
0.048476938 -0.028387398 0.48423022
0.029966861 -0.029966861 0.46797493
0.063997976 0.0074011269 0.48271257
0.010584443 -0.029213062 0.46942657
-0.0097541353 -0.0097541353 0.47021949
0.0087105893 0.026131768 0.45990476
0.043759495 -0.030761626 0.48038629
-0.015342543 0.017095976 0.4860366
0.03685433 -0.029229296 0.46968743
0.00043365775 -0.02905507 0.48082474
0.032447476 -0.035043273 0.47968853
0.034491219 -0.035364415 0.48408446
0.04436649 0.020317364 0.45973858
-0.0091724675 -0.020528855 0.48429117
0.029070612 -0.036012847 0.48108193
0.027264176 -0.035919469 0.47983453
0.012650417 -0.035333924 0.48366708
