# .PCD v0.7 - Point Cloud Data file format
VERSION 0.7
FIELDS x y z
SIZE 4 4 4
TYPE F F F
COUNT 1 1 1
WIDTH 75
HEIGHT 1
VIEWPOINT 0 0 0 1 0 0 0
POINTS 75
DATA ascii
0.19746499 0.044505239 0.4790861
0.18969509 0.047963906 0.47910559
0.18853289 0.040248595 0.46974999
0.17925742 0.041106313 0.46986863
0.17935914 0.04883755 0.4791981
0.20262295 0.040178962 0.479022
0.16994184 0.046269152 0.47945455
0.16889608 0.048948992 0.48894551
0.16013132 0.039490379 0.48116007
0.17055775 0.039555788 0.47159237
0.19949612 0.039899223 0.47568688
0.18916653 0.039356794 0.46921992
0.18646774 0.051333472 0.4864682
0.179573 0.039294794 0.46848077
0.20629671 0.035896491 0.47952759
0.2004835 0.030093718 0.46995598
0.19866738 0.032617033 0.46967062
0.17709252 0.051670387 0.48966101
0.16990355 0.036861867 0.46978348
0.20210609 0.024151042 0.46978667
0.18952559 0.049007762 0.48086825
0.17972685 0.029745003 0.46451029
0.1708858 0.049896888 0.48959243
0.16400437 0.029241089 0.46987695
0.20952074 0.027216095 0.47898835
0.15951075 0.041976511 0.48991689
0.20213647 0.018221946 0.46985731
0.15848896 0.040626746 0.49500585
0.20953146 0.015120827 0.47901285
0.19974025 0.010601924 0.47020188
0.19950536 0.011436613 0.46964893
0.18935096 0.010496173 0.46551177
0.16120583 0.039329033 0.47919422
0.17987816 0.01048241 0.46490136
0.15959811 0.037628822 0.4795579
0.16565241 0.010591587 0.4697434
0.15676309 0.038417995 0.48961547
0.16040692 0.010693795 0.47427639
0.15621816 0.010818432 0.47980413
0.16472997 0.046232115 0.49767545
0.15531693 0.028986728 0.47969374
0.16995488 0.0055097593 0.46992543
0.15887536 0.0056277374 0.47998774
0.19876227 0.0097474037 0.46989495
0.20691714 0.0065068286 0.48096976
0.16017702 0.029472571 0.47359663
0.17988175 0.0021162559 0.46928629
0.16998746 -0.0038928424 0.47958323
0.15235934 0.014573501 0.48965439
0.18862414 0.0021193724 0.46997738
0.15706263 0.038253076 0.49898458
0.20777513 0.0099351937 0.47894779
0.19924176 0.00043032778 0.47713256
0.17959417 0.00042457253 0.47075135
0.15229467 0.02781033 0.48944655
0.16381322 0.00043222486 0.47923598
0.20041856 -0.00043286948 0.4799507
0.15271521 0.028380701 0.49948478
0.16020128 0.00043890762 0.48664558
0.15761377 0.0030904661 0.48951456
0.18971419 -0.0056179599 0.47915384
0.15828253 0.0022547368 0.49999487
0.19749534 -0.0021607806 0.47915974
0.17938739 -0.0064838817 0.47927359
0.16966738 -0.0066104173 0.48862681
0.15376629 0.010371334 0.49997288
0.18928599 0.00042536177 0.47162643
0.19428286 0.048461568 0.48407668
0.18918051 0.029782297 0.46509269
0.16618951 -0.0049541588 0.49936363
0.19920133 -0.0030512237 0.48329878
0.18439099 -0.009241553 0.48793879
0.17897367 -0.0092801163 0.48997489
0.19991763 0.027472824 0.46862951
0.17768949 -0.0093520787 0.49377435
