# .PCD v0.7 - Point Cloud Data file format
VERSION 0.7
FIELDS x y z
SIZE 4 4 4
TYPE F F F
COUNT 1 1 1
WIDTH 1340
HEIGHT 1
VIEWPOINT 0 0 0 1 0 0 0
POINTS 1340
DATA ascii
-0.24676646 -0.050448295 0.43360716
-0.24596751 -0.050444849 0.43357754
-0.24517763 -0.050443247 0.43356377
-0.24439725 -0.050443593 0.43356675
-0.24362685 -0.050446007 0.43358752
-0.24286507 -0.050450232 0.43362382
-0.24211061 -0.05045601 0.43367347
-0.24136473 -0.050463617 0.43373886
-0.24062648 -0.050472874 0.43381843
-0.23989572 -0.050483763 0.43391204
-0.23917198 -0.050496213 0.43401903
-0.23845515 -0.050510205 0.43413928
-0.23774485 -0.05052568 0.43427229
-0.23704101 -0.05054263 0.43441799
-0.23634429 -0.050561216 0.43457773
-0.23565397 -0.050581302 0.43475038
-0.23497033 -0.050602958 0.43493652
-0.23429178 -0.050625861 0.43513337
-0.23361905 -0.050650179 0.4353424
-0.23295192 -0.05067588 0.4355633
-0.23229082 -0.050703071 0.43579701
-0.23163459 -0.050731514 0.43604147
-0.23098527 -0.050761666 0.43630064
-0.23034129 -0.050793208 0.43657172
-0.22970188 -0.050825972 0.43685335
-0.22906758 -0.050860099 0.43714666
-0.22843869 -0.050895669 0.43745238
-0.22781502 -0.050932646 0.43777022
-0.2271965 -0.050971042 0.43810022
-0.22658429 -0.051011119 0.4384447
-0.22597636 -0.051052451 0.43879995
-0.225374 -0.051095337 0.43916854
-0.22477674 -0.051139683 0.43954971
-0.22418408 -0.051185392 0.43994257
-0.22359677 -0.051232651 0.44034877
-0.22301491 -0.051281504 0.44076866
-0.22243838 -0.051331937 0.44120213
-0.22186725 -0.051383976 0.44164944
-0.22130217 -0.051437803 0.44211206
-0.22074188 -0.051493134 0.44258764
-0.22018676 -0.051550075 0.44307706
-0.21963775 -0.051608872 0.44358242
-0.21909472 -0.051669504 0.44410357
-0.218557 -0.05173184 0.44463935
-0.218025 -0.051795993 0.44519076
-0.21749957 -0.051862191 0.44575971
-0.21698102 -0.051930524 0.44634706
-0.21646859 -0.052000832 0.44695136
-0.21596317 -0.052073363 0.44757476
-0.21546407 -0.052147962 0.44821596
-0.21497351 -0.052225202 0.44887984
-0.21449088 -0.052304961 0.44956535
-0.21401525 -0.052387033 0.45027077
-0.21354842 -0.052471898 0.45100021
-0.21309052 -0.052559614 0.45175412
-0.21264161 -0.052650224 0.45253295
-0.21220401 -0.052744348 0.45334193
-0.21177723 -0.052841898 0.45418039
-0.21136187 -0.052943069 0.45504996
-0.21096016 -0.053048465 0.45595583
-0.21057177 -0.053158041 0.45689765
-0.21019728 -0.053272005 0.45787719
-0.20984006 -0.053391259 0.45890218
-0.2095041 -0.053516887 0.45998198
-0.20918638 -0.053648196 0.46111059
-0.20889466 -0.053787246 0.46230572
-0.20863262 -0.053935084 0.46357641
-0.20840363 -0.054092694 0.46493107
-0.20821659 -0.054262504 0.46639061
-0.20808299 -0.054447681 0.4679822
-0.20801538 -0.0546517 0.46973577
-0.2080473 -0.05488364 0.47172934
-0.20822771 -0.055156827 0.47407737
-0.20870435 -0.055511057 0.47712201
-0.25043607 -0.049773678 0.43454593
-0.2495832 -0.049759913 0.43442577
-0.2487433 -0.049748659 0.43432751
-0.24791528 -0.049739715 0.43424943
-0.24709928 -0.049733136 0.43419197
-0.24629404 -0.049728684 0.43415311
-0.24549925 -0.049726326 0.43413252
-0.24471433 -0.049725953 0.43412927
-0.24393806 -0.049727343 0.4341414
-0.24317105 -0.049730632 0.43417013
-0.24241321 -0.049735829 0.43421549
-0.24166258 -0.049742538 0.43427408
-0.24092041 -0.049751043 0.43434832
-0.2401859 -0.049761191 0.43443692
-0.23945834 -0.049772844 0.43453866
-0.23873837 -0.049786162 0.43465492
-0.2380259 -0.049801137 0.43478566
-0.23732081 -0.04981776 0.43493077
-0.23662148 -0.049835704 0.43508744
-0.23592874 -0.049855158 0.43525729
-0.2352419 -0.049875997 0.43543923
-0.23456185 -0.049898416 0.43563494
-0.23388699 -0.049922094 0.43584168
-0.23321816 -0.049947228 0.43606111
-0.23255551 -0.049973857 0.43629357
-0.23189883 -0.050001953 0.43653888
-0.23124717 -0.05003133 0.43679535
-0.23060183 -0.05006228 0.43706554
-0.22996198 -0.050094634 0.43734801
-0.22932684 -0.050128244 0.43764144
-0.22869714 -0.050163273 0.43794727
-0.22807284 -0.05019974 0.43826565
-0.22745332 -0.050237518 0.43859544
-0.22684078 -0.050277099 0.43894103
-0.22623324 -0.050318077 0.43929878
-0.22563031 -0.05036037 0.439668
-0.22503237 -0.050404076 0.44004959
-0.2244398 -0.050449301 0.44044441
-0.2238529 -0.050496124 0.44085321
-0.22327231 -0.050544713 0.44127738
-0.22269537 -0.050594475 0.44171184
-0.2221249 -0.050646074 0.44216233
-0.2215603 -0.050699387 0.44262776
-0.22100151 -0.050754417 0.4431082
-0.22044815 -0.050811101 0.44360307
-0.21990031 -0.050869472 0.44411269
-0.21935837 -0.050929639 0.44463798
-0.21882254 -0.050991677 0.44517958
-0.21829259 -0.051055539 0.44573715
-0.21776937 -0.051121462 0.44631267
-0.21725243 -0.051189348 0.44690534
-0.21674286 -0.051259484 0.44751766
-0.21624011 -0.051331762 0.4481487
-0.21574494 -0.051406391 0.44880024
-0.21525732 -0.051483389 0.44947246
-0.21477811 -0.051562987 0.45016739
-0.21430649 -0.051645018 0.45088354
-0.21384436 -0.05172997 0.4516252
-0.2133909 -0.051817678 0.45239094
-0.2129482 -0.051908679 0.45318541
-0.21251532 -0.052002788 0.45400703
-0.21209438 -0.052100554 0.45486057
-0.21168536 -0.05220202 0.45574641
-0.21128936 -0.052307505 0.45666733
-0.21090947 -0.052417815 0.4576304
-0.21054524 -0.0525329 0.45863515
-0.21019775 -0.052653085 0.4596844
-0.20987275 -0.052779879 0.46079138
-0.20956986 -0.052913263 0.46195588
-0.20929089 -0.053053781 0.46318266
-0.20904972 -0.053205039 0.4645032
-0.20884147 -0.053365927 0.46590784
-0.20868076 -0.053540315 0.46743032
-0.20858274 -0.053732269 0.46910617
-0.20856062 -0.053945411 0.47096699
-0.20866583 -0.054193374 0.47313181
-0.2089745 -0.054496426 0.4757776
-0.20979403 -0.054935757 0.47961313
-0.25080711 -0.049062423 0.43518975
-0.24994542 -0.049047373 0.43505627
-0.24909718 -0.049034879 0.43494543
-0.2482612 -0.049024723 0.43485534
-0.24743877 -0.049017191 0.43478853
-0.24662694 -0.049011715 0.43473995
-0.24582624 -0.049008422 0.43471074
-0.24503553 -0.049007107 0.43469909
-0.24425435 -0.049007695 0.4347043
-0.24348229 -0.049010124 0.43472585
-0.24271938 -0.049014416 0.43476391
-0.24196571 -0.049020607 0.43481883
-0.24122033 -0.049028523 0.43488905
-0.24048197 -0.049037922 0.43497244
-0.2397517 -0.049049038 0.43507102
-0.23902905 -0.049061794 0.43518415
-0.23831348 -0.049076088 0.43531096
-0.23760469 -0.049091879 0.43545103
-0.23690301 -0.049109247 0.43560508
-0.23620778 -0.049128074 0.43577209
-0.23551846 -0.049148258 0.43595111
-0.23483591 -0.049169995 0.43614393
-0.23415862 -0.049192987 0.43634787
-0.23348852 -0.049217645 0.43656659
-0.23282458 -0.049243778 0.43679839
-0.23216659 -0.049271345 0.43704292
-0.23151399 -0.049300253 0.43729934
-0.23086734 -0.049330626 0.43756875
-0.23022611 -0.049362376 0.43785036
-0.22959006 -0.049395453 0.43814376
-0.22896023 -0.049430102 0.43845111
-0.2283342 -0.049465816 0.43876788
-0.22771487 -0.049503233 0.43909979
-0.22710115 -0.049542133 0.43944484
-0.22649381 -0.049582709 0.43980473
-0.22589049 -0.049624447 0.44017497
-0.22529285 -0.049667735 0.44055894
-0.22470134 -0.049712688 0.44095767
-0.22411454 -0.049759001 0.44136846
-0.22353342 -0.049806915 0.44179347
-0.22295773 -0.04985638 0.44223225
-0.22238711 -0.049907342 0.44268426
-0.22182237 -0.049959991 0.4431513
-0.22126417 -0.050014507 0.44363484
-0.22071181 -0.050070737 0.44413361
-0.22016513 -0.050128672 0.44464752
-0.21962561 -0.050188668 0.44517967
-0.21909142 -0.050250325 0.44572657
-0.21856391 -0.050313976 0.44629118
-0.21804231 -0.050379463 0.44687206
-0.21752807 -0.05044714 0.44747236
-0.21702094 -0.050516978 0.44809183
-0.21652105 -0.050589032 0.44873095
-0.21602926 -0.050663523 0.44939169
-0.21554551 -0.050740466 0.4500742
-0.21506961 -0.050819848 0.45077834
-0.2146028 -0.05090199 0.45150694
-0.21414511 -0.050986931 0.45226038
-0.21369672 -0.05107474 0.45303926
-0.21325922 -0.051165842 0.45384732
-0.21283416 -0.051260635 0.45468816
-0.21242093 -0.051359024 0.45556089
-0.21202125 -0.051461466 0.45646957
-0.21163362 -0.051567644 0.45741138
-0.21126314 -0.051678851 0.45839778
-0.21091105 -0.051795445 0.45943198
-0.2105772 -0.051917456 0.46051425
-0.21026425 -0.05204561 0.46165097
-0.20997983 -0.052181866 0.4628596
-0.20972246 -0.052325964 0.46413776
-0.2095024 -0.05248056 0.46550906
-0.20932496 -0.052647121 0.46698648
-0.20920251 -0.052828919 0.46859902
-0.20915276 -0.053030621 0.47038814
-0.20920572 -0.05326011 0.47242376
-0.20942087 -0.053532943 0.4748438
-0.2099741 -0.053894788 0.47805342
-0.25118932 -0.048350997 0.43585297
-0.2503196 -0.048334867 0.43570754
-0.2494632 -0.048321217 0.43558452
-0.24862053 -0.048310149 0.43548474
-0.24779002 -0.048301384 0.43540573
-0.24697125 -0.048294853 0.43534687
-0.24616413 -0.048290569 0.43530825
-0.24536823 -0.048288468 0.43528929
-0.24458155 -0.04828817 0.43528661
-0.24380521 -0.048289921 0.43530241
-0.2430383 -0.048293557 0.43533516
-0.24227948 -0.048298828 0.43538269
-0.24152921 -0.048305839 0.4354459
-0.24078776 -0.048314672 0.43552551
-0.24005361 -0.048325028 0.43561888
-0.23932756 -0.048337094 0.43572763
-0.23860875 -0.048350703 0.43585029
-0.23789692 -0.04836582 0.43598658
-0.23719189 -0.048382424 0.43613625
-0.23649412 -0.048400626 0.43630034
-0.23580256 -0.048420224 0.43647701
-0.23511797 -0.048441391 0.4366678
-0.23444009 -0.048464082 0.43687236
-0.23376824 -0.048488185 0.43708962
-0.23310232 -0.048513681 0.43731946
-0.23244242 -0.048540607 0.43756217
-0.2317878 -0.048568826 0.43781653
-0.23113991 -0.048598647 0.43808538
-0.23049714 -0.048629757 0.43836579
-0.22985952 -0.048662167 0.43865797
-0.22922817 -0.048696138 0.43896419
-0.2286025 -0.048731554 0.43928343
-0.22798304 -0.048768546 0.43961689
-0.22736838 -0.048806828 0.43996197
-0.22676045 -0.048846822 0.44032249
-0.22615644 -0.048887949 0.44069323
-0.22555847 -0.048930675 0.44107836
-0.22496714 -0.048975147 0.44147927
-0.22438051 -0.049020965 0.44189227
-0.22379968 -0.04906838 0.44231969
-0.22322485 -0.049117453 0.44276208
-0.22265527 -0.049168039 0.44321805
-0.22209136 -0.049220249 0.44368869
-0.22153425 -0.049274344 0.44417635
-0.22098225 -0.049329977 0.44467783
-0.22043705 -0.049387537 0.44519669
-0.21989796 -0.049446892 0.44573173
-0.2193647 -0.049507998 0.44628257
-0.21883877 -0.049571212 0.44685242
-0.21831948 -0.049636405 0.44744009
-0.21780816 -0.049703903 0.44804853
-0.21730427 -0.049773607 0.44867685
-0.21680716 -0.049845383 0.44932389
-0.21631899 -0.049919769 0.44999442
-0.21583757 -0.049996272 0.45068404
-0.2153661 -0.050075669 0.45139977
-0.21490499 -0.050158091 0.45214275
-0.2144527 -0.050243203 0.45290998
-0.21401098 -0.050331458 0.45370552
-0.2135798 -0.05042287 0.45452955
-0.21316078 -0.050517876 0.45538595
-0.21275581 -0.050616954 0.4562791
-0.21236382 -0.050719902 0.45720711
-0.21198849 -0.050827652 0.4581784
-0.21162912 -0.050940081 0.45919189
-0.21128908 -0.051058069 0.46025544
-0.21097188 -0.051182523 0.46137735
-0.21067819 -0.051313698 0.46255979
-0.21041276 -0.051452823 0.4638139
-0.21018307 -0.051601831 0.46515712
-0.20999049 -0.05176118 0.46659356
-0.20985046 -0.05193482 0.46815881
-0.20977893 -0.052126888 0.46989018
-0.20979808 -0.052343134 0.47183949
-0.20996059 -0.052597053 0.4741284
-0.2103859 -0.052919153 0.47703195
-0.2117715 -0.053486437 0.48214564
-0.2515901 -0.047640692 0.43654838
-0.25070903 -0.047622912 0.43638542
-0.24984379 -0.047608029 0.43624908
-0.24899228 -0.04759568 0.43613592
-0.2481539 -0.04758577 0.43604511
-0.2473284 -0.047578279 0.43597645
-0.24651438 -0.047572952 0.43592763
-0.24571154 -0.047569755 0.43589833
-0.24491963 -0.04756866 0.43588832
-0.24413782 -0.047569524 0.43589625
-0.24336578 -0.047572311 0.43592176
-0.24260302 -0.04757693 0.43596408
-0.24184835 -0.04758317 0.43602127
-0.24110208 -0.047591113 0.43609405
-0.24036488 -0.047600903 0.43618375
-0.23963529 -0.047612265 0.43628788
-0.23891315 -0.047625192 0.43640631
-0.23819833 -0.047639668 0.43653896
-0.23749073 -0.047655683 0.43668574
-0.23678987 -0.04767317 0.43684596
-0.23609678 -0.047692336 0.43702161
-0.23541006 -0.04771293 0.43721029
-0.23472969 -0.047734946 0.43741205
-0.23405555 -0.047758382 0.43762681
-0.23338746 -0.047783218 0.43785438
-0.23272574 -0.047809534 0.43809551
-0.23207055 -0.047837369 0.43835059
-0.23142108 -0.047866583 0.43861827
-0.2307774 -0.047897197 0.4388988
-0.23013878 -0.047929075 0.43919092
-0.22950608 -0.047962409 0.43949637
-0.22888 -0.047997367 0.43981668
-0.22825868 -0.048033565 0.44014841
-0.2276438 -0.048071377 0.44049489
-0.22703508 -0.048110761 0.44085577
-0.22643147 -0.048151508 0.44122916
-0.22583374 -0.048193797 0.44161665
-0.22524184 -0.048237633 0.44201833
-0.2246554 -0.048282955 0.44243366
-0.22407433 -0.048329756 0.44286251
-0.22349925 -0.048378192 0.44330633
-0.22293054 -0.048428357 0.44376603
-0.22236781 -0.048480187 0.44424096
-0.22181101 -0.048533693 0.44473124
-0.22126071 -0.048589014 0.44523817
-0.22071683 -0.048646152 0.44576174
-0.22017923 -0.048705094 0.44630185
-0.21964836 -0.048765969 0.44685966
-0.21912491 -0.048828941 0.44743669
-0.21860757 -0.048893746 0.44803053
-0.21809828 -0.048960838 0.44864532
-0.21759678 -0.049030188 0.4492808
-0.21710348 -0.049101908 0.449938
-0.21661803 -0.049175952 0.45061648
-0.21614137 -0.049252555 0.45131841
-0.21567401 -0.049331862 0.45204514
-0.21521622 -0.049413972 0.45279753
-0.21476786 -0.049498878 0.45357558
-0.21433263 -0.049587473 0.4543874
-0.21390846 -0.049679317 0.45522898
-0.21349855 -0.049775191 0.45610753
-0.21310061 -0.049874611 0.45701855
-0.21271871 -0.049978569 0.45797116
-0.21235397 -0.050087389 0.45896831
-0.21200839 -0.050201595 0.46001482
-0.21168303 -0.050321504 0.4611136
-0.21138231 -0.050448243 0.46227494
-0.21111065 -0.050582949 0.46350929
-0.21086906 -0.050725956 0.46481973
-0.21066937 -0.050880224 0.46623334
-0.21051975 -0.051047873 0.46776956
-0.21043055 -0.051231582 0.46945295
-0.21042824 -0.051438015 0.47134456
-0.21055578 -0.051677991 0.47354355
-0.21091034 -0.051975865 0.47627309
-0.21187629 -0.052427467 0.48041126
-0.25201035 -0.046931505 0.43727756
-0.25111827 -0.046912208 0.43709776
-0.2502422 -0.046895783 0.43694472
-0.24938145 -0.046882138 0.43681759
-0.24853538 -0.046871174 0.43671542
-0.24770209 -0.046862558 0.43663517
-0.24688135 -0.046856269 0.43657658
-0.24607153 -0.046852019 0.43653697
-0.24527326 -0.046849951 0.43651769
-0.24448617 -0.046850007 0.43651822
-0.24370936 -0.046852041 0.43653718
-0.24294077 -0.046855677 0.43657103
-0.24218272 -0.046861373 0.43662411
-0.24143259 -0.046868641 0.43669185
-0.2406905 -0.046877529 0.43677464
-0.23995721 -0.046888191 0.436874
-0.23923191 -0.046900492 0.43698859
-0.23851405 -0.046914335 0.43711758
-0.23780413 -0.046929836 0.43726203
-0.23710071 -0.04694673 0.43741941
-0.23640421 -0.046965111 0.43759069
-0.23571512 -0.04698509 0.43777683
-0.23503216 -0.047006432 0.43797567
-0.2343556 -0.047029201 0.43818784
-0.23368575 -0.047053475 0.43841401
-0.23302206 -0.047079161 0.43865332
-0.23236494 -0.047106352 0.43890667
-0.2317134 -0.047134865 0.43917233
-0.2310677 -0.047164764 0.43945092
-0.2304287 -0.047196239 0.43974417
-0.22979574 -0.047229178 0.44005108
-0.22916824 -0.047263466 0.44037056
-0.22854601 -0.047299087 0.44070247
-0.22793013 -0.047336277 0.44104895
-0.22732061 -0.047375049 0.44141021
-0.22671618 -0.04741516 0.44178393
-0.22611821 -0.047456905 0.44217291
-0.22552644 -0.04750026 0.44257686
-0.22493966 -0.047544971 0.44299346
-0.22435927 -0.047591362 0.44342569
-0.22378524 -0.047639433 0.44387358
-0.22321688 -0.047689062 0.444336
-0.22265512 -0.047740467 0.44481495
-0.22209966 -0.047793597 0.44531
-0.22155052 -0.047848478 0.44582134
-0.22100714 -0.047905009 0.44634804
-0.22047068 -0.047963455 0.44689262
-0.21994078 -0.048023768 0.44745457
-0.21941927 -0.04808636 0.44803774
-0.21890527 -0.048151065 0.44864064
-0.21839806 -0.048217755 0.44926202
-0.21789928 -0.048286803 0.44990537
-0.21740773 -0.048357982 0.45056856
-0.21692704 -0.048432115 0.45125929
-0.21645372 -0.048508458 0.45197061
-0.21599184 -0.048587956 0.45271131
-0.21553923 -0.04867015 0.45347714
-0.21509688 -0.048755292 0.45427045
-0.21466701 -0.048843928 0.45509627
-0.21424998 -0.048936177 0.4559558
-0.21384737 -0.049032442 0.45685273
-0.21346042 -0.049133055 0.4577902
-0.21308701 -0.049237583 0.45876411
-0.21273607 -0.049348135 0.45979416
-0.21240366 -0.049463864 0.46087247
-0.21209615 -0.04958633 0.46201351
-0.21181385 -0.049715675 0.46321869
-0.21156572 -0.0498541 0.46450841
-0.21135578 -0.050002661 0.46589261
-0.21119076 -0.050163075 0.46738726
-0.21109028 -0.050340168 0.46903729
-0.21107018 -0.050537929 0.47087991
-0.21116897 -0.050765872 0.47300375
-0.21147476 -0.05104563 0.47561035
-0.21227573 -0.051447682 0.47935641
-0.25245517 -0.046224188 0.43804941
-0.25154978 -0.046203021 0.43784881
-0.25066304 -0.046185158 0.43767953
-0.24979325 -0.046170317 0.43753889
-0.24893796 -0.046158072 0.43742284
-0.24809645 -0.046148304 0.43733031
-0.24726765 -0.046140853 0.43725967
-0.24645042 -0.046135519 0.43720913
-0.24564576 -0.046132509 0.43718061
-0.24485214 -0.046131562 0.43717164
-0.24406886 -0.046132561 0.43718112
-0.24329567 -0.046135485 0.4372088
-0.24253236 -0.046140302 0.43725446
-0.24177769 -0.046146803 0.43731606
-0.2410318 -0.046155024 0.43739399
-0.24029405 -0.046164867 0.43748724
-0.23956501 -0.046176452 0.43759704
-0.23884365 -0.046189599 0.43772161
-0.2381296 -0.04620425 0.43786049
-0.23742308 -0.046220466 0.43801415
-0.23672424 -0.046238292 0.43818307
-0.23603226 -0.046257578 0.43836585
-0.2353469 -0.046278298 0.43856218
-0.2346682 -0.046300471 0.43877232
-0.23399645 -0.046324171 0.43899691
-0.23333047 -0.046349179 0.4392339
-0.23267154 -0.046375759 0.43948579
-0.23201919 -0.046403836 0.43975189
-0.23137231 -0.046433207 0.44003022
-0.2307322 -0.046464145 0.44032338
-0.23009776 -0.046496436 0.44062942
-0.22946897 -0.046530101 0.44094846
-0.22884682 -0.046565354 0.44128251
-0.22822958 -0.046601851 0.4416284
-0.22761944 -0.046640061 0.44199049
-0.22701481 -0.046679672 0.44236585
-0.22641674 -0.046720915 0.44275671
-0.22582395 -0.046763543 0.44316068
-0.22523764 -0.046807822 0.4435803
-0.22465782 -0.04685377 0.44401571
-0.22408307 -0.046901107 0.44446433
-0.22351582 -0.046950363 0.44493109
-0.22295338 -0.047000982 0.44541082
-0.22239968 -0.047053821 0.44591153
-0.2218509 -0.047108088 0.4464258
-0.22130932 -0.04716428 0.44695833
-0.22077514 -0.047222469 0.44750977
-0.22024785 -0.047282565 0.44807926
-0.21972819 -0.047344748 0.44866854
-0.2192152 -0.047408834 0.44927585
-0.21871087 -0.047475275 0.44990548
-0.21821594 -0.047544256 0.4505592
-0.21772832 -0.047615349 0.45123294
-0.2172503 -0.047689091 0.45193174
-0.21678169 -0.047765456 0.45265543
-0.21632363 -0.047844734 0.45340672
-0.215876 -0.047926929 0.45418566
-0.21544099 -0.048012562 0.45499718
-0.21501857 -0.048101667 0.4558416
-0.2146087 -0.048194274 0.45671919
-0.2142152 -0.048291288 0.45763856
-0.21383728 -0.048392579 0.45859843
-0.21347608 -0.048498448 0.45960173
-0.21313849 -0.048610535 0.46066391
-0.21282241 -0.048728418 0.46178105
-0.21253276 -0.048853308 0.46296459
-0.21227309 -0.048986096 0.464223
-0.21205315 -0.049129147 0.46557862
-0.21187805 -0.049283762 0.46704385
-0.21176146 -0.049453277 0.46865028
-0.21172146 -0.049642108 0.47043976
-0.21180101 -0.0498606 0.47251034
-0.2120655 -0.050124574 0.47501191
-0.2127519 -0.050490815 0.47848266
-0.25292733 -0.045519002 0.43886867
-0.2520074 -0.045495838 0.43864533
-0.25110981 -0.045476578 0.43845963
-0.25022799 -0.04546006 0.43830037
-0.24936128 -0.045446191 0.43816665
-0.2485099 -0.045435037 0.43805912
-0.24767143 -0.045426179 0.43797371
-0.24684776 -0.045419987 0.43791401
-0.24603552 -0.045415867 0.43787429
-0.24523489 -0.04541387 0.43785504
-0.24444565 -0.045413975 0.43785605
-0.24366623 -0.045415912 0.4378747
-0.24289721 -0.045419805 0.43791226
-0.24213764 -0.045425497 0.43796712
-0.24138647 -0.045432806 0.4380376
-0.24064447 -0.045441892 0.43812522
-0.23991102 -0.045452662 0.43822905
-0.23918511 -0.045464937 0.4383474
-0.23846847 -0.045479059 0.43848357
-0.23775928 -0.045494705 0.4386344
-0.23705666 -0.045511711 0.43879837
-0.23636153 -0.045530278 0.43897739
-0.23567404 -0.045550447 0.43917182
-0.23499341 -0.045572076 0.43938038
-0.23431972 -0.045595206 0.43960339
-0.23365159 -0.045619581 0.43983838
-0.23299122 -0.045645639 0.44008961
-0.23233619 -0.045672927 0.44035271
-0.23168857 -0.045701861 0.44063169
-0.23104668 -0.045732129 0.44092351
-0.23041102 -0.045763846 0.44122931
-0.2297814 -0.045796987 0.44154882
-0.22915857 -0.045831714 0.44188365
-0.22854137 -0.045867816 0.44223171
-0.22793011 -0.045905367 0.44259375
-0.22732575 -0.045944571 0.44297177
-0.22672695 -0.045985181 0.44336331
-0.22613388 -0.046027251 0.44376892
-0.22554873 -0.046071231 0.44419295
-0.22496887 -0.046116613 0.44463047
-0.22439525 -0.046163604 0.44508353
-0.22382893 -0.046212435 0.44555435
-0.22326805 -0.046262749 0.44603944
-0.22271512 -0.046315081 0.44654399
-0.22216834 -0.046369076 0.44706458
-0.22162816 -0.046424843 0.44760227
-0.22109541 -0.046482582 0.44815895
-0.22056982 -0.046542253 0.44873428
-0.22005266 -0.046604153 0.44933107
-0.21954341 -0.046668194 0.44994852
-0.2190413 -0.046734229 0.45058519
-0.21854798 -0.04680264 0.45124477
-0.21806477 -0.046873733 0.45193022
-0.21759135 -0.046947476 0.45264119
-0.21712773 -0.047023896 0.45337799
-0.21667533 -0.047103334 0.45414388
-0.21623313 -0.0471856 0.45493704
-0.21580467 -0.047271498 0.45576525
-0.21538903 -0.047360878 0.45662698
-0.2149875 -0.047454055 0.45752534
-0.21460263 -0.047551643 0.45846623
-0.21423735 -0.047654342 0.45945641
-0.21388932 -0.047761694 0.46049142
-0.21356626 -0.047875479 0.46158847
-0.2132664 -0.047995374 0.46274444
-0.21300209 -0.048124243 0.46398693
-0.21276943 -0.048261311 0.46530846
-0.21258216 -0.048409801 0.4667401
-0.21245247 -0.048572633 0.46831006
-0.21239622 -0.048753623 0.47005504
-0.21244764 -0.048960879 0.47205332
-0.21267574 -0.049210683 0.47446176
-0.21327388 -0.049548477 0.47771859
-0.25342834 -0.044815965 0.43973798
-0.25249213 -0.044790599 0.4394891
-0.25157794 -0.044768985 0.43927702
-0.25068331 -0.044750735 0.43909794
-0.24980579 -0.044735428 0.43894774
-0.24894232 -0.044722546 0.43882135
-0.24809605 -0.044712685 0.43872461
-0.24726246 -0.044705052 0.43864971
-0.24644242 -0.044699829 0.43859845
-0.24563375 -0.04469664 0.43856716
-0.24483597 -0.044695418 0.43855518
-0.24405046 -0.044696435 0.43856516
-0.24327537 -0.044699378 0.43859401
-0.24251015 -0.044704154 0.43864089
-0.24175474 -0.044710778 0.43870589
-0.24100797 -0.044719048 0.43878704
-0.24026956 -0.044728931 0.43888399
-0.23954013 -0.044740554 0.43899804
-0.23881885 -0.044753782 0.43912783
-0.23810625 -0.044768732 0.43927452
-0.23740032 -0.044785034 0.4394345
-0.23670197 -0.044802886 0.43960965
-0.23601104 -0.044822264 0.43979982
-0.23532811 -0.044843301 0.4400062
-0.23465182 -0.044865746 0.44022644
-0.23398189 -0.044889566 0.44046015
-0.23331898 -0.044914898 0.44070873
-0.23266289 -0.04494172 0.44097191
-0.23201369 -0.044970062 0.44125
-0.23137003 -0.044999678 0.4415406
-0.23073418 -0.045031022 0.44184816
-0.23010419 -0.045063734 0.4421691
-0.22947982 -0.045097776 0.44250312
-0.22886324 -0.045133587 0.44285452
-0.2282521 -0.045170732 0.44321898
-0.22764674 -0.045209285 0.44359726
-0.22704808 -0.045249444 0.4439913
-0.22645634 -0.045291267 0.44440171
-0.22587059 -0.045334596 0.44482684
-0.22529137 -0.045379546 0.44526789
-0.22471912 -0.045426227 0.44572592
-0.22415289 -0.045474466 0.44619924
-0.22359362 -0.045524467 0.44668987
-0.2230411 -0.045576211 0.44719759
-0.22249591 -0.045629837 0.44772375
-0.22195831 -0.045685407 0.44826904
-0.22142826 -0.045742951 0.44883364
-0.22090483 -0.045802284 0.44941583
-0.22039101 -0.045864057 0.45002195
-0.21988441 -0.045927797 0.45064738
-0.21938653 -0.045993838 0.45129538
-0.21889821 -0.046062376 0.4519679
-0.21841902 -0.046133362 0.45266441
-0.2179506 -0.046207163 0.45338854
-0.21749224 -0.046283659 0.45413911
-0.21704596 -0.046363313 0.45492071
-0.2166103 -0.04644585 0.45573056
-0.21618889 -0.046532087 0.4565767
-0.21578383 -0.046622511 0.45746398
-0.21539253 -0.046716616 0.45838732
-0.21501921 -0.046815358 0.45935619
-0.21466477 -0.046918992 0.46037307
-0.2143331 -0.047028426 0.46144685
-0.21402813 -0.047144599 0.46258673
-0.21375163 -0.047267973 0.4637973
-0.21350807 -0.047399633 0.46508914
-0.21331009 -0.047542486 0.46649083
-0.21316691 -0.047698732 0.46802396
-0.21309653 -0.047872581 0.46972975
-0.21312651 -0.048070453 0.47167128
-0.21332282 -0.048307572 0.47399792
-0.21385065 -0.048621979 0.47708291
-0.25395647 -0.044114504 0.44065437
-0.25300315 -0.044086892 0.44037858
-0.25207105 -0.044062812 0.44013804
-0.25116113 -0.044042472 0.43993488
-0.25026914 -0.044025157 0.43976191
-0.24939334 -0.044010591 0.43961641
-0.24853581 -0.043999165 0.43950227
-0.24769208 -0.043990113 0.43941185
-0.24686088 -0.04398324 0.43934318
-0.24604452 -0.04397897 0.43930057
-0.24524018 -0.043976836 0.43927923
-0.24444689 -0.043976668 0.43927756
-0.24366535 -0.043978624 0.43929711
-0.24289401 -0.043982439 0.4393352
-0.24213187 -0.043987952 0.43939027
-0.24137972 -0.043995317 0.43946385
-0.24063711 -0.044004481 0.43955538
-0.23990306 -0.044015273 0.43966317
-0.23917805 -0.044027802 0.43978831
-0.23846158 -0.044041991 0.43993005
-0.23775265 -0.044057667 0.44008666
-0.23705098 -0.044074807 0.44025785
-0.23635779 -0.044093639 0.44044596
-0.23567155 -0.044113901 0.44064835
-0.23499221 -0.044135593 0.44086504
-0.23432116 -0.044158995 0.44109881
-0.23365574 -0.044183623 0.4413448
-0.23299772 -0.044209823 0.44160652
-0.23234726 -0.044237643 0.44188443
-0.23170258 -0.04426676 0.44217524
-0.23106463 -0.044297364 0.44248095
-0.23043461 -0.04432971 0.44280404
-0.22980961 -0.044363245 0.44313905
-0.22919177 -0.044398405 0.44349024
-0.22858112 -0.044435207 0.44385785
-0.22797629 -0.044473406 0.44423941
-0.2273774 -0.044513036 0.44463527
-0.22678584 -0.044554386 0.4450483
-0.22620082 -0.044597317 0.44547716
-0.22562239 -0.044641864 0.44592211
-0.225051 -0.044688124 0.44638419
-0.22448623 -0.044736035 0.44686279
-0.2239286 -0.044785719 0.44735909
-0.2233782 -0.044837214 0.44787344
-0.22283448 -0.04489043 0.44840503
-0.22230016 -0.044945933 0.44895944
-0.22177236 -0.045003165 0.44953111
-0.22125264 -0.045062464 0.45012343
-0.22074173 -0.045124002 0.45073813
-0.2202388 -0.04518763 0.4513737
-0.21974564 -0.045253739 0.45203406
-0.21926241 -0.045322396 0.45271987
-0.21878903 -0.045393609 0.45343122
-0.21832585 -0.045467485 0.45416915
-0.21787357 -0.045544192 0.45493537
-0.21743406 -0.045624159 0.45573416
-0.21700861 -0.045707695 0.45656857
-0.21659671 -0.045794733 0.45743799
-0.21620074 -0.045885816 0.4583478
-0.21582213 -0.045981299 0.45930156
-0.21546218 -0.046081506 0.46030253
-0.2151254 -0.046187464 0.46136093
-0.21481261 -0.046299417 0.4624792
-0.21452804 -0.04641835 0.46366721
-0.21427937 -0.046546005 0.46494237
-0.21407244 -0.046683773 0.46631849
-0.21391593 -0.046833664 0.46781576
-0.21383189 -0.047000673 0.46948397
-0.213843 -0.047190007 0.4713752
-0.21401212 -0.047415856 0.4736312
-0.21448962 -0.047712121 0.47659054
-0.25451428 -0.043414798 0.44162226
-0.25353825 -0.043384098 0.44130996
-0.25258631 -0.043357331 0.44103771
-0.25165948 -0.04333473 0.44080782
-0.25075093 -0.043315135 0.44060847
-0.24986205 -0.043298826 0.44044259
-0.24899107 -0.04328553 0.44030732
-0.24813505 -0.043274753 0.44019771
-0.24729332 -0.043266408 0.44011283
-0.24646775 -0.043260846 0.44005623
-0.24565479 -0.043257467 0.44002187
-0.24485408 -0.043256231 0.4400093
-0.24406387 -0.043256849 0.44001558
-0.24328479 -0.043259449 0.44004202
-0.24251778 -0.043264221 0.44009057
-0.24176002 -0.043270674 0.44015622
-0.24101201 -0.043278929 0.44024017
-0.24027325 -0.043288901 0.44034162
-0.23954384 -0.043300629 0.44046092
-0.23882234 -0.043313868 0.4405956
-0.23810944 -0.043328762 0.44074711
-0.23740539 -0.043345373 0.44091606
-0.23670872 -0.043363448 0.44109991
-0.23602021 -0.04338314 0.44130024
-0.23533888 -0.043404292 0.44151542
-0.23466469 -0.043426912 0.44174549
-0.23399802 -0.043451078 0.44199133
-0.23333773 -0.043476604 0.44225097
-0.23268564 -0.043503832 0.44252795
-0.23203994 -0.043532453 0.44281906
-0.23140089 -0.043562517 0.44312489
-0.23076899 -0.043594141 0.44344658
-0.23014444 -0.043627381 0.44378468
-0.2295265 -0.043662108 0.44413796
-0.22891462 -0.043698236 0.44450545
-0.22831048 -0.0437361 0.44489062
-0.22771293 -0.043775503 0.4452914
-0.22712177 -0.043816414 0.44570756
-0.22653714 -0.043858878 0.44613951
-0.22596017 -0.043903135 0.44658971
-0.22538912 -0.043948863 0.44705486
-0.22482587 -0.043996446 0.44753888
-0.22427095 -0.044046007 0.44804302
-0.22372304 -0.044097308 0.44856486
-0.22318283 -0.044150505 0.44910601
-0.22264993 -0.044205543 0.44966584
-0.22212553 -0.044262674 0.45024699
-0.22161022 -0.044322044 0.4508509
-0.22110273 -0.044383422 0.45147526
-0.22060613 -0.044447448 0.45212653
-0.22011805 -0.044513669 0.45280015
-0.2196385 -0.044582114 0.4534964
-0.2191727 -0.044653878 0.45422637
-0.21871601 -0.044728037 0.45498076
-0.2182716 -0.044805281 0.45576647
-0.21784274 -0.044886313 0.45659074
-0.21742626 -0.044970516 0.45744726
-0.21702467 -0.045058455 0.45834181
-0.21664245 -0.045151103 0.45928425
-0.21627855 -0.045248296 0.46027291
-0.21593662 -0.04535085 0.46131611
-0.21561883 -0.045459289 0.46241915
-0.21533035 -0.045574773 0.46359387
-0.21507417 -0.045698021 0.46484756
-0.21485929 -0.04583104 0.46620068
-0.21469939 -0.045976885 0.46768421
-0.21460293 -0.046137515 0.46931818
-0.21460724 -0.046321165 0.47118631
-0.21475543 -0.046537459 0.47338647
-0.21519887 -0.046819713 0.47625762
-0.25510451 -0.042717032 0.44264641
-0.25409874 -0.042682204 0.44228554
-0.25312564 -0.042652667 0.44197947
-0.2521756 -0.042626839 0.44171184
-0.25124979 -0.042604957 0.44148508
-0.25034463 -0.042586446 0.44129327
-0.24945912 -0.042571172 0.44113499
-0.24859063 -0.042558715 0.44100592
-0.24773923 -0.042549115 0.44090641
-0.24690203 -0.042541899 0.44083163
-0.2460788 -0.042537048 0.44078138
-0.24526897 -0.042534489 0.44075486
-0.24447139 -0.042534046 0.44075027
-0.2436859 -0.042535711 0.44076753
-0.24291156 -0.04253934 0.44080514
-0.24214746 -0.042544793 0.44086164
-0.24139468 -0.042552277 0.44093919
-0.24065134 -0.042561479 0.44103453
-0.23991686 -0.042572312 0.44114679
-0.23919176 -0.042584889 0.44127712
-0.23847491 -0.042599022 0.44142359
-0.2377663 -0.042614728 0.44158635
-0.23706625 -0.042632084 0.44176617
-0.23637487 -0.042651113 0.44196337
-0.23569025 -0.042671502 0.44217461
-0.23501468 -0.042693667 0.44240433
-0.23434532 -0.042717118 0.44264734
-0.23368412 -0.042742223 0.44290748
-0.23303047 -0.042768884 0.44318375
-0.23238274 -0.042796824 0.44347325
-0.23174216 -0.042826273 0.4437784
-0.2311095 -0.042857394 0.44410092
-0.23048386 -0.042890042 0.4444392
-0.22986548 -0.04292427 0.44479388
-0.22925395 -0.042960022 0.44516435
-0.22864969 -0.042997394 0.44555163
-0.22805169 -0.043036211 0.44595385
-0.22746062 -0.043076612 0.44637251
-0.22687751 -0.043118816 0.44680983
-0.22630203 -0.043162774 0.44726536
-0.22573364 -0.043208405 0.4477382
-0.22517291 -0.043255836 0.44822967
-0.22461906 -0.043304935 0.44873846
-0.22407229 -0.043355759 0.44926512
-0.22353569 -0.043408927 0.44981605
-0.22300614 -0.043463856 0.45038524
-0.22248644 -0.043521114 0.45097855
-0.22197518 -0.043580446 0.4515934
-0.2214728 -0.04364197 0.4522309
-0.22098035 -0.04370591 0.45289347
-0.22049834 -0.043772396 0.45358244
-0.22002691 -0.043841489 0.45429838
-0.21956587 -0.043913174 0.4550412
-0.21911964 -0.043988369 0.45582041
-0.2186857 -0.044066612 0.45663115
-0.21826562 -0.044148248 0.45747709
-0.21786144 -0.044233728 0.45836288
-0.21747492 -0.044323459 0.45929271
-0.21710743 -0.044417772 0.46027002
-0.21676125 -0.044517186 0.46130013
-0.2164395 -0.044622403 0.46239042
-0.21614963 -0.044735029 0.46355751
-0.2158896 -0.044854734 0.46479791
-0.21567236 -0.044984292 0.46614045
-0.21550791 -0.045125924 0.46760806
-0.21540681 -0.045281984 0.4692252
-0.21540497 -0.04546022 0.47107217
-0.21555035 -0.045671064 0.47325698
-0.21598823 -0.045945805 0.47610393
-0.25573003 -0.042021364 0.44373178
-0.25469553 -0.041982781 0.44332436
-0.25369409 -0.041949417 0.44297203
-0.25272164 -0.041920651 0.44266826
-0.25177562 -0.041896101 0.44240904
-0.25085247 -0.04187521 0.44218844
-0.24995339 -0.041858222 0.44200906
-0.24907185 -0.04184407 0.4418596
-0.24820729 -0.041832689 0.44173941
-0.24735911 -0.041824006 0.44164771
-0.24652632 -0.041817874 0.44158298
-0.2457075 -0.041814081 0.44154292
-0.24490233 -0.041812595 0.44152722
-0.24410914 -0.041813146 0.44153306
-0.24332702 -0.041815609 0.44155908
-0.24255691 -0.041820157 0.44160709
-0.24179856 -0.04182677 0.44167691
-0.24105026 -0.04183517 0.44176561
-0.24031043 -0.041845102 0.44187048
-0.23958018 -0.041856769 0.44199371
-0.23886037 -0.041870348 0.44213709
-0.23814848 -0.04188541 0.44229615
-0.23744494 -0.041902047 0.44247183
-0.23674954 -0.041920241 0.44266394
-0.23606221 -0.041939989 0.44287246
-0.23538364 -0.041961432 0.4430989
-0.2347122 -0.041984294 0.44334033
-0.23404856 -0.042008717 0.44359821
-0.233392 -0.042034581 0.44387132
-0.23274378 -0.04206213 0.44416225
-0.23210199 -0.042091034 0.44446746
-0.23146784 -0.04212153 0.4447895
-0.2308414 -0.042153645 0.44512862
-0.23022154 -0.042187195 0.44548288
-0.22960903 -0.042222325 0.44585386
-0.22900462 -0.042259201 0.44624326
-0.22840658 -0.042297516 0.44664782
-0.22781619 -0.042337522 0.4470703
-0.22723408 -0.042379357 0.44751206
-0.22665925 -0.042422853 0.44797137
-0.22609062 -0.042467829 0.44844627
-0.22553094 -0.042514808 0.44894239
-0.22497834 -0.042563472 0.44945624
-0.22443585 -0.042614404 0.44999406
-0.22390041 -0.042667046 0.45054996
-0.22337365 -0.042721737 0.45112747
-0.2228564 -0.042778652 0.45172846
-0.22235012 -0.042838097 0.45235619
-0.2218526 -0.042899676 0.45300645
-0.22136441 -0.04296352 0.4536806
-0.22088884 -0.043030292 0.45438573
-0.22042453 -0.043099768 0.45511937
-0.21997271 -0.043172214 0.45588437
-0.21953584 -0.043248147 0.4566862
-0.21911195 -0.043327224 0.4575212
-0.21870376 -0.043410007 0.45839539
-0.21831405 -0.043497108 0.45931512
-0.21794568 -0.043589134 0.46028692
-0.21759498 -0.043685418 0.46130362
-0.21727175 -0.043787971 0.46238655
-0.21697845 -0.043897372 0.46354181
-0.2167182 -0.044014335 0.46477687
-0.21649863 -0.044140499 0.46610913
-0.21633177 -0.044278432 0.46756566
-0.21623132 -0.04443109 0.46917769
-0.21623467 -0.044606365 0.47102854
-0.21638671 -0.044813816 0.47321913
-0.21684077 -0.045085706 0.47609019
-0.25642106 -0.041332345 0.44493082
-0.25534895 -0.041288763 0.44446167
-0.25431702 -0.041251425 0.44405973
-0.25331923 -0.041219402 0.44371504
-0.2523517 -0.041192118 0.4434213
-0.25141004 -0.041168891 0.44317129
-0.25049159 -0.041149333 0.44296077
-0.24959664 -0.041133527 0.4427906
-0.24871804 -0.041120317 0.44264841
-0.24786085 -0.041110575 0.44254354
-0.24701686 -0.041102968 0.44246164
-0.24618772 -0.041097786 0.44240588
-0.24537411 -0.041095175 0.44237778
-0.244573 -0.04109465 0.44237208
-0.24378403 -0.041096162 0.44238839
-0.24300723 -0.041099746 0.44242695
-0.24224207 -0.041105326 0.44248703
-0.24148731 -0.041112714 0.44256657
-0.24074405 -0.04112212 0.44266781
-0.24000899 -0.04113299 0.44278482
-0.23928322 -0.041145526 0.44291979
-0.23856784 -0.041159946 0.443075
-0.23785993 -0.041175753 0.44324517
-0.2371622 -0.041193433 0.44343549
-0.23647104 -0.041212384 0.44363946
-0.23578922 -0.041233089 0.44386238
-0.23511502 -0.041255277 0.44410121
-0.23444867 -0.041278999 0.44435656
-0.23379026 -0.041304283 0.44462875
-0.23313926 -0.041331057 0.44491696
-0.23249499 -0.041359212 0.44522005
-0.23185988 -0.041389197 0.44554284
-0.23123108 -0.041420523 0.44588006
-0.23060979 -0.041453417 0.44623414
-0.22999707 -0.041488089 0.44660735
-0.22939116 -0.041524235 0.44699645
-0.22879314 -0.041562069 0.44740376
-0.22820264 -0.041601546 0.44782868
-0.22761947 -0.041642636 0.44827104
-0.22704546 -0.041685708 0.44873467
-0.22647689 -0.041730091 0.44921243
-0.22591834 -0.041776638 0.44971353
-0.22536841 -0.041825127 0.45023549
-0.22482605 -0.041875377 0.4507764
-0.22429183 -0.041927509 0.45133761
-0.22376807 -0.041981988 0.45192406
-0.22325544 -0.042038959 0.45253733
-0.22275048 -0.042097799 0.45317072
-0.22225805 -0.042159446 0.45383433
-0.22177519 -0.042223372 0.45452249
-0.22130348 -0.042289905 0.45523867
-0.22084671 -0.042359799 0.45599106
-0.22040413 -0.042432945 0.45677847
-0.21997488 -0.042509213 0.45759949
-0.2195605 -0.042588949 0.4584578
-0.21916755 -0.042673454 0.45936748
-0.21879201 -0.042762004 0.46032071
-0.21843892 -0.042855635 0.46132863
-0.21811229 -0.042955194 0.46240032
-0.21781494 -0.043061301 0.46354255
-0.21755263 -0.043175183 0.46476847
-0.21733339 -0.043298528 0.46609622
-0.21717033 -0.043434065 0.46755525
-0.21707471 -0.043584201 0.4691714
-0.2170825 -0.043756355 0.4710246
-0.21725176 -0.043962538 0.4732441
-0.21776426 -0.044240076 0.47623172
-0.25721946 -0.040655974 0.44631621
-0.256098 -0.040605806 0.4457655
-0.25502697 -0.040563345 0.44529936
-0.25400111 -0.040527824 0.44490942
-0.25300723 -0.040497195 0.44457316
-0.25204313 -0.040471151 0.44428727
-0.25110421 -0.040449005 0.44404414
-0.25019225 -0.040431067 0.44384724
-0.2493024 -0.040416602 0.44368842
-0.24842913 -0.040404737 0.44355819
-0.24757549 -0.040396001 0.44346228
-0.24673645 -0.040389597 0.44339198
-0.24591231 -0.0403856 0.44334808
-0.24510114 -0.040383711 0.44332737
-0.24430528 -0.040384341 0.44333428
-0.24352257 -0.040387157 0.44336519
-0.24275059 -0.040391777 0.44341591
-0.24198951 -0.040398248 0.44348693
-0.24124029 -0.040406749 0.44358027
-0.24050045 -0.040416881 0.44369149
-0.23976998 -0.040428661 0.4438208
-0.23904949 -0.04044221 0.44396955
-0.23833759 -0.040457305 0.44413525
-0.23763408 -0.040473931 0.44431779
-0.23694074 -0.040492412 0.44452065
-0.23625527 -0.040512364 0.4447397
-0.2355773 -0.040533744 0.44497439
-0.23490849 -0.040556852 0.44522807
-0.23424706 -0.040581394 0.44549748
-0.2335934 -0.04060746 0.44578364
-0.23294733 -0.040635027 0.44608626
-0.23230791 -0.04066395 0.44640377
-0.23167847 -0.040694825 0.44674274
-0.2310549 -0.040726956 0.44709545
-0.23043935 -0.040760726 0.44746616
-0.2298312 -0.040796049 0.44785395
-0.22923271 -0.040833339 0.44826332
-0.22864041 -0.040872004 0.44868776
-0.22805761 -0.040912643 0.4491339
-0.22748283 -0.040955018 0.44959909
-0.22691558 -0.040999059 0.45008257
-0.22635682 -0.041044954 0.45058638
-0.22580676 -0.041092761 0.45111123
-0.22526467 -0.041142371 0.45165583
-0.22473116 -0.041193914 0.45222166
-0.22420976 -0.041248061 0.45281607
-0.22369912 -0.041304592 0.45343667
-0.22319759 -0.041363224 0.45408031
-0.22270797 -0.041424502 0.45475304
-0.22222935 -0.04148829 0.45545328
-0.22176272 -0.041554797 0.45618337
-0.22131416 -0.041625194 0.45695621
-0.22087871 -0.041698597 0.457762
-0.22045769 -0.041775282 0.45860386
-0.22005486 -0.04185601 0.45949006
-0.21967183 -0.041941125 0.46042445
-0.21931536 -0.042031977 0.46142182
-0.21898223 -0.042128008 0.46247604
-0.21867751 -0.042230263 0.46359858
-0.21841235 -0.042340975 0.46481395
-0.21818991 -0.042460851 0.46612993
-0.21802115 -0.042592138 0.4675712
-0.21792978 -0.042739626 0.4691903
-0.2179437 -0.042908993 0.47104958
-0.2181375 -0.04311524 0.47331375
-0.21873802 -0.043403812 0.47648165
-0.25818324 -0.040000223 0.44798851
-0.25699905 -0.039941765 0.44733384
-0.25587541 -0.039892387 0.4467808
-0.25480971 -0.039851755 0.44632572
-0.2537846 -0.039817236 0.44593912
-0.25279322 -0.039787803 0.44560951
-0.25183237 -0.039763007 0.44533178
-0.25089997 -0.039742555 0.44510275
-0.24999103 -0.039725702 0.44491398
-0.24910422 -0.039712265 0.44476351
-0.24823524 -0.0397016 0.44464403
-0.24738257 -0.039693475 0.44455305
-0.24654625 -0.039687935 0.444491
-0.2457272 -0.039685141 0.44445974
-0.24492197 -0.039684571 0.44445336
-0.24412975 -0.039686117 0.44447064
-0.243349 -0.039689541 0.444509
-0.24258128 -0.039695118 0.44457147
-0.24182403 -0.039702453 0.4446536
-0.24107674 -0.039711475 0.44475466
-0.24034107 -0.03972248 0.44487789
-0.23961428 -0.03973503 0.44501847
-0.23889697 -0.039749242 0.44517764
-0.23818964 -0.039765216 0.44535655
-0.23749045 -0.039782662 0.44555193
-0.2368003 -0.039801747 0.44576567
-0.23611906 -0.039822467 0.44599771
-0.2354459 -0.039844692 0.44624662
-0.23478094 -0.039868463 0.44651285
-0.23412447 -0.039893843 0.4467971
-0.23347551 -0.03992068 0.44709769
-0.23283534 -0.03994922 0.44741729
-0.23220259 -0.039979227 0.4477534
-0.23157699 -0.040010683 0.44810569
-0.23096004 -0.040043861 0.44847724
-0.23035201 -0.040078823 0.44886881
-0.22974882 -0.040114872 0.44927257
-0.22915664 -0.040153112 0.44970083
-0.22857165 -0.040192883 0.45014626
-0.22799712 -0.040234786 0.45061556
-0.22742841 -0.040278021 0.45109975
-0.2268693 -0.040323269 0.45160654
-0.22632059 -0.040370699 0.45213774
-0.22577915 -0.040419772 0.45268735
-0.22524774 -0.04047101 0.45326117
-0.224727 -0.040524542 0.45386073
-0.22421767 -0.04058053 0.45448774
-0.22371855 -0.040638782 0.45514017
-0.22323266 -0.040699877 0.4558244
-0.22275738 -0.040763367 0.45653546
-0.22229776 -0.040830199 0.45728397
-0.22185186 -0.040900063 0.4580664
-0.22142459 -0.040973898 0.45889333
-0.22101471 -0.041051511 0.4597626
-0.22062007 -0.041132554 0.46067026
-0.22025493 -0.04121973 0.46164659
-0.21991406 -0.041312128 0.46268141
-0.21960256 -0.041410767 0.46378613
-0.219328 -0.041517157 0.46497765
-0.21909989 -0.041633185 0.46627712
-0.21892464 -0.041760191 0.46769956
-0.21883255 -0.041904107 0.46931136
-0.21885042 -0.042070277 0.47117239
-0.21906562 -0.042275824 0.47347444
-0.21976952 -0.042577658 0.47685489
-0.259426 -0.039380785 0.45014489
-0.25813541 -0.039307907 0.44931182
-0.25693616 -0.039248515 0.44863296
-0.25580755 -0.039199576 0.44807357
-0.2547349 -0.039158929 0.44760895
-0.25370252 -0.039124239 0.4472124
-0.25270823 -0.039095212 0.44688061
-0.25174814 -0.039071314 0.44660744
-0.25081298 -0.039051138 0.4463768
-0.24990202 -0.039034616 0.44618797
-0.24901062 -0.039021052 0.44603291
-0.24814081 -0.039010793 0.44591564
-0.24729155 -0.039003707 0.44583467
-0.24645597 -0.038998742 0.44577789
-0.24563661 -0.03899632 0.44575021
-0.24483097 -0.038996067 0.44574732
-0.24404174 -0.038998432 0.44577438
-0.24326232 -0.039002389 0.44581959
-0.24249502 -0.039008319 0.44588739
-0.24174048 -0.039016351 0.44597918
-0.24099573 -0.039026022 0.44608971
-0.24026078 -0.039037347 0.44621918
-0.23953781 -0.039050702 0.44637182
-0.23882391 -0.039065629 0.44654247
-0.23811984 -0.039082274 0.44673273
-0.23742376 -0.039100349 0.44693932
-0.23673806 -0.039120257 0.44716689
-0.23606259 -0.039142001 0.44741544
-0.23539211 -0.039164722 0.44767517
-0.23473321 -0.039189536 0.4479588
-0.23408142 -0.039215714 0.44825801
-0.23343886 -0.03924362 0.44857702
-0.232804 -0.039273024 0.4489131
-0.23217669 -0.03930391 0.44926614
-0.23155981 -0.039336782 0.44964188
-0.23094888 -0.039370898 0.45003188
-0.23034684 -0.03940678 0.45044202
-0.22975457 -0.039444592 0.45087421
-0.22916926 -0.039483868 0.45132318
-0.2285932 -0.039525028 0.45179364
-0.22802457 -0.039567769 0.45228222
-0.2274693 -0.039613143 0.45280087
-0.22692129 -0.039660115 0.45333779
-0.22638358 -0.039709236 0.45389926
-0.22585502 -0.039760321 0.45448318
-0.22533752 -0.039813731 0.45509371
-0.22482908 -0.039869141 0.45572707
-0.22433573 -0.039927643 0.45639578
-0.22385432 -0.039988711 0.45709381
-0.22338839 -0.040053003 0.4578287
-0.22293478 -0.040119987 0.45859438
-0.22249612 -0.040190175 0.45939666
-0.22207867 -0.040264733 0.46024889
-0.22167997 -0.040343259 0.4611465
-0.22130196 -0.040426157 0.4620941
-0.2209532 -0.040515047 0.46311015
-0.22063453 -0.040610153 0.46419725
-0.2203519 -0.04071264 0.46536872
-0.2201152 -0.040824424 0.46664649
-0.21993686 -0.040947936 0.46805832
-0.2198438 -0.041088343 0.46966323
-0.21986642 -0.041251536 0.47152862
-0.22011746 -0.041459017 0.47390026
-0.22103082 -0.041793354 0.4777219
-0.26121214 -0.038834356 0.45324412
-0.25965875 -0.038724616 0.45196334
-0.25830808 -0.038644515 0.45102844
-0.25706241 -0.038579665 0.45027158
-0.25590593 -0.038527831 0.44966662
-0.25480801 -0.038484514 0.44916105
-0.25375691 -0.038448017 0.44873506
-0.25275099 -0.038418151 0.44838649
-0.2517769 -0.038392946 0.44809231
-0.25083128 -0.038371935 0.4478471
-0.24991161 -0.038354769 0.44764677
-0.24901319 -0.038340766 0.44748333
-0.24814068 -0.038330674 0.44736552
-0.24728578 -0.038323246 0.44727883
-0.24644653 -0.038318202 0.44721997
-0.24562393 -0.038315721 0.447191
-0.24481745 -0.038315743 0.4471913
-0.24402438 -0.038317878 0.44721618
-0.24324392 -0.038322013 0.44726443
-0.24247794 -0.038328458 0.44733968
-0.24172315 -0.038336728 0.44743618
-0.2409796 -0.038346834 0.44755417
-0.24024872 -0.038359039 0.4476966
-0.23952714 -0.038372815 0.44785735
-0.23881586 -0.038388334 0.44803852
-0.23811321 -0.038405359 0.44823718
-0.23742349 -0.038424585 0.44846159
-0.2367405 -0.038445037 0.44870031
-0.23606814 -0.038467366 0.4489609
-0.23540395 -0.038491178 0.44923884
-0.23475105 -0.038517009 0.44954032
-0.23410513 -0.038544174 0.44985732
-0.23346905 -0.038573146 0.45019549
-0.232842 -0.038603824 0.45055351
-0.23222212 -0.038635906 0.45092794
-0.23161362 -0.038670111 0.4513272
-0.23101188 -0.038705692 0.45174247
-0.23041952 -0.038743105 0.4521791
-0.22983772 -0.038782563 0.45263964
-0.22926387 -0.038823649 0.45311916
-0.22870067 -0.03886684 0.45362324
-0.22814614 -0.038911819 0.4541482
-0.22760069 -0.038958676 0.45469511
-0.22706956 -0.039008334 0.45527464
-0.22654764 -0.039059941 0.45587695
-0.22603837 -0.039114106 0.45650914
-0.22553922 -0.039170433 0.45716652
-0.225053 -0.039229423 0.45785502
-0.22458142 -0.039291408 0.45857847
-0.22412609 -0.039356705 0.45934057
-0.2236875 -0.03942544 0.46014279
-0.22326399 -0.039497353 0.46098211
-0.22286232 -0.039573684 0.46187297
-0.22248556 -0.039655026 0.46282232
-0.22213176 -0.039741088 0.46382678
-0.22181146 -0.039833814 0.46490902
-0.22153193 -0.039934598 0.46608528
-0.22129355 -0.040043596 0.46735743
-0.22112362 -0.040165856 0.46878436
-0.2210366 -0.040304177 0.47039872
-0.22109073 -0.040469401 0.47232708
-0.22142109 -0.040686663 0.47486278
-0.26218379 -0.038278006 0.4563584
-0.26025566 -0.038116183 0.45442909
-0.25873637 -0.038013399 0.45320368
-0.25739521 -0.037936218 0.45228353
-0.25617352 -0.037876211 0.4515681
-0.25502521 -0.037826702 0.45097786
-0.25393873 -0.037786085 0.4504936
-0.25290206 -0.037752636 0.45009482
-0.25190157 -0.037724387 0.44975802
-0.25093549 -0.037701134 0.4494808
-0.2499994 -0.037682243 0.44925559
-0.24909106 -0.037667427 0.44907895
-0.24820614 -0.037656069 0.44894353
-0.24733962 -0.037647437 0.44884062
-0.24649388 -0.03764192 0.44877484
-0.24566607 -0.037639119 0.44874144
-0.24485484 -0.037638843 0.44873816
-0.24405633 -0.037640527 0.44875824
-0.24327607 -0.037645049 0.44881216
-0.24250847 -0.037651565 0.44888982
-0.24175249 -0.037659936 0.44898963
-0.24100988 -0.037670452 0.44911498
-0.2402781 -0.037682738 0.44926146
-0.23955992 -0.037697244 0.44943443
-0.23885168 -0.037713423 0.44962731
-0.23815265 -0.037731171 0.44983888
-0.23746625 -0.037751045 0.45007583
-0.23678851 -0.037772439 0.45033091
-0.23612268 -0.037795883 0.45061043
-0.2354635 -0.037820563 0.45090464
-0.23481791 -0.037847601 0.45122701
-0.23417822 -0.037875783 0.45156297
-0.23355299 -0.037906509 0.4519293
-0.23293242 -0.037938204 0.45230719
-0.23232335 -0.037972007 0.45271018
-0.23172687 -0.038008112 0.45314065
-0.23113783 -0.038045697 0.45358872
-0.23055847 -0.038085148 0.45405906
-0.22999075 -0.038126808 0.45455578
-0.22943473 -0.038170714 0.45507923
-0.2288866 -0.038216256 0.45562217
-0.22835043 -0.038264126 0.45619291
-0.2278264 -0.038314387 0.45679212
-0.22731535 -0.038367201 0.45742178
-0.22681685 -0.038422529 0.45808139
-0.22633183 -0.03848055 0.45877314
-0.22586189 -0.03854157 0.45950064
-0.22540918 -0.038605992 0.46026871
-0.22497356 -0.038673829 0.46107745
-0.2245581 -0.038745645 0.46193367
-0.22416237 -0.038821418 0.46283704
-0.22379093 -0.038901977 0.46379748
-0.22344989 -0.038988441 0.46482834
-0.22314386 -0.039081693 0.46594012
-0.22287969 -0.039183009 0.46714801
-0.22266777 -0.03929431 0.46847498
-0.22253028 -0.039419647 0.46996927
-0.22249779 -0.039564617 0.47169763
-0.22265293 -0.039744187 0.47383851
-0.22332844 -0.040018391 0.47710761
-0.26180294 -0.037636757 0.45857513
-0.25960273 -0.037438747 0.45616248
