# .PCD v0.7 - Point Cloud Data file format
VERSION 0.7
FIELDS x y z
SIZE 4 4 4
TYPE F F F
COUNT 1 1 1
WIDTH 1325
HEIGHT 1
VIEWPOINT 0 0 0 1 0 0 0
POINTS 1325
DATA ascii
-0.16376908 -0.016806852 0.43336874
-0.16239598 -0.016745869 0.43179628
-0.16119407 -0.016702037 0.43066606
-0.1600824 -0.016667174 0.42976713
-0.15902652 -0.016637811 0.42901
-0.15800607 -0.016611885 0.42834151
-0.15700856 -0.016588127 0.42772889
-0.15602942 -0.016566087 0.42716056
-0.15506515 -0.016545413 0.42662749
-0.1541138 -0.016525919 0.42612481
-0.15317351 -0.016507421 0.42564783
-0.15224291 -0.016489787 0.42519316
-0.15132038 -0.016472852 0.42475647
-0.15040529 -0.016456557 0.42433634
-0.14949672 -0.016440814 0.42393041
-0.14859222 -0.016425362 0.42353192
-0.14769067 -0.016410073 0.42313772
-0.14678946 -0.016394667 0.42274046
-0.1458867 -0.016378924 0.42233455
-0.14497764 -0.016362308 0.42190605
-0.14405634 -0.016344123 0.42143714
-0.14310795 -0.016322657 0.42088369
-0.14211833 -0.016296236 0.4202024
-0.14110711 -0.016267041 0.41944957
-0.14013097 -0.016241595 0.41879347
-0.13920288 -0.016221475 0.41827464
-0.13833284 -0.016207935 0.41792554
-0.1374881 -0.016197229 0.41764945
-0.13667879 -0.0161906 0.41747856
-0.13589254 -0.016186645 0.41737658
-0.13512574 -0.016184976 0.41733354
-0.13438769 -0.016186751 0.41737932
-0.13365702 -0.016189443 0.4174487
-0.13295555 -0.016195718 0.41761053
-0.13225856 -0.016202616 0.41778839
-0.13158707 -0.016212733 0.41804928
-0.13092352 -0.016223952 0.41833854
-0.13027655 -0.016237367 0.41868442
-0.12964879 -0.016253347 0.41909647
-0.12902887 -0.016270503 0.41953886
-0.1284152 -0.016288653 0.42000687
-0.12780014 -0.016306842 0.42047587
-0.12717509 -0.016323967 0.42091745
-0.12653695 -0.016339606 0.42132071
-0.12588675 -0.016353868 0.42168847
-0.12522766 -0.016367141 0.42203069
-0.12456303 -0.016379848 0.42235836
-0.12389438 -0.016392179 0.42267632
-0.12322255 -0.016404239 0.42298731
-0.12254889 -0.016416207 0.42329589
-0.12187347 -0.016428085 0.42360216
-0.12119746 -0.016440034 0.42391026
-0.12052096 -0.016452067 0.42422053
-0.11984441 -0.016464248 0.42453462
-0.11916868 -0.016476698 0.42485568
-0.11849337 -0.016489368 0.42518237
-0.11781897 -0.01650233 0.42551661
-0.1171453 -0.016515568 0.4258579
-0.11647271 -0.01652913 0.42620763
-0.11580169 -0.0165431 0.42656782
-0.11513156 -0.016557381 0.42693609
-0.11446322 -0.016572116 0.42731601
-0.11379675 -0.016587323 0.42770815
-0.11313197 -0.016602986 0.428112
-0.11247005 -0.016619287 0.42853233
-0.11180976 -0.016636055 0.4289647
-0.11115354 -0.016653666 0.42941883
-0.11050138 -0.016672138 0.4298951
-0.10985509 -0.016691763 0.43040115
-0.10921513 -0.016712636 0.43093938
-0.10858393 -0.016735157 0.43152007
-0.10796136 -0.016759345 0.43214378
-0.10734933 -0.016785532 0.43281901
-0.10674762 -0.016813727 0.43354604
-0.106159 -0.016844418 0.43433738
-0.1055817 -0.016877372 0.43518713
-0.10501975 -0.016913293 0.43611336
-0.10447013 -0.016951757 0.43710515
-0.10393767 -0.01699361 0.43818438
-0.10342085 -0.017038684 0.43934661
-0.10292596 -0.017088093 0.44062063
-0.10245409 -0.017142124 0.44201383
-0.10201276 -0.017202152 0.44356164
-0.10161451 -0.01727045 0.44532275
-0.10128015 -0.017350784 0.44739416
-0.10105739 -0.017451677 0.44999573
-0.16534023 -0.016102018 0.43544781
-0.16365477 -0.016013952 0.43306625
-0.16232005 -0.015959525 0.43159437
-0.16113394 -0.015919257 0.43050542
-0.160032 -0.015886955 0.42963186
-0.15898271 -0.015859589 0.42889181
-0.15796492 -0.015835114 0.4282299
-0.15696913 -0.015812615 0.42762148
-0.15599045 -0.015791627 0.42705387
-0.15502666 -0.015771942 0.42652157
-0.15407574 -0.015753381 0.42601961
-0.15313512 -0.01573569 0.42554116
-0.15220356 -0.015718756 0.42508325
-0.15128022 -0.015702505 0.42464375
-0.15036385 -0.015686814 0.42421943
-0.14945278 -0.015671518 0.4238058
-0.14854506 -0.015656419 0.42339748
-0.14763875 -0.015641315 0.42298901
-0.1467306 -0.015625855 0.42257094
-0.14581689 -0.015609642 0.42213246
-0.14489174 -0.015592025 0.42165604
-0.14394049 -0.015571399 0.42109826
-0.14293644 -0.015544811 0.42037925
-0.14188801 -0.015513089 0.41952136
-0.14086229 -0.015483523 0.41872182
-0.13991554 -0.015462365 0.41814965
-0.13900638 -0.015445152 0.41768417
-0.13815048 -0.015433704 0.41737458
-0.13731068 -0.01542394 0.41711053
-0.13650805 -0.015418265 0.41695705
-0.13572836 -0.015415133 0.41687235
-0.13496391 -0.015413707 0.41683379
-0.13423148 -0.01541594 0.4168942
-0.13351019 -0.015419486 0.41699007
-0.13280788 -0.015425277 0.41714668
-0.13212107 -0.015432945 0.41735405
-0.131448 -0.015442315 0.41760746
-0.13078479 -0.015452959 0.41789529
-0.13014284 -0.01546625 0.41825473
-0.12950803 -0.015480552 0.41864148
-0.12889034 -0.015497078 0.41908839
-0.12828706 -0.015515544 0.41958779
-0.12768628 -0.015534531 0.42010126
-0.12707944 -0.015553007 0.42060089
-0.12645929 -0.015570062 0.42106211
-0.12582333 -0.015585368 0.42147601
-0.12517485 -0.015599296 0.42185271
-0.12451751 -0.015612287 0.42220399
-0.12385444 -0.015624713 0.42254004
-0.12318689 -0.015636725 0.42286491
-0.12251622 -0.01564849 0.42318302
-0.12184373 -0.015660167 0.42349881
-0.1211696 -0.015671778 0.42381284
-0.12049498 -0.015683474 0.4241291
-0.11981981 -0.015695246 0.42444748
-0.11914495 -0.015707212 0.42477107
-0.11847077 -0.015719423 0.42510128
-0.11779693 -0.015731838 0.425437
-0.11712397 -0.015744533 0.42578036
-0.1164521 -0.015757544 0.4261322
-0.11578126 -0.015770869 0.42649257
-0.11511181 -0.015784563 0.42686287
-0.11444372 -0.015798628 0.42724323
-0.11377715 -0.015813094 0.42763445
-0.11311287 -0.01582808 0.42803973
-0.11245 -0.01584347 0.42845589
-0.11179046 -0.015859546 0.42889065
-0.1111332 -0.01587617 0.42934021
-0.11048078 -0.015893726 0.42981496
-0.10983308 -0.015912212 0.4303149
-0.10919263 -0.015932022 0.4308506
-0.10855918 -0.01595314 0.43142173
-0.10793524 -0.015975975 0.43203923
-0.1073207 -0.016000541 0.43270355
-0.10671785 -0.016027223 0.43342513
-0.10612605 -0.01605597 0.43420255
-0.1055475 -0.016087165 0.43504614
-0.10498212 -0.016120851 0.4359571
-0.10443148 -0.016157323 0.43694344
-0.10389502 -0.016196564 0.43800461
-0.10337582 -0.016239114 0.43915531
-0.10287728 -0.016285593 0.44041225
-0.10239986 -0.016336164 0.44177985
-0.10195258 -0.016392376 0.44330001
-0.10154593 -0.01645606 0.4450222
-0.10119796 -0.016530342 0.44703105
-0.10095112 -0.016622473 0.44952253
-0.16517787 -0.015301513 0.43502021
-0.16356507 -0.015224434 0.43282887
-0.16225673 -0.015175089 0.43142602
-0.16108517 -0.015138125 0.43037513
-0.15999243 -0.015108244 0.42952561
-0.15894724 -0.015082585 0.42879611
-0.1579317 -0.015059502 0.42813987
-0.1569369 -0.01503818 0.42753369
-0.15595964 -0.015018335 0.4269695
-0.15499598 -0.01499961 0.42643717
-0.15404497 -0.014981929 0.42593449
-0.15310393 -0.014965046 0.4254545
-0.15217149 -0.014948837 0.42499369
-0.15124696 -0.014933244 0.42455038
-0.15032899 -0.014918145 0.42412111
-0.1494153 -0.014903316 0.42369953
-0.148504 -0.014888576 0.42328048
-0.14759231 -0.014873642 0.42285591
-0.14667648 -0.014858138 0.42241511
-0.14575018 -0.014841403 0.42193934
-0.14480306 -0.01482236 0.42139795
-0.1438068 -0.014798061 0.42070714
-0.14273594 -0.014765787 0.41978958
-0.14166708 -0.014733376 0.41886815
-0.14066908 -0.014708026 0.41814747
-0.13973656 -0.014689289 0.41761476
-0.13884582 -0.014674762 0.41720176
-0.13798781 -0.014663555 0.41688314
-0.13715231 -0.014654631 0.41662943
-0.13635328 -0.014649527 0.41648433
-0.13557716 -0.014646839 0.41640791
-0.13481963 -0.014646144 0.41638815
-0.13408706 -0.014648165 0.41644561
-0.13337767 -0.014652759 0.41657621
-0.1326768 -0.014658343 0.41673496
-0.13199852 -0.014666502 0.41696694
-0.13132519 -0.014675308 0.41721728
-0.13067317 -0.01468661 0.41753858
-0.13002373 -0.014698335 0.41787195
-0.12939098 -0.014712095 0.41826314
-0.1287763 -0.01472808 0.41871759
-0.12817119 -0.014745359 0.41920882
-0.12757696 -0.014764099 0.4197416
-0.12698491 -0.014783318 0.420288
-0.12638186 -0.014801479 0.42080432
-0.12576224 -0.014817907 0.42127135
-0.12512518 -0.014832469 0.42168534
-0.1244759 -0.01484575 0.42206293
-0.12381839 -0.014858207 0.42241707
-0.12315538 -0.014870154 0.42275673
-0.12248795 -0.014881713 0.42308536
-0.12181801 -0.014893111 0.4234094
-0.12114613 -0.014904413 0.42373073
-0.12047289 -0.014915691 0.42405134
-0.11979912 -0.014927047 0.42437419
-0.11912533 -0.014938546 0.42470112
-0.11845178 -0.014950225 0.42503315
-0.11777882 -0.01496213 0.42537162
-0.11710664 -0.014974291 0.42571735
-0.11643526 -0.014986717 0.4260706
-0.11576478 -0.014999424 0.42643186
-0.11509536 -0.015012438 0.42680186
-0.11442786 -0.01502588 0.42718402
-0.11376157 -0.015039665 0.42757592
-0.11309702 -0.015053869 0.42797974
-0.11243474 -0.015068574 0.42839777
-0.11177447 -0.015083753 0.42882931
-0.11111735 -0.01509957 0.429279
-0.11046403 -0.015116131 0.42974982
-0.10981589 -0.015133639 0.43024758
-0.10917366 -0.015152215 0.4307757
-0.10853958 -0.015172199 0.43134385
-0.10791393 -0.015193658 0.43195391
-0.10729767 -0.015216759 0.43261069
-0.10669278 -0.015241826 0.43332332
-0.10609943 -0.015268921 0.43409362
-0.10551913 -0.015298313 0.43492922
-0.10495105 -0.015329929 0.43582809
-0.10439868 -0.015364335 0.43680623
-0.10385939 -0.015401202 0.43785438
-0.10333888 -0.015441443 0.4389984
-0.10283561 -0.015484898 0.44023386
-0.1023557 -0.015532577 0.44158936
-0.10190483 -0.015585445 0.44309238
-0.1014914 -0.015644919 0.44478321
-0.10113183 -0.01571371 0.44673896
-0.1008655 -0.015798211 0.44914126
-0.16506155 -0.014506597 0.43471387
-0.16349943 -0.014437897 0.43265516
-0.16221158 -0.014392874 0.43130597
-0.16104968 -0.014358647 0.4302803
-0.1599624 -0.014330772 0.42944497
-0.15892033 -0.014306697 0.42872354
-0.15790685 -0.014284972 0.42807251
-0.15691258 -0.01426478 0.42746744
-0.1559359 -0.014245996 0.42690453
-0.15497255 -0.01422825 0.42637274
-0.15402086 -0.0142114 0.42586783
-0.15307929 -0.014195322 0.42538601
-0.15214616 -0.01417987 0.42492294
-0.15122072 -0.01416498 0.42447674
-0.15030095 -0.014150471 0.42404199
-0.14938487 -0.014136164 0.42361325
-0.14846951 -0.014121778 0.42318216
-0.147552 -0.014107038 0.42274043
-0.14662829 -0.014091549 0.42227629
-0.14568798 -0.014074297 0.42175928
-0.14471173 -0.014053371 0.42113221
-0.14365597 -0.014024463 0.42026591
-0.14254111 -0.013989447 0.4192166
-0.14148255 -0.013959611 0.41832253
-0.14051749 -0.013938732 0.41769686
-0.13958643 -0.013921019 0.41716605
-0.1387042 -0.013908009 0.41677621
-0.13783997 -0.013896674 0.41643652
-0.13701019 -0.013888704 0.41619769
-0.13620953 -0.013883617 0.41604525
-0.1354353 -0.01388118 0.41597223
-0.13468577 -0.013881262 0.41597471
-0.13395806 -0.013883607 0.41604498
-0.13325174 -0.01388821 0.41618291
-0.13256529 -0.013894945 0.41638473
-0.13188551 -0.013902462 0.41660997
-0.13122661 -0.013912277 0.41690412
-0.13056825 -0.013922264 0.41720337
-0.12992902 -0.013934417 0.41756755
-0.12929875 -0.013947679 0.41796497
-0.12867595 -0.013961907 0.41839135
-0.12807016 -0.013978158 0.41887835
-0.12748146 -0.01399648 0.41942739
-0.12689771 -0.014015567 0.41999936
-0.12630862 -0.014034291 0.42056045
-0.1257036 -0.01405146 0.42107493
-0.12507923 -0.014066662 0.42153049
-0.12443863 -0.014080212 0.42193654
-0.12378699 -0.014092672 0.42230994
-0.12312808 -0.014104455 0.42266303
-0.12246435 -0.014115828 0.42300385
-0.12179678 -0.0141269 0.42333561
-0.12112676 -0.014137823 0.42366296
-0.1204554 -0.014148729 0.42398977
-0.11978284 -0.014159633 0.42431653
-0.11910985 -0.014170625 0.42464593
-0.11843713 -0.014181792 0.42498055
-0.11776496 -0.014193172 0.42532158
-0.11709326 -0.014204756 0.42566872
-0.11642212 -0.014216563 0.42602253
-0.11575201 -0.014228652 0.42638481
-0.11508317 -0.014241062 0.42675668
-0.11441537 -0.014253767 0.4271374
-0.11374954 -0.014266891 0.42753071
-0.11308508 -0.014280369 0.42793456
-0.11242264 -0.014294287 0.42835167
-0.11176252 -0.014308696 0.42878345
-0.11110524 -0.014323672 0.42923224
-0.11045124 -0.014339284 0.42970008
-0.10980256 -0.014355811 0.43019533
-0.10915945 -0.014373309 0.43071967
-0.10852443 -0.014392129 0.43128365
-0.10789715 -0.014412255 0.43188676
-0.10728005 -0.014434043 0.43253967
-0.10667314 -0.014457531 0.43324354
-0.10607869 -0.014483069 0.43400881
-0.1054958 -0.014510575 0.43483308
-0.10492745 -0.014540508 0.43573007
-0.10437217 -0.014572717 0.43669528
-0.10383239 -0.014607599 0.43774056
-0.10330822 -0.014645225 0.43886811
-0.10280332 -0.014686189 0.44009563
-0.10232045 -0.014730959 0.44143724
-0.10186482 -0.014780386 0.44291842
-0.10144559 -0.014835916 0.44458246
-0.10107978 -0.014900207 0.44650903
-0.10079597 -0.014977715 0.44883168
-0.16497752 -0.01371547 0.43449256
-0.16345137 -0.013653455 0.43252799
-0.16217728 -0.013612002 0.43121478
-0.16102566 -0.013580477 0.4302161
-0.15994176 -0.013554386 0.42938957
-0.15890245 -0.013531839 0.42867529
-0.15788952 -0.013511328 0.42802551
-0.15689565 -0.013492255 0.4274213
-0.15591925 -0.013474504 0.42685896
-0.15495598 -0.013457716 0.42632714
-0.15400407 -0.013441751 0.42582139
-0.15306197 -0.013426488 0.42533788
-0.15212809 -0.013411796 0.42487243
-0.15120123 -0.013397577 0.42442203
-0.15027997 -0.013383713 0.4239828
-0.14936104 -0.013369915 0.42354569
-0.14844248 -0.013356008 0.42310512
-0.1475196 -0.013341567 0.42264766
-0.14658631 -0.013326028 0.42215541
-0.14563064 -0.013308283 0.42159325
-0.14461704 -0.01328503 0.42085662
-0.14349993 -0.013251972 0.4198094
-0.14237946 -0.013218252 0.41874117
-0.14135268 -0.013192916 0.41793856
-0.1403839 -0.013172752 0.41729978
-0.13946877 -0.013157432 0.41681445
-0.13857195 -0.013143681 0.41637883
-0.13771084 -0.013133186 0.41604635
-0.13687828 -0.013125315 0.41579702
-0.13607532 -0.01312021 0.41563529
-0.13530254 -0.013117975 0.41556448
-0.13455878 -0.013118544 0.41558251
-0.13384041 -0.01312161 0.41567963
-0.13314198 -0.013126675 0.41584009
-0.13245954 -0.013133381 0.41605255
-0.13179377 -0.013141829 0.41632015
-0.13113318 -0.013150893 0.41660729
-0.13049005 -0.01316182 0.41695347
-0.12984857 -0.013173044 0.41730902
-0.12921605 -0.013185311 0.41769764
-0.1286002 -0.013199433 0.418145
-0.12799549 -0.013214874 0.41863415
-0.12740208 -0.01323167 0.41916624
-0.12682123 -0.013249979 0.41974625
-0.12624231 -0.013268711 0.42033964
-0.12565042 -0.013286298 0.4208968
-0.12503853 -0.013301972 0.42139333
-0.12440638 -0.013315667 0.4218272
-0.12376069 -0.013328074 0.42222023
-0.12310617 -0.013339678 0.42258781
-0.12244532 -0.013350735 0.42293811
-0.12178021 -0.013361465 0.423278
-0.12111207 -0.013371996 0.42361161
-0.12044206 -0.013382452 0.42394283
-0.11977068 -0.013392887 0.42427343
-0.11909869 -0.01340339 0.42460614
-0.11842645 -0.013413999 0.42494226
-0.11775493 -0.013424829 0.42528531
-0.11708356 -0.013435818 0.42563346
-0.11641306 -0.013447053 0.42598936
-0.11574325 -0.013458517 0.42635253
-0.11507463 -0.013470273 0.42672497
-0.1144073 -0.013482342 0.42710727
-0.11374132 -0.013494733 0.4274998
-0.11307702 -0.013507494 0.42790407
-0.1124147 -0.013520668 0.42832142
-0.11175448 -0.01353428 0.4287526
-0.11109675 -0.013548384 0.42919943
-0.11044255 -0.01356312 0.42966625
-0.109793 -0.01357864 0.4301579
-0.10914966 -0.013595153 0.43068102
-0.10851316 -0.013612762 0.43123886
-0.10788545 -0.013631735 0.43183991
-0.10726697 -0.01365216 0.43248695
-0.10665926 -0.013674265 0.43318719
-0.10606263 -0.013698126 0.43394309
-0.10547907 -0.013724043 0.43476412
-0.10490876 -0.013752084 0.43565243
-0.10435137 -0.013782257 0.43660828
-0.10381105 -0.013815158 0.43765056
-0.10328441 -0.0138504 0.43876699
-0.10277828 -0.013888957 0.43998843
-0.10229313 -0.013930971 0.44131941
-0.10183461 -0.013977299 0.44278705
-0.10141024 -0.014029085 0.44442755
-0.10103727 -0.014088863 0.44632125
-0.10074577 -0.014161053 0.44860816
-0.16752255 -0.013069135 0.43910924
-0.16492467 -0.012927586 0.43435335
-0.1634209 -0.012870859 0.43244737
-0.16215828 -0.01283267 0.43116426
-0.1610103 -0.012803229 0.43017507
-0.15993139 -0.012779022 0.42936173
-0.15889221 -0.012757769 0.42864767
-0.15788022 -0.012738502 0.4280003
-0.15688746 -0.012720604 0.42739898
-0.15591046 -0.012703815 0.42683488
-0.15494683 -0.012687955 0.42630199
-0.1539948 -0.012672888 0.42579576
-0.153052 -0.012658436 0.42531019
-0.15211749 -0.012644527 0.42484286
-0.15118937 -0.012631011 0.42438874
-0.15026629 -0.012617781 0.42394421
-0.14934544 -0.012604604 0.42350146
-0.14842311 -0.012591164 0.4230499
-0.14749514 -0.012577104 0.42257753
-0.14655328 -0.01256171 0.42206028
-0.14558031 -0.012543472 0.42144755
-0.14452538 -0.012517947 0.42058989
-0.14336699 -0.012483141 0.41942048
-0.14225304 -0.012451857 0.41836935
-0.14124514 -0.012429572 0.4176206
-0.14029007 -0.012411722 0.41702086
-0.13935778 -0.012395704 0.41648269
-0.13846436 -0.012382993 0.41605556
-0.13759457 -0.012372264 0.4156951
-0.13675503 -0.012364154 0.41542262
-0.13594919 -0.012359018 0.41525003
-0.13517842 -0.01235703 0.41518328
-0.13444081 -0.012358069 0.41521817
-0.13373104 -0.012361692 0.41533992
-0.13304323 -0.012367399 0.41553167
-0.13237207 -0.012374726 0.41577783
-0.13171139 -0.012383123 0.41605994
-0.13106246 -0.012392725 0.41638258
-0.13041693 -0.012402763 0.41671982
-0.12978576 -0.012414291 0.41710716
-0.12916028 -0.012426499 0.41751736
-0.12853897 -0.012439255 0.41794592
-0.12792963 -0.012453327 0.41841874
-0.12733784 -0.012469285 0.41895491
-0.12676032 -0.012486837 0.41954464
-0.12618776 -0.012505093 0.420158
-0.12560545 -0.012522597 0.42074615
-0.12500371 -0.012538365 0.42127594
-0.12438052 -0.012552163 0.42173952
-0.12374075 -0.012564445 0.42215219
-0.12308973 -0.012575732 0.4225314
-0.12243177 -0.012586444 0.42289132
-0.12176871 -0.012596763 0.42323804
-0.12110231 -0.012606865 0.42357746
-0.12043341 -0.012616834 0.42391241
-0.11976308 -0.012626779 0.42424655
-0.11909156 -0.012636724 0.42458069
-0.11842012 -0.012646809 0.42491955
-0.11774889 -0.012657047 0.42526352
-0.11707802 -0.012667458 0.42561331
-0.11640783 -0.012678079 0.4259702
-0.11573843 -0.01268893 0.42633477
-0.11506986 -0.012700018 0.4267073
-0.11440277 -0.012711419 0.42709035
-0.11373661 -0.012723079 0.42748213
-0.11307249 -0.012735127 0.42788693
-0.11241013 -0.01274754 0.42830399
-0.11174992 -0.012760371 0.42873511
-0.11109212 -0.012773658 0.42918155
-0.11043783 -0.012787538 0.42964786
-0.10978779 -0.01280211 0.43013749
-0.109144 -0.012817623 0.4306587
-0.10850666 -0.012834122 0.43121305
-0.10787831 -0.012851927 0.4318113
-0.10725829 -0.012870994 0.43245193
-0.10664994 -0.012891751 0.43314931
-0.10605253 -0.012914146 0.43390179
-0.10546766 -0.012938412 0.43471709
-0.10489612 -0.012964689 0.43559998
-0.10433815 -0.012993053 0.43655294
-0.1037955 -0.01302377 0.43758503
-0.10326873 -0.013056966 0.43870035
-0.10276076 -0.01309307 0.43991345
-0.10227378 -0.013132432 0.44123593
-0.10181135 -0.013175586 0.4426859
-0.10138644 -0.013224318 0.44432321
-0.10100783 -0.013279915 0.44619122
-0.10070807 -0.013346853 0.44844028
-0.16734439 -0.01226401 0.43864226
-0.16490069 -0.012142331 0.43429023
-0.16340953 -0.012089965 0.43241727
-0.16215186 -0.012054455 0.43114719
-0.16100644 -0.012026987 0.43016475
-0.15992899 -0.012004355 0.42935529
-0.15889086 -0.011984469 0.42864403
-0.15787901 -0.011966379 0.42799702
-0.15688623 -0.011949565 0.42739564
-0.15590894 -0.011933771 0.42683074
-0.15494525 -0.011918865 0.42629761
-0.15399261 -0.011904665 0.42578971
-0.15304883 -0.011891012 0.42530137
-0.15211387 -0.011877909 0.42483273
-0.15118504 -0.011865155 0.42437655
-0.15026031 -0.011852595 0.42392734
-0.14933744 -0.011840053 0.42347875
-0.14841229 -0.0118272 0.42301905
-0.14747961 -0.011813613 0.42253307
-0.14653073 -0.011798578 0.42199534
-0.14554015 -0.011780011 0.42133129
-0.14444678 -0.011752888 0.42036113
-0.14326429 -0.011718187 0.41912004
-0.14217824 -0.011691049 0.41814938
-0.14116962 -0.011670022 0.41739732
-0.14020437 -0.011652374 0.41676611
-0.13927928 -0.011637892 0.41624811
-0.13837084 -0.011624651 0.41577455
-0.1374926 -0.011613816 0.41538703
-0.13664307 -0.011605302 0.41508248
-0.13583109 -0.0115999 0.41488931
-0.13506153 -0.011598082 0.41482428
-0.13433325 -0.011599807 0.41488597
-0.13363554 -0.011604207 0.41504332
-0.13295998 -0.011610589 0.41527161
-0.13229896 -0.011618322 0.41554818
-0.13164659 -0.011626907 0.41585523
-0.1310045 -0.011636503 0.41619846
-0.13036814 -0.011646722 0.41656393
-0.12973414 -0.011657271 0.41694126
-0.12911001 -0.011668835 0.41735485
-0.12849596 -0.011681451 0.41780609
-0.12789041 -0.011694994 0.41829047
-0.12729631 -0.011709751 0.41881827
-0.12671639 -0.011725995 0.41939926
-0.1261455 -0.011743275 0.42001733
-0.1255707 -0.011760397 0.42062974
-0.12497773 -0.011776017 0.42118841
-0.12436178 -0.011789649 0.42167598
-0.12372651 -0.011801605 0.42210361
-0.1230792 -0.011812555 0.42249525
-0.12242334 -0.011822815 0.4228622
-0.12176219 -0.011832689 0.42321536
-0.12109721 -0.011842314 0.42355964
-0.12042918 -0.011851761 0.4238975
-0.11975966 -0.01186118 0.42423439
-0.11908882 -0.01187059 0.42457095
-0.11841805 -0.011880129 0.42491212
-0.11774705 -0.011889768 0.42525688
-0.1170764 -0.011899568 0.42560741
-0.11640654 -0.01190958 0.42596549
-0.11573718 -0.011919777 0.42633021
-0.11506902 -0.011930233 0.42670417
-0.11440181 -0.01194093 0.42708677
-0.11373602 -0.011951921 0.42747989
-0.11307198 -0.011963247 0.427885
-0.11240955 -0.011974901 0.42830181
-0.1117492 -0.011986939 0.42873237
-0.11109141 -0.011999421 0.4291788
-0.11043688 -0.012012432 0.4296442
-0.1097867 -0.012026105 0.43013319
-0.10914211 -0.012040589 0.43065125
-0.10850471 -0.012056078 0.43120524
-0.1078752 -0.012072676 0.43179888
-0.10725476 -0.012090536 0.43243769
-0.10664576 -0.012109959 0.43313235
-0.10604717 -0.012130857 0.43387982
-0.10546219 -0.012153636 0.43469456
-0.10488908 -0.012178133 0.43557075
-0.10433138 -0.012204803 0.43652463
-0.10378703 -0.012233453 0.43754935
-0.10325936 -0.012264522 0.43866056
-0.10275055 -0.012298328 0.4398697
-0.10226174 -0.012335073 0.44118395
-0.10179961 -0.012375639 0.44263485
-0.10137156 -0.01242102 0.444258
-0.1009905 -0.01247293 0.44611466
-0.10068381 -0.012534931 0.44833222
-0.1673045 -0.011470049 0.43853772
-0.16489969 -0.011358887 0.43428761
-0.16341297 -0.011310206 0.43242639
-0.16215619 -0.01127705 0.43115872
-0.16101314 -0.011251521 0.43018267
-0.15993533 -0.011230325 0.42937228
-0.15889779 -0.011211766 0.42866269
-0.15788537 -0.011194807 0.42801428
-0.15689282 -0.011179095 0.42741358
-0.15591502 -0.011164285 0.42684737
-0.15495084 -0.011150309 0.42631298
-0.15399735 -0.011136965 0.42580283
-0.15305382 -0.011124213 0.42531526
-0.15211754 -0.01111186 0.42484298
-0.1511879 -0.011099871 0.42438459
-0.15026237 -0.011088063 0.42393315
-0.14933807 -0.011076225 0.42348051
-0.14841062 -0.011064031 0.42301431
-0.14747465 -0.011051071 0.42251882
-0.1465195 -0.011036533 0.42196298
-0.14551455 -0.011018072 0.42125717
-0.14439175 -0.010990447 0.42020097
-0.14319859 -0.010957149 0.41892785
-0.14211743 -0.01093211 0.41797054
-0.14111665 -0.010913021 0.41724071
-0.1401576 -0.010896971 0.41662705
-0.1392184 -0.010882301 0.4160662
-0.13830265 -0.010869315 0.41556966
-0.13741064 -0.010858061 0.41513941
-0.13654687 -0.010848928 0.41479024
-0.13572292 -0.010842877 0.41455889
-0.13495383 -0.010841166 0.41449344
-0.13423833 -0.010843765 0.4145928
-0.13355666 -0.010849141 0.41479835
-0.13289474 -0.010856191 0.41506788
-0.13224427 -0.010864261 0.41537642
-0.13160096 -0.010873014 0.4157111
-0.13096327 -0.010882335 0.41606745
-0.13033271 -0.010892359 0.41645071
-0.12970658 -0.010902871 0.41685265
-0.1290831 -0.010913732 0.41726786
-0.12846641 -0.010925296 0.41771001
-0.12785837 -0.010937737 0.41818568
-0.12726344 -0.010951453 0.41871008
-0.12668559 -0.010966812 0.41929731
-0.12611833 -0.010983278 0.41992685
-0.12554829 -0.010999699 0.4205547
-0.1249616 -0.011014853 0.42113405
-0.12435169 -0.011028131 0.42164174
-0.12372027 -0.011039655 0.42208233
-0.12307502 -0.011050079 0.42248088
-0.12242119 -0.011059859 0.42285478
-0.1217613 -0.011069209 0.42321229
-0.12109705 -0.011078279 0.42355907
-0.12042996 -0.011087202 0.42390025
-0.11976103 -0.011096071 0.42423928
-0.11909054 -0.011104906 0.42457709
-0.11841989 -0.01111384 0.42491868
-0.11774927 -0.011122895 0.42526489
-0.11707903 -0.011132104 0.42561698
-0.11640912 -0.011141467 0.42597494
-0.11574001 -0.011151031 0.42634061
-0.11507205 -0.011160834 0.4267154
-0.11440494 -0.011170853 0.42709845
-0.11373913 -0.011181134 0.42749155
-0.11307491 -0.011191714 0.42789605
-0.11241261 -0.011202632 0.42831346
-0.11175215 -0.011213884 0.42874369
-0.11109458 -0.011225585 0.42919105
-0.11043949 -0.011237703 0.42965436
-0.10978945 -0.011250508 0.43014395
-0.10914442 -0.011264014 0.43066034
-0.10850666 -0.011278471 0.43121305
-0.10787686 -0.011293967 0.43180552
-0.10725636 -0.011310671 0.43244416
-0.10664646 -0.011328746 0.43313521
-0.10604726 -0.01134823 0.43388018
-0.10546162 -0.011369468 0.43469217
-0.10488806 -0.011392335 0.43556648
-0.10432988 -0.011417232 0.43651834
-0.10378481 -0.011443953 0.43753996
-0.10325713 -0.011473015 0.43865111
-0.10274767 -0.011504565 0.43985739
-0.10225721 -0.01153875 0.4411644
-0.10179505 -0.011576692 0.44261503
-0.10136564 -0.011618986 0.44423208
-0.10098284 -0.01166734 0.4460808
-0.10067383 -0.011725065 0.44828781
-0.16736591 -0.01068293 0.43869865
-0.16492119 -0.010576894 0.43434423
-0.16343164 -0.010531395 0.43247581
-0.16217373 -0.010500457 0.43120533
-0.16102934 -0.010476608 0.43022594
-0.15995108 -0.01045685 0.42941457
-0.15891293 -0.010439536 0.42870355
-0.1578999 -0.01042371 0.42805368
-0.15690628 -0.010409016 0.42745027
-0.1559286 -0.01039524 0.42688453
-0.15496385 -0.010382193 0.42634878
-0.15401024 -0.010369767 0.42583847
-0.15306568 -0.010357829 0.42534822
-0.15212935 -0.010346329 0.42487597
-0.15119898 -0.01033512 0.42441571
-0.15027285 -0.010324089 0.42396268
-0.14934704 -0.010312967 0.42350596
-0.14841877 -0.01030156 0.42303753
-0.14748046 -0.010289334 0.42253548
-0.14652179 -0.010275554 0.42196959
-0.14550894 -0.01025781 0.42124096
-0.1443674 -0.010230761 0.42013013
-0.1431774 -0.010199973 0.41886583
-0.14210494 -0.010177277 0.41793382
-0.14110054 -0.010159238 0.41719306
-0.14013086 -0.01014352 0.4165476
-0.13918579 -0.010129424 0.41596872
-0.13826312 -0.010116813 0.41545084
-0.13735835 -0.010105383 0.41498145
-0.13647501 -0.010095412 0.414572
-0.13562943 -0.01008814 0.41427335
-0.13485819 -0.010086346 0.41419971
-0.13416454 -0.010090369 0.4143649
-0.13350327 -0.010096886 0.41463253
-0.13285425 -0.010104408 0.4149414
-0.1322131 -0.010112616 0.41527849
-0.13157609 -0.010121237 0.41563252
-0.1309427 -0.010130238 0.41600212
-0.13031359 -0.010139674 0.41638964
-0.12968974 -0.010149632 0.41679856
-0.12907082 -0.010160093 0.41722816
-0.12845738 -0.010171113 0.41768065
-0.12785174 -0.010182882 0.41816396
-0.12725666 -0.010195637 0.41868779
-0.12667632 -0.010209734 0.41926664
-0.12610802 -0.010224975 0.41989255
-0.12554006 -0.010240428 0.42052713
-0.1249571 -0.010254839 0.42111889
-0.12435006 -0.010267436 0.42163622
-0.12372156 -0.010278407 0.42208675
-0.12307794 -0.010288249 0.42249092
-0.12242524 -0.01029745 0.42286879
-0.12176602 -0.010306215 0.42322871
-0.1211023 -0.010314707 0.42357743
-0.12043554 -0.010323046 0.42391986
-0.11976694 -0.010331334 0.4242602
-0.11909697 -0.010339608 0.42460001
-0.11842633 -0.010347932 0.42494181
-0.11775586 -0.010356379 0.42528868
-0.11708544 -0.01036494 0.42564029
-0.11641589 -0.010373693 0.4259997
-0.11574682 -0.010382605 0.42636567
-0.11507872 -0.010391724 0.42674017
-0.11441141 -0.010401037 0.42712259
-0.11374594 -0.010410645 0.42751715
-0.11308162 -0.010420491 0.42792147
-0.11241949 -0.010430674 0.42833966
-0.11175898 -0.01044115 0.42876986
-0.11110123 -0.010452032 0.42921674
-0.11044613 -0.010463318 0.4296802
-0.10979591 -0.010475229 0.43016931
-0.10915057 -0.010487777 0.43068463
-0.10851285 -0.010501243 0.43123761
-0.10788267 -0.01051564 0.4318288
-0.10726212 -0.01053119 0.43246737
-0.10665169 -0.010547969 0.43315643
-0.10605256 -0.010566123 0.43390191
-0.10546637 -0.010585844 0.43471175
-0.10489256 -0.010607112 0.43558517
-0.10433409 -0.010630266 0.43653598
-0.1037889 -0.010655135 0.43755722
-0.10326128 -0.010682201 0.43866873
-0.10275157 -0.010711554 0.43987408
-0.10226092 -0.010743366 0.44118047
-0.10179854 -0.010778669 0.4426302
-0.10136926 -0.010818063 0.44424796
-0.10098636 -0.010863075 0.44609636
-0.10067604 -0.010916679 0.44829765
-0.16757229 -0.0099037997 0.43923962
-0.16496679 -0.0097961277 0.43446431
-0.16346507 -0.0097532859 0.43256423
-0.16220233 -0.00972436 0.43128136
-0.16105536 -0.0097021293 0.43029544
-0.15997586 -0.0096837692 0.42948112
-0.15893579 -0.0096676266 0.42876521
-0.1579223 -0.0096529517 0.42811438
-0.15692785 -0.0096393032 0.42750904
-0.15594982 -0.009626532 0.42694262
-0.15498438 -0.0096144164 0.42640528
-0.15403008 -0.0096028736 0.42589337
-0.15308551 -0.0095918244 0.42540333
-0.15214822 -0.0095811216 0.42492867
-0.15121751 -0.0095707281 0.42446771
-0.15029132 -0.0095605161 0.42401481
-0.14936543 -0.0095502194 0.42355812
-0.14843631 -0.0095396088 0.42308754
-0.14749776 -0.0095282793 0.42258507
-0.14653853 -0.0095154885 0.42201778
-0.14552447 -0.0094989864 0.4212859
-0.1443795 -0.0094737196 0.42016533
-0.1431798 -0.0094445776 0.41887286
-0.14210469 -0.0094233882 0.41793308
-0.14109892 -0.0094065946 0.41718829
-0.14013129 -0.0093921786 0.41654891
-0.1391864 -0.0093791373 0.41597053
-0.13825946 -0.0093671717 0.41543984
-0.13734731 -0.0093560843 0.41494811
-0.13645086 -0.0093459496 0.41449863
-0.13557374 -0.0093370341 0.41410324
-0.13478523 -0.0093341572 0.41397563
-0.13413429 -0.0093408283 0.4142715
-0.13348722 -0.0093478449 0.4145827
-0.1328461 -0.0093553588 0.41491595
-0.1322086 -0.0093632154 0.4152644
-0.1315746 -0.0093714101 0.41562784
-0.13094318 -0.0093798833 0.41600361
-0.13031493 -0.0093886834 0.41639391
-0.12969059 -0.009397869 0.41680127
-0.12907039 -0.0094074626 0.41722676
-0.12845649 -0.0094176307 0.41767773
-0.12785096 -0.0094285365 0.41816142
-0.12725599 -0.009440355 0.41868559
-0.12667729 -0.0094535286 0.41926983
-0.12611085 -0.0094677815 0.41990197
-0.12554504 -0.0094822543 0.42054382
-0.12496404 -0.0094957482 0.42114228
-0.12435823 -0.0095075099 0.42166394
-0.12373061 -0.0095177386 0.42211759
-0.1230878 -0.0095269196 0.42252475
-0.12243509 -0.009535443 0.42290276
-0.12177619 -0.0095435893 0.42326406
-0.12111277 -0.0095514804 0.42361405
-0.12044621 -0.0095592234 0.42395744
-0.11977743 -0.0095668873 0.42429736
-0.11910755 -0.0095745623 0.42463773
-0.11843698 -0.0095822793 0.42498001
-0.11776662 -0.0095901154 0.42532754
-0.11709616 -0.0095980465 0.42567927
-0.11642656 -0.0096061518 0.42603877
-0.11575729 -0.0096143931 0.42640427
-0.11508944 -0.0096228626 0.4267799
-0.11442234 -0.0096315099 0.42716342
-0.11375654 -0.0096403854 0.42755702
-0.11309221 -0.0096495058 0.42796153
-0.11243007 -0.0096589401 0.42837995
-0.11176957 -0.0096686482 0.42881051
-0.1111118 -0.0096787279 0.42925757
-0.11045663 -0.0096891783 0.42972103
-0.10980639 -0.0097002108 0.43021035
-0.10916096 -0.009711829 0.4307256
-0.10852326 -0.0097243059 0.43127897
-0.10789295 -0.0097376313 0.43186995
-0.10727224 -0.0097520221 0.4325082
-0.10666186 -0.0097675696 0.43319774
-0.10606275 -0.0097843865 0.43394357
-0.1054768 -0.0098026758 0.43475473
-0.10490264 -0.0098223444 0.43562704
-0.1043447 -0.0098438403 0.43658039
-0.10380027 -0.0098669454 0.43760511
-0.10327197 -0.0098919505 0.43871412
-0.10276231 -0.0099191424 0.43992007
-0.10227315 -0.00994875 0.44123322
-0.10181094 -0.0099814646 0.44268411
-0.1013822 -0.010018004 0.44430465
-0.10100043 -0.010059804 0.4461585
-0.1006925 -0.010109688 0.4483709
-0.16503838 -0.009016348 0.43465284
-0.16351488 -0.0089757573 0.43269604
-0.16224341 -0.0089486772 0.43139061
-0.16109152 -0.0089279646 0.43039209
-0.16000886 -0.0089109056 0.42956972
-0.15896767 -0.0088960016 0.42885125
-0.15795232 -0.0088824043 0.42819577
-0.15695763 -0.0088698408 0.42759013
-0.15597834 -0.0088580297 0.42702073
-0.15501237 -0.0088468594 0.42648226
-0.15405785 -0.0088362359 0.42597011
-0.15311232 -0.008826023 0.4254778
-0.15217513 -0.008816191 0.42500383
-0.15124409 -0.0088066179 0.42454231
-0.15031742 -0.0087972023 0.42408842
-0.14939187 -0.0087877577 0.42363313
-0.1484639 -0.008778072 0.42316619
-0.14752656 -0.0087677287 0.42266759
-0.14656976 -0.008756116 0.42210776
-0.14556268 -0.008741362 0.42139652
-0.14443137 -0.0087189535 0.42031628
-0.1432336 -0.0086922767 0.41903025
-0.14214943 -0.0086722467 0.41806465
-0.14113972 -0.0086565688 0.4173089
-0.1401675 -0.0086430367 0.41665652
-0.13922113 -0.0086309593 0.41607434
-0.1382958 -0.0086200638 0.41554907
-0.13738671 -0.008610067 0.41506714
-0.13649754 -0.0086012147 0.41464043
-0.13564096 -0.0085943304 0.41430855
-0.13486269 -0.0085923597 0.41421354
-0.13417657 -0.0085962703 0.41440204
-0.13351949 -0.0086020958 0.41468287
-0.13287389 -0.0086087314 0.41500276
-0.13223356 -0.0086157843 0.41534278
-0.13159791 -0.0086232247 0.41570145
-0.13096555 -0.0086309668 0.41607469
-0.13033739 -0.0086390777 0.41646567
-0.12971438 -0.0086476253 0.41687775
-0.12909549 -0.0086565493 0.41730794
-0.12848237 -0.0086659659 0.41776189
-0.12787643 -0.0086759813 0.41824472
-0.12728128 -0.0086868526 0.41876876
-0.12670147 -0.0086989077 0.41934991
-0.12613371 -0.0087119378 0.41997805
-0.12556621 -0.0087251449 0.42061472
-0.12498354 -0.0087374514 0.42120799
-0.12437683 -0.0087482175 0.421727
-0.12374827 -0.0087575698 0.42217785
-0.12310454 -0.0087659582 0.42258224
-0.12245172 -0.0087737991 0.42296022
-0.12179232 -0.0087812645 0.42332011
-0.12112848 -0.0087885018 0.42366901
-0.12046162 -0.0087956106 0.42401168
-0.11979284 -0.0088026691 0.42435196
-0.11912271 -0.0088097183 0.42469177
-0.11845205 -0.0088168196 0.42503411
-0.11778162 -0.0088240299 0.42538172
-0.11711112 -0.0088313296 0.42573363
-0.11644128 -0.0088387774 0.42609262
-0.11577222 -0.0088463826 0.42645928
-0.11510404 -0.0088541573 0.42683405
-0.1144366 -0.008862094 0.42721668
-0.11377101 -0.0088702822 0.42761141
-0.1131066 -0.0088786753 0.42801601
-0.11244438 -0.0088873561 0.42843449
-0.11178392 -0.0088962978 0.42886555
-0.11112607 -0.0089055728 0.42931268
-0.11047085 -0.0089151915 0.42977634
-0.10982051 -0.008925342 0.43026569
-0.10917562 -0.0089360829 0.43078348
-0.1085375 -0.0089475354 0.43133557
-0.10790777 -0.0089598512 0.43192926
-0.10728703 -0.0089730965 0.43256781
-0.10667703 -0.0089874417 0.43325934
-0.10607801 -0.0090029305 0.43400601
-0.10549244 -0.0090197995 0.43481919
-0.10491852 -0.0090379249 0.435693
-0.10436095 -0.0090577425 0.43664834
-0.10381699 -0.0090790521 0.4376756
-0.10328984 -0.0091021694 0.43879005
-0.10278061 -0.009127236 0.43999842
-0.10229201 -0.0091545377 0.44131458
-0.10183137 -0.0091847908 0.44277295
-0.10140412 -0.0092185559 0.4444007
-0.10102451 -0.0092572253 0.44626486
-0.10072134 -0.0093035772 0.44849935
-0.16514139 -0.008237456 0.43492413
-0.1635835 -0.0081986953 0.43287763
-0.16229747 -0.0081732543 0.43153435
-0.16113828 -0.0081539853 0.43051702
-0.16005127 -0.0081382003 0.42968357
-0.15900783 -0.0081244875 0.42895958
-0.15799086 -0.0081119994 0.42830023
-0.15699454 -0.0081004547 0.42769068
-0.15601443 -0.0080896374 0.42711952
-0.15504804 -0.0080794264 0.4265804
-0.15409285 -0.0080697006 0.42606691
-0.15314734 -0.0080603864 0.42557514
-0.15220943 -0.0080513805 0.42509964
-0.15127861 -0.0080426605 0.42463925
-0.15035224 -0.0080340886 0.42418668
-0.14942746 -0.0080255158 0.42373401
-0.14850055 -0.008016739 0.42327064
-0.1475663 -0.0080074742 0.42278144
-0.14661485 -0.0079971738 0.4222376
-0.14562042 -0.0079844091 0.42156366
-0.14451554 -0.0079654241 0.42056125
-0.14330959 -0.0079406369 0.41925254
-0.14221345 -0.0079217041 0.41825292
-0.14120534 -0.0079074996 0.41750294
-0.14023614 -0.0078953328 0.41686055
-0.13928995 -0.0078843366 0.41628
-0.13836893 -0.0078746546 0.4157688
-0.1374698 -0.007866119 0.41531813
-0.13659741 -0.0078590298 0.41494381
-0.13576415 -0.0078541245 0.41468483
-0.13498855 -0.0078525199 0.4146001
-0.13427368 -0.0078544496 0.414702
-0.13359548 -0.0078585586 0.41491893
-0.1329359 -0.0078638131 0.41519639
-0.13228789 -0.0078698182 0.41551343
-0.13164556 -0.0078762304 0.41585198
-0.13100991 -0.0078831175 0.41621563
-0.13038018 -0.0078904433 0.4166024
-0.12975366 -0.0078980494 0.41700399
-0.12913108 -0.0079059843 0.41742295
-0.12851469 -0.0079143941 0.417867
-0.12790777 -0.0079234904 0.41834724
-0.12731332 -0.0079334714 0.4188742
-0.1267359 -0.0079446388 0.41946384
-0.12616935 -0.0079566259 0.42009673
-0.12560132 -0.0079686632 0.42073232
-0.12501507 -0.0079796845 0.42131421
-0.12440527 -0.0079893293 0.42182344
-0.12377374 -0.0079976879 0.42226475
-0.12312822 -0.00800524 0.42266351
-0.12247436 -0.0080123413 0.42303842
-0.12181393 -0.008019099 0.42339522
-0.12114958 -0.0080256825 0.4237428
-0.12048233 -0.0080321552 0.42408457
-0.11981284 -0.0080385609 0.4244228
-0.11914252 -0.0080449935 0.42476243
-0.11847145 -0.0080514578 0.42510372
-0.11780059 -0.0080580208 0.42545024
-0.11713008 -0.0080646938 0.42580256
-0.11645998 -0.008071484 0.42616105
-0.11579055 -0.0080784103 0.42652678
-0.11512228 -0.0080855116 0.4269017
-0.11445503 -0.0080927797 0.42728546
-0.11378911 -0.0081002414 0.42767942
-0.11312468 -0.0081079127 0.42808443
-0.11246251 -0.0081158513 0.42850357
-0.11180171 -0.0081239995 0.4289338
-0.11114402 -0.0081324894 0.42938206
-0.11048926 -0.0081413146 0.42984799
-0.10983887 -0.0081505869 0.43033758
-0.10919412 -0.0081604151 0.43085647
-0.10855639 -0.0081709111 0.43141064
-0.10792692 -0.0081821857 0.43200591
-0.10730628 -0.0081942976 0.43264544
-0.1066971 -0.0082074692 0.43334085
-0.10609838 -0.0082216458 0.43408936
-0.1055137 -0.0082371291 0.43490684
-0.10494107 -0.0082537923 0.43578663
-0.10438368 -0.008271914 0.43674344
-0.10384095 -0.0082914829 0.43777665
-0.1033143 -0.0083126444 0.43889394
-0.1028063 -0.0083356462 0.44010839
-0.10231923 -0.0083607147 0.44143197
-0.10185984 -0.0083884569 0.44289672
-0.10143532 -0.0084195323 0.44453746
-0.10105924 -0.0084551554 0.44641829
-0.10076483 -0.0084982393 0.44869304
-0.16527843 -0.0074591218 0.43528506
-0.16367164 -0.0074218647 0.43311089
-0.16236635 -0.0073979869 0.43171749
-0.16119634 -0.0073800734 0.43067211
-0.16010197 -0.0073654656 0.42981967
-0.15905634 -0.0073529696 0.42909044
-0.15803735 -0.0073415884 0.4284263
-0.15703896 -0.007331057 0.42781171
-0.15605834 -0.0073212553 0.42723972
-0.15509109 -0.0073119872 0.42669886
-0.15413518 -0.0073031634 0.42618394
-0.15318918 -0.0072947228 0.4256914
-0.15225159 -0.0072865998 0.42521736
-0.15132073 -0.0072787185 0.42475745
-0.1503948 -0.0072709955 0.42430675
-0.14947146 -0.0072633191 0.42385879
-0.14854686 -0.0072555016 0.42340261
-0.14761578 -0.0072472864 0.42292318
-0.14667098 -0.007238308 0.42239925
-0.14569364 -0.007227622 0.42177564
-0.14462654 -0.0072123474 0.42088428
-0.14344172 -0.0071910098 0.41963911
-0.14232001 -0.0071726264 0.41856632
-0.14129442 -0.0071589174 0.41776633
-0.14032395 -0.0071478691 0.41712159
-0.13938934 -0.0071385372 0.41657701
-0.13847232 -0.007130011 0.41607946
-0.1375851 -0.0071229343 0.41566649
-0.13672628 -0.0071172579 0.41533524
-0.13590561 -0.0071135173 0.41511694
-0.13512948 -0.0071120779 0.41503295
-0.13439839 -0.0071130064 0.41508713
-0.13370104 -0.0071157417 0.41524675
-0.13302663 -0.0071197348 0.41547978
-0.13236713 -0.0071245767 0.41576234
-0.13171639 -0.0071299467 0.41607571
-0.13107565 -0.007135924 0.41642451
-0.13043897 -0.0071421918 0.41679028
-0.12980671 -0.0071487753 0.41717446
-0.1291842 -0.0071559758 0.41759467
-0.1285708 -0.0071637686 0.41804942
-0.12796535 -0.0071720988 0.41853553
-0.12737204 -0.0071812132 0.41906741
-0.12679306 -0.0071912478 0.419653
-0.12622377 -0.0072019571 0.42027795
-0.12565051 -0.0072125676 0.42089713
-0.12505816 -0.007222204 0.42145947
-0.12444243 -0.0072305999 0.42194942
-0.12380701 -0.007237948 0.42237824
-0.12315928 -0.0072446638 0.42277014
-0.12250321 -0.0072509688 0.42313808
-0.12184169 -0.0072570289 0.42349172
-0.12117603 -0.0072629168 0.42383531
-0.12050784 -0.0072687268 0.42417437
-0.11983776 -0.0072744968 0.42451108
-0.11916679 -0.0072802864 0.42484894
-0.11849531 -0.0072861193 0.42518932
-0.11782402 -0.0072920402 0.42553484
-0.1171532 -0.0072980686 0.42588663
-0.11648284 -0.0073042046 0.42624471
-0.11581328 -0.0073104729 0.4266105
-0.11514465 -0.0073168841 0.42698464
-0.11447722 -0.0073234583 0.42736828
-0.11381118 -0.0073302118 0.42776239
-0.11314675 -0.0073371613 0.42816794
-0.11248411 -0.0073443232 0.42858589
-0.11182369 -0.00735173 0.42901811
-0.11116588 -0.0073594134 0.42946649
-0.11051112 -0.0073674084 0.42993304
-0.1098608 -0.0073758136 0.43042353
-0.10921656 -0.0073847496 0.43094501
-0.10857914 -0.0073942784 0.43150106
-0.10795049 -0.0074045463 0.43210027
-0.10733014 -0.0074155373 0.43274164
-0.10672206 -0.0074275429 0.43344226
-0.10612424 -0.0074404455 0.43419519
-0.10554021 -0.0074545131 0.43501613
-0.10496881 -0.0074696904 0.43590182
-0.10441191 -0.0074861366 0.43686154
-0.10387071 -0.0075039682 0.43790212
-0.10334522 -0.0075232154 0.43902531
-0.10283922 -0.0075441902 0.44024932
-0.10235532 -0.0075671249 0.44158772
-0.10189769 -0.0075923768 0.44306132
-0.10147586 -0.0076207165 0.44471511
-0.10110679 -0.0076535023 0.44662836
-0.10082112 -0.007693178 0.44894367
-0.16546495 -0.0066814828 0.43577629
-0.16377909 -0.0066449754 0.43339524
-0.16244836 -0.0066225948 0.43193555
-0.16126446 -0.006606014 0.43085411
-0.16016507 -0.0065927515 0.4299891
-0.15911345 -0.0065813353 0.42924452
-0.15809251 -0.0065710829 0.42857584
-0.15709276 -0.0065616141 0.42795828
-0.15610993 -0.0065527628 0.42738098
-0.15514143 -0.0065444275 0.42683735
-0.15418507 -0.0065365243 0.42632189
-0.15323848 -0.0065289573 0.42582837
-0.15230073 -0.0065216934 0.4253546
-0.15137029 -0.0065146708 0.42489657
-0.15044576 -0.0065078316 0.42445052
-0.14952372 -0.0065010311 0.42400697
-0.14860156 -0.0064941561 0.42355856
-0.14767554 -0.0064870389 0.42309439
-0.14673823 -0.0064793508 0.42259294
-0.14577736 -0.0064705359 0.42201802
-0.14475258 -0.0064587765 0.42125106
-0.1436051 -0.0064413892 0.42011705
-0.14245467 -0.0064236852 0.41896236
-0.14142373 -0.0064112092 0.41814867
-0.14044856 -0.0064011407 0.41749197
-0.13950674 -0.0063924924 0.4169279
-0.13860336 -0.0063855206 0.41647321
-0.13772336 -0.0063795559 0.41608417
-0.13687347 -0.0063749282 0.41578236
-0.13605861 -0.0063718911 0.41558427
-0.13528074 -0.0063705612 0.41549754
-0.13453889 -0.0063709226 0.41552109
-0.13382737 -0.0063727316 0.4156391
-0.13313888 -0.0063756648 0.4158304
-0.13246787 -0.0063794721 0.41607872
-0.13180831 -0.0063838786 0.4163661
-0.13115939 -0.0063888528 0.41669053
-0.13051538 -0.0063941255 0.41703442
-0.12988526 -0.0064001428 0.41742688
-0.12925975 -0.00640646 0.4178389
-0.12863904 -0.0064130896 0.4182713
-0.12803063 -0.0064204149 0.41874906
-0.12743959 -0.0064287032 0.41928965
-0.12686399 -0.0064378735 0.41988775
-0.12629303 -0.0064473916 0.42050853
-0.12571254 -0.0064565353 0.42110488
-0.12511179 -0.0064647431 0.42164022
-0.12448864 -0.0064718863 0.42210612
-0.12384836 -0.0064782221 0.42251933
-0.12319705 -0.0064840554 0.42289978
-0.12253821 -0.0064895623 0.42325896
-0.12187476 -0.0064948928 0.42360663
-0.12120759 -0.0065000914 0.4239457
-0.12053833 -0.006505243 0.42428169
-0.11986725 -0.0065103616 0.42461553
-0.11919554 -0.0065155118 0.42495143
-0.11852358 -0.0065207146 0.42529076
-0.1178518 -0.0065259957 0.42563519
-0.11718039 -0.0065313661 0.42598546
-0.11650959 -0.0065368419 0.42634261
-0.11583982 -0.0065424484 0.42670828
-0.11517095 -0.0065481807 0.42708215
-0.1145033 -0.0065540611 0.42746568
-0.11383688 -0.0065600914 0.42785898
-0.11317272 -0.006566335 0.4282662
-0.11250985 -0.0065727402 0.42868394
-0.11184946 -0.0065793805 0.42911702
-0.11119159 -0.006586262 0.42956585
-0.11053722 -0.0065934481 0.43003455
-0.10988677 -0.0066009718 0.43052524
-0.10924321 -0.0066090198 0.43105015
-0.10860624 -0.0066175847 0.43160877
-0.10797835 -0.0066268304 0.43221179
-0.10735916 -0.0066367476 0.43285862
-0.10675173 -0.0066475435 0.43356273
-0.10615586 -0.0066592237 0.43432453
-0.10557214 -0.0066718454 0.43514773
-0.10500288 -0.0066855764 0.43604329
-0.10444692 -0.0067003686 0.43700805
-0.10390759 -0.00671646 0.43805757
-0.10338357 -0.0067337961 0.43918824
-0.10287976 -0.0067527252 0.44042283
-0.10239863 -0.0067734499 0.44177455
-0.10194497 -0.0067963316 0.4432669
-0.10152882 -0.0068220943 0.44494718
-0.10116692 -0.0068519427 0.44689396
-0.10089258 -0.0068882485 0.44926187
-0.16570914 -0.005904126 0.4364194
-0.16391216 -0.0058679772 0.43374735
-0.16254725 -0.0058470233 0.43219849
-0.16134813 -0.00583186 0.43107766
-0.16023667 -0.0058197342 0.43018132
-0.15917994 -0.0058094873 0.4294239
-0.15815568 -0.0058003305 0.42874706
-0.1571535 -0.0057918984 0.42812377
-0.15616919 -0.0057840445 0.42754322
-0.15519978 -0.005776667 0.4269979
-0.15424229 -0.0057696621 0.42648011
-0.1532961 -0.0057630111 0.4259885
-0.15235789 -0.0057565952 0.42551425
-0.15142775 -0.005750421 0.42505786
-0.15050361 -0.0057444121 0.42461371
-0.14958356 -0.0057385 0.42417669
-0.14866455 -0.0057325661 0.42373806
-0.14774293 -0.0057264697 0.42328745
-0.14681426 -0.0057200356 0.42281187
-0.14586867 -0.0057128724 0.42228237
-0.14488256 -0.0057040374 0.42162931
-0.14380105 -0.0056913346 0.42069033
-0.14265054 -0.0056757513 0.41953844
-0.14157729 -0.0056630918 0.41860268
-0.14059098 -0.005653793 0.41791534
-0.13965969 -0.0056466185 0.41738501
-0.13874984 -0.0056402376 0.41691336
-0.13787749 -0.0056353197 0.41654986
-0.13703434 -0.0056315484 0.41627106
-0.13622168 -0.0056289951 0.41608235
-0.13544099 -0.005627742 0.41598973
-0.13469119 -0.0056277658 0.41599149
-0.13396929 -0.0056289621 0.41607991
-0.13326894 -0.0056310818 0.41623658
-0.13258529 -0.0056339353 0.41644752
-0.13191971 -0.0056375945 0.41671798
-0.13125913 -0.0056415098 0.41700739
-0.13061592 -0.0056462218 0.41735569
-0.12997508 -0.0056510903 0.41771558
-0.12934317 -0.0056564067 0.41810855
-0.12872766 -0.0056625069 0.41855946
-0.12812424 -0.0056692138 0.41905522
-0.12753296 -0.005676541 0.41959682
-0.12695414 -0.0056845141 0.42018616
-0.12637682 -0.0056926496 0.42078754
-0.12578605 -0.0057002744 0.42135113
-0.12517425 -0.005707033 0.42185071
-0.1245422 -0.005712945 0.42228773
-0.12389578 -0.0057182666 0.42268109
-0.12324023 -0.0057232305 0.42304802
-0.12257887 -0.0057279845 0.42339942
-0.12191309 -0.0057325903 0.42373988
-0.1212441 -0.0057371021 0.42407337
-0.12057333 -0.0057415874 0.42440489
-0.1199014 -0.0057460736 0.42473653
-0.11922872 -0.0057505812 0.42506972
-0.11855607 -0.0057551488 0.42540735
-0.11788375 -0.0057597924 0.42575058
-0.11721169 -0.0057645091 0.42609924
-0.11654066 -0.0057693399 0.4264563
-0.11587041 -0.0057742726 0.42682093
-0.11520111 -0.0057793199 0.427194
-0.11453338 -0.0057845139 0.42757794
-0.11386693 -0.0057898439 0.4279719
-0.11320213 -0.0057953312 0.42837751
-0.11253944 -0.005801002 0.42879671
-0.11187886 -0.0058068614 0.42922983
-0.11122119 -0.0058129542 0.42968017
-0.11056681 -0.0058193058 0.43014967
-0.10991731 -0.0058260057 0.43064493
-0.10927418 -0.005833141 0.43117234
-0.10863803 -0.0058407541 0.4317351
-0.10801078 -0.0058489591 0.43234158
-0.10739343 -0.0058578234 0.43299681
-0.10678609 -0.0058673676 0.43370229
-0.10619238 -0.0058778068 0.43447393
-0.10560984 -0.0058890246 0.43530312
-0.10504264 -0.0059012715 0.4362084
-0.10448875 -0.0059144571 0.43718305
-0.10395092 -0.0059287595 0.43824023
-0.10343039 -0.0059442753 0.43938714
-0.10292754 -0.0059610545 0.4406274
-0.10245015 -0.0059795808 0.44199684
-0.1020017 -0.0060001002 0.44351357
-0.10159191 -0.0060232361 0.44522372
-0.10123885 -0.0060501304 0.44721168
-0.10098312 -0.0060833208 0.44966504
-0.16605355 -0.0051275445 0.43732646
-0.16407891 -0.005090754 0.4341886
-0.1626627 -0.0050710193 0.43250546
-0.16144273 -0.0050572422 0.43133041
-0.16032045 -0.0050464063 0.43040621
-0.15925486 -0.0050372588 0.42962602
-0.15822767 -0.0050292416 0.42894223
-0.15722296 -0.0050218632 0.42831296
-0.15623631 -0.0050149928 0.42772695
-0.15526527 -0.0050085573 0.42717808
-0.15430702 -0.0050024721 0.42665908
-0.15335996 -0.0049966909 0.426166
-0.15242194 -0.0049911463 0.42569312
-0.15149234 -0.0049858242 0.42523918
-0.15056896 -0.0049806531 0.42479813
-0.1496506 -0.0049755955 0.42436677
