# .PCD v0.7 - Point Cloud Data file format
VERSION 0.7
FIELDS x y z
SIZE 4 4 4
TYPE F F F
COUNT 1 1 1
WIDTH 1341
HEIGHT 1
VIEWPOINT 0 0 0 1 0 0 0
POINTS 1341
DATA ascii
-0.17541952 -0.054844771 0.46419835
-0.17455782 -0.054837111 0.46413353
-0.17370479 -0.054832116 0.46409124
-0.17286021 -0.05482975 0.46407124
-0.17202455 -0.054830208 0.46407512
-0.17119624 -0.054833021 0.46409893
-0.17037579 -0.0548384 0.46414444
-0.16956288 -0.054846264 0.46421102
-0.16875672 -0.054856405 0.46429682
-0.16795741 -0.054868881 0.46440244
-0.16716516 -0.0548838 0.46452871
-0.16637881 -0.054900814 0.46467271
-0.1655982 -0.05491991 0.46483433
-0.16482413 -0.054941379 0.46501604
-0.16405563 -0.054964926 0.46521536
-0.16329239 -0.054990496 0.46543178
-0.16253431 -0.055018071 0.46566516
-0.16178174 -0.055047814 0.4659169
-0.16103497 -0.055079848 0.46618801
-0.16029295 -0.055113852 0.46647581
-0.15955618 -0.055150025 0.466782
-0.15882464 -0.055188403 0.46710682
-0.15809885 -0.055229198 0.46745211
-0.15737911 -0.055272553 0.46781906
-0.15666549 -0.055318546 0.46820831
-0.15595973 -0.055367816 0.46862534
-0.1552611 -0.055420175 0.4690685
-0.15457113 -0.055476215 0.46954283
-0.1538917 -0.055536672 0.47005454
-0.15322237 -0.055601466 0.47060293
-0.15256339 -0.055670761 0.47118944
-0.15191454 -0.055744551 0.47181398
-0.15127431 -0.05582235 0.47247246
-0.15064196 -0.05590396 0.47316319
-0.15001556 -0.055988718 0.47388056
-0.14939196 -0.056075491 0.47461501
-0.14877325 -0.056165118 0.4753736
-0.14816274 -0.056258895 0.47616729
-0.14755969 -0.056356616 0.47699443
-0.14697066 -0.056460872 0.47787681
-0.14639853 -0.056572884 0.47882488
-0.14584802 -0.056694631 0.47985533
-0.14532349 -0.056827992 0.48098406
-0.14483032 -0.056975286 0.48223075
-0.14437504 -0.057139367 0.48361951
-0.14396222 -0.057322342 0.48516816
-0.14357965 -0.057519674 0.48683837
-0.14322914 -0.057732362 0.48863852
-0.14290679 -0.057959098 0.49055758
-0.14266077 -0.058219813 0.49276423
-0.14254594 -0.058537673 0.49545458
-0.14264899 -0.058949586 0.49894094
-0.19723456 -0.055431932 0.47644195
-0.19547103 -0.055176724 0.47424841
-0.19391243 -0.054977372 0.47253495
-0.19247001 -0.054809343 0.47109073
-0.19115552 -0.054676414 0.4699482
-0.18994306 -0.054571614 0.46904743
-0.18880486 -0.05448731 0.46832284
-0.18771687 -0.054416802 0.46771681
-0.18666314 -0.054355633 0.46719104
-0.18563712 -0.054302014 0.46673021
-0.18463188 -0.054254018 0.46631765
-0.18364656 -0.054211456 0.46595186
-0.18267709 -0.054173205 0.46562308
-0.18172348 -0.054139327 0.46533188
-0.18078277 -0.054108992 0.46507117
-0.17985566 -0.054082472 0.46484321
-0.17893982 -0.054059103 0.46464235
-0.17803672 -0.054039378 0.46447283
-0.17714362 -0.054022525 0.46432796
-0.17626224 -0.054009099 0.46421257
-0.17539018 -0.053998407 0.46412069
-0.17452806 -0.053990696 0.46405441
-0.17367506 -0.053985741 0.46401182
-0.17283054 -0.053983387 0.46399158
-0.17199506 -0.053983852 0.46399558
-0.171167 -0.053986657 0.46401969
-0.17034715 -0.053992096 0.46406642
-0.16953476 -0.053999957 0.46413401
-0.16872905 -0.054010045 0.4642207
-0.16793081 -0.054022629 0.46432886
-0.16713914 -0.05403747 0.46445641
-0.1663534 -0.054054383 0.46460178
-0.1655743 -0.054073632 0.46476725
-0.16480127 -0.054095075 0.46495155
-0.16403356 -0.054118492 0.4651528
-0.16327135 -0.054143969 0.46537179
-0.16251522 -0.054171741 0.4656105
-0.16176401 -0.054201446 0.46586582
-0.1610176 -0.054233082 0.46613771
-0.16027607 -0.054266699 0.46642667
-0.15953936 -0.054302312 0.46673277
-0.15880832 -0.054340247 0.46705881
-0.15808173 -0.054380115 0.46740147
-0.15736097 -0.054422427 0.46776515
-0.15664521 -0.054466933 0.4681477
-0.15593497 -0.054513849 0.46855095
-0.15523201 -0.054563839 0.46898061
-0.15453604 -0.054616846 0.4694362
-0.15384881 -0.054673549 0.46992356
-0.15317121 -0.054734312 0.47044584
-0.15250495 -0.054799829 0.47100896
-0.1518497 -0.054870062 0.4716126
-0.15120596 -0.05494526 0.47225896
-0.15057258 -0.055025112 0.47294527
-0.14994787 -0.055109046 0.4736667
-0.14933014 -0.055196527 0.47441861
-0.14871655 -0.055286556 0.47519243
-0.14810744 -0.055379301 0.47598958
-0.14750478 -0.055475559 0.47681692
-0.14691062 -0.055576161 0.47768158
-0.14633036 -0.055683237 0.4786019
-0.14576825 -0.055798527 0.47959286
-0.14523096 -0.055924758 0.48067781
-0.1447227 -0.056063753 0.48187247
-0.14425081 -0.056218594 0.48320335
-0.14382058 -0.05639166 0.48469087
-0.14343879 -0.056585945 0.48636076
-0.14309071 -0.056796003 0.48816624
-0.14277792 -0.057022762 0.49011526
-0.14251219 -0.057271257 0.49225107
-0.14236996 -0.057572801 0.49484289
-0.14242737 -0.0579594 0.49816573
-0.19973604 -0.055024896 0.48039135
-0.19704351 -0.054519664 0.47598046
-0.19530661 -0.05427558 0.47384951
-0.19373764 -0.054076217 0.47210899
-0.19233151 -0.053920753 0.4707517
-0.19106375 -0.053802874 0.46972257
-0.18988954 -0.053710401 0.46891525
-0.18877235 -0.053633306 0.46824217
-0.1876941 -0.053566631 0.46766007
-0.18664615 -0.053508036 0.46714851
-0.18562146 -0.05345561 0.46669081
-0.1846178 -0.053408794 0.46628207
-0.18363047 -0.053366292 0.46591103
-0.18265991 -0.053328298 0.4655793
-0.1817033 -0.05329404 0.46528023
-0.18076111 -0.053263716 0.4650155
-0.179832 -0.05323698 0.46478206
-0.17891559 -0.053213771 0.46457943
-0.17801125 -0.053193949 0.4644064
-0.1771182 -0.053177331 0.46426129
-0.1762359 -0.053163797 0.46414316
-0.17536412 -0.053153325 0.46405172
-0.17450178 -0.053145625 0.46398449
-0.17364901 -0.053140782 0.46394223
-0.17280458 -0.053138454 0.4639219
-0.17196938 -0.053138956 0.46392629
-0.17114164 -0.05314178 0.46395093
-0.17032218 -0.053147215 0.46399838
-0.16951011 -0.05315502 0.46406654
-0.16870487 -0.053165056 0.46415415
-0.16790724 -0.053177606 0.46426371
-0.16711576 -0.053192236 0.46439144
-0.16633077 -0.053209085 0.46453854
-0.16555272 -0.053228341 0.46470666
-0.16478017 -0.053249571 0.464892
-0.16401337 -0.053272884 0.46509552
-0.16325298 -0.053298529 0.46531942
-0.1624977 -0.053326119 0.46556029
-0.16174784 -0.053355783 0.46581927
-0.16100274 -0.053387333 0.4660947
-0.16026324 -0.05342108 0.46638933
-0.1595282 -0.053456679 0.46670014
-0.15879759 -0.053494152 0.46702728
-0.15807156 -0.053533569 0.46737143
-0.15735014 -0.053574979 0.46773297
-0.15663393 -0.053618625 0.46811399
-0.1559235 -0.053664729 0.4685165
-0.15521775 -0.053712957 0.46893755
-0.15451832 -0.053763911 0.46938241
-0.15382591 -0.053817879 0.46985358
-0.1531413 -0.053875193 0.47035396
-0.15246658 -0.053936645 0.47089046
-0.15180284 -0.054002691 0.47146705
-0.15115131 -0.054073852 0.47208831
-0.15051264 -0.054150436 0.47275695
-0.14988472 -0.054231789 0.4734672
-0.14926827 -0.054318249 0.47422203
-0.14865924 -0.054408427 0.47500932
-0.14805543 -0.054501563 0.47582245
-0.14745608 -0.054597441 0.47665948
-0.14686221 -0.054696482 0.47752416
-0.14627889 -0.054800645 0.47843355
-0.1457088 -0.054911032 0.47939727
-0.1451593 -0.055030543 0.48044065
-0.14463718 -0.055161927 0.48158771
-0.14414744 -0.055307329 0.48285711
-0.14370111 -0.055471249 0.48428822
-0.14330423 -0.055656381 0.48590448
-0.14296088 -0.05586471 0.48772329
-0.14265357 -0.056089792 0.48968837
-0.14238696 -0.05633378 0.49181849
-0.14221454 -0.056618329 0.49430272
-0.14224318 -0.056987017 0.49752152
-0.19908653 -0.053982247 0.47882921
-0.19689111 -0.053619586 0.47561234
-0.19513947 -0.053375125 0.47344396
-0.19359572 -0.053185638 0.47176316
-0.19224682 -0.053048238 0.47054443
-0.19102128 -0.052943811 0.46961814
-0.18986765 -0.052858476 0.46886119
-0.18876249 -0.052785929 0.4682177
-0.18768904 -0.052721638 0.46764743
-0.18664105 -0.052663956 0.46713579
-0.18561609 -0.052612271 0.46667734
-0.18460853 -0.052565072 0.46625867
-0.18361861 -0.052522484 0.46588093
-0.18264441 -0.052484024 0.46553978
-0.18168597 -0.052449763 0.46523586
-0.18074244 -0.052419502 0.46496746
-0.17981175 -0.052392699 0.4647297
-0.17889535 -0.052369833 0.46452689
-0.17798978 -0.052349932 0.46435037
-0.17709732 -0.052333724 0.46420658
-0.17621469 -0.052320275 0.46408731
-0.17534287 -0.052309927 0.46399552
-0.17448053 -0.052302316 0.46392798
-0.17362824 -0.052297663 0.46388674
-0.17278399 -0.052295394 0.46386659
-0.17194909 -0.052295949 0.46387154
-0.17112152 -0.052298754 0.46389639
-0.17030244 -0.05230419 0.46394461
-0.16949037 -0.052311841 0.4640125
-0.16868564 -0.052321848 0.46410125
-0.16788797 -0.052334156 0.46421042
-0.16709675 -0.052348603 0.46433857
-0.16631295 -0.052365538 0.46448877
-0.16553487 -0.052384451 0.46465656
-0.16476271 -0.052405439 0.46484271
-0.16399729 -0.052428801 0.46504992
-0.16323714 -0.052454095 0.4652743
-0.16248241 -0.052481398 0.46551648
-0.16173375 -0.052510954 0.46577865
-0.16099034 -0.052542541 0.46605882
-0.16025178 -0.052576043 0.46635598
-0.15951829 -0.052611571 0.46667114
-0.1587898 -0.052649137 0.46700433
-0.15806572 -0.052688573 0.46735415
-0.15734598 -0.052729886 0.4677206
-0.15663017 -0.052772969 0.46810275
-0.15591919 -0.052818153 0.46850353
-0.1552131 -0.052865498 0.46892348
-0.15451212 -0.052915111 0.46936357
-0.15381725 -0.052967373 0.46982715
-0.15312891 -0.053022474 0.4703159
-0.15244815 -0.053080834 0.47083354
-0.15177634 -0.053142976 0.47138476
-0.15111621 -0.053209931 0.47197866
-0.15046859 -0.053282078 0.47261861
-0.14983444 -0.053359844 0.47330841
-0.14921373 -0.053443313 0.47404879
-0.14860487 -0.053532012 0.47483554
-0.14800501 -0.053625006 0.47566041
-0.14741032 -0.053720959 0.47651154
-0.14682022 -0.053819727 0.47738761
-0.14623661 -0.053922057 0.4782953
-0.14566347 -0.05402948 0.47924814
-0.14510664 -0.054144267 0.48026633
-0.14457169 -0.054268654 0.48136967
-0.14406802 -0.054406352 0.48259106
-0.14360294 -0.054560389 0.48395738
-0.14318869 -0.054735735 0.48551273
-0.14283213 -0.054935437 0.48728409
-0.14253482 -0.055160537 0.48928076
-0.14228053 -0.055405192 0.49145091
-0.14208764 -0.055676974 0.49386165
-0.14208199 -0.056026023 0.49695775
-0.19885831 -0.053057637 0.47828028
-0.19675553 -0.052725337 0.47528481
-0.19499178 -0.052481379 0.47308567
-0.1935081 -0.052310981 0.47154966
-0.19221003 -0.052189481 0.47045439
-0.19101331 -0.052094538 0.46959856
-0.1898714 -0.05201377 0.46887049
-0.18876782 -0.051942822 0.46823093
-0.18769404 -0.051879477 0.46765992
-0.18664408 -0.051822171 0.46714336
-0.18561287 -0.051769577 0.46666923
-0.18460251 -0.051722344 0.46624348
-0.18360934 -0.051679518 0.46585742
-0.18263321 -0.051641114 0.46551123
-0.1816739 -0.051607136 0.46520495
-0.1807282 -0.051576726 0.4649308
-0.17979825 -0.051550549 0.46469483
-0.17888069 -0.05152769 0.4644888
-0.17797592 -0.051508326 0.46431422
-0.17708258 -0.051492099 0.46416795
-0.17620054 -0.051479019 0.46405005
-0.17532898 -0.051468894 0.46395877
-0.17446651 -0.051461343 0.4638907
-0.17361434 -0.051456779 0.46384957
-0.1727704 -0.051454622 0.46383014
-0.17193569 -0.051455207 0.46383539
-0.17110826 -0.051457986 0.46386045
-0.17028932 -0.051463358 0.46390888
-0.16947716 -0.051470842 0.46397635
-0.16867271 -0.051480751 0.46406567
-0.16787522 -0.0514929 0.46417516
-0.16708453 -0.051507261 0.46430463
-0.16630039 -0.051523797 0.4644537
-0.16552208 -0.051542319 0.46462068
-0.16475092 -0.051563267 0.46480948
-0.1639854 -0.0515862 0.46501622
-0.1632255 -0.051611148 0.4652411
-0.16247192 -0.051638365 0.46548644
-0.16172376 -0.051667593 0.46574992
-0.16098085 -0.051698811 0.46603134
-0.16024353 -0.051732164 0.46633199
-0.15951125 -0.051767502 0.46665055
-0.15878405 -0.051804874 0.46698743
-0.1580613 -0.051844105 0.46734107
-0.15734312 -0.051885262 0.46771207
-0.15663019 -0.051928606 0.46810278
-0.15592059 -0.051973533 0.46850777
-0.15521562 -0.052020494 0.46893111
-0.15451477 -0.052069362 0.46937162
-0.15381843 -0.052120294 0.46983075
-0.15312834 -0.05217392 0.47031415
-0.15244395 -0.052230097 0.47082055
-0.1517674 -0.052289609 0.47135699
-0.15109926 -0.0523527 0.47192574
-0.15044221 -0.052420374 0.47253576
-0.14980027 -0.052494109 0.47320044
-0.14917219 -0.05257358 0.4739168
-0.14855757 -0.052658737 0.47468445
-0.14795732 -0.052750006 0.47550717
-0.14736734 -0.052846014 0.47637263
-0.14678323 -0.052945271 0.47726735
-0.14620326 -0.053047203 0.47818622
-0.14563033 -0.053152908 0.47913909
-0.14506851 -0.053263962 0.48014015
-0.14452508 -0.053383138 0.48121446
-0.14400914 -0.05351397 0.48239383
-0.14352912 -0.053659823 0.48370859
-0.14309366 -0.05382422 0.48519051
-0.14272225 -0.054014884 0.48690924
-0.1424197 -0.054234125 0.48888555
-0.14217512 -0.054478317 0.49108678
-0.14198689 -0.054747298 0.49351147
-0.14194949 -0.05507819 0.49649426
-0.19873559 -0.052162703 0.47798514
-0.19661048 -0.051829778 0.47493443
-0.1948911 -0.051601361 0.47284138
-0.19347771 -0.051452313 0.47147557
-0.19221498 -0.051342189 0.47046649
-0.19102776 -0.051251348 0.46963409
-0.18989031 -0.051173113 0.46891719
-0.18878512 -0.051102906 0.46827385
-0.18770596 -0.051039152 0.46768963
-0.18665017 -0.050981198 0.46715859
-0.18561582 -0.050928604 0.46667665
-0.18460098 -0.050880909 0.4662396
-0.18360588 -0.050838239 0.46584862
-0.18262851 -0.050800119 0.46549928
-0.18166712 -0.050766099 0.46518758
-0.18072237 -0.050736442 0.46491581
-0.17979163 -0.050710458 0.46467772
-0.17887394 -0.050687935 0.46447131
-0.17796977 -0.050669041 0.46429819
-0.17707631 -0.050653033 0.4641515
-0.17619467 -0.05064027 0.46403456
-0.17532319 -0.050630324 0.46394339
-0.17446136 -0.050623082 0.46387705
-0.17360891 -0.050618503 0.46383509
-0.17276496 -0.050616369 0.46381554
-0.17193006 -0.050616879 0.46382022
-0.17110267 -0.050619617 0.46384531
-0.17028384 -0.050624926 0.46389395
-0.1694718 -0.050632317 0.46396166
-0.16866772 -0.050642166 0.46405193
-0.16786984 -0.05065399 0.46416026
-0.1670793 -0.050668161 0.46429011
-0.16629462 -0.050684251 0.46443757
-0.165517 -0.050702676 0.4646064
-0.16474535 -0.050723121 0.46479374
-0.16397929 -0.05074551 0.4649989
-0.16322021 -0.050770298 0.46522602
-0.16246627 -0.050796948 0.46547025
-0.16171829 -0.050825752 0.46573418
-0.16097619 -0.050856706 0.46601781
-0.16023931 -0.050889648 0.46631968
-0.15950748 -0.050924554 0.46663955
-0.15878148 -0.050961696 0.46697989
-0.15806051 -0.051000856 0.46733874
-0.15734403 -0.051041897 0.46771482
-0.1566319 -0.051084798 0.46810791
-0.15592423 -0.051129624 0.46851867
-0.15522146 -0.051176559 0.46894875
-0.15452239 -0.05122523 0.46939474
-0.15382731 -0.051275771 0.46985787
-0.15313712 -0.051328506 0.47034112
-0.15245157 -0.051383398 0.47084409
-0.15177226 -0.051441018 0.47137207
-0.15110025 -0.051501777 0.47192883
-0.15043695 -0.05156621 0.47251925
-0.14978455 -0.051635131 0.47315082
-0.14914548 -0.051709466 0.47383195
-0.14852424 -0.051790874 0.47457793
-0.147918 -0.05187849 0.47538078
-0.14732724 -0.051972587 0.47624302
-0.14674713 -0.05207156 0.47714996
-0.14617372 -0.052174095 0.47808954
-0.14560477 -0.052279461 0.47905502
-0.14504337 -0.052388802 0.48005697
-0.14449541 -0.052504338 0.48111567
-0.14396814 -0.052628834 0.48225647
-0.14347509 -0.05276743 0.48352647
-0.14302309 -0.052922919 0.48495126
-0.14263 -0.053102244 0.48659447
-0.14231408 -0.053312704 0.48852301
-0.14207758 -0.053555723 0.49074987
-0.14190562 -0.053826272 0.493229
-0.14184108 -0.054141235 0.49611512
-0.19865392 -0.051279429 0.47778872
-0.19649257 -0.050942518 0.47464961
-0.19485325 -0.050738592 0.47274956
-0.19348869 -0.050604731 0.47150233
-0.19224375 -0.050501119 0.47053692
-0.19106099 -0.05041299 0.4697158
-0.18991934 -0.050334971 0.46898887
-0.18880904 -0.050264597 0.46833318
-0.18772367 -0.050200261 0.46773374
-0.18666105 -0.050141457 0.46718583
-0.18562293 -0.050088726 0.46669453
-0.18460639 -0.050041366 0.46625325
-0.18360922 -0.049998846 0.46585709
-0.18263079 -0.049961068 0.46550509
-0.18167028 -0.049927857 0.46519566
-0.18072486 -0.049898513 0.46492222
-0.17979375 -0.049872857 0.46468318
-0.17887713 -0.049851004 0.46447957
-0.1779719 -0.049832132 0.46430373
-0.17707901 -0.049816553 0.46415859
-0.17619681 -0.049803849 0.46404022
-0.17532463 -0.049793869 0.46394724
-0.17446302 -0.049786806 0.46388143
-0.17361021 -0.049782205 0.46383855
-0.17276636 -0.049780138 0.4638193
-0.17193128 -0.049780589 0.4638235
-0.17110382 -0.049783263 0.46384841
-0.17028494 -0.049788475 0.46389696
-0.16947298 -0.049795762 0.46396488
-0.16866885 -0.049805444 0.46405506
-0.16787103 -0.049817089 0.46416357
-0.16708057 -0.049831048 0.46429363
-0.16629615 -0.049846958 0.4644419
-0.16551872 -0.049865134 0.46461123
-0.16474664 -0.049885117 0.46479741
-0.16398138 -0.049907379 0.46500483
-0.16322163 -0.049931552 0.46523008
-0.16246755 -0.049957722 0.46547392
-0.16171969 -0.049986087 0.46573818
-0.16097713 -0.050016392 0.46602055
-0.16024005 -0.050048731 0.46632189
-0.15950945 -0.050083444 0.4666453
-0.15878356 -0.050120007 0.46698597
-0.1580627 -0.050158564 0.46734521
-0.15734753 -0.050199348 0.46772522
-0.15663731 -0.050242156 0.46812406
-0.15593144 -0.050286833 0.46854034
-0.1552301 -0.050333466 0.46897486
-0.15453289 -0.050381958 0.46942666
-0.15384036 -0.050432518 0.46989775
-0.15315099 -0.050484672 0.4703837
-0.15246637 -0.050538991 0.47088981
-0.15178666 -0.050595548 0.47141677
-0.15111227 -0.050654534 0.47196636
-0.15044536 -0.050716706 0.47254562
-0.14978741 -0.050782628 0.47315985
-0.1491406 -0.050853096 0.47381642
-0.14850794 -0.050929233 0.47452584
-0.14789279 -0.051012296 0.47529975
-0.14729539 -0.051102478 0.47614002
-0.14671436 -0.05119944 0.47704345
-0.14614515 -0.051301692 0.47799614
-0.14558347 -0.051407814 0.47898492
-0.14502655 -0.051516894 0.48000127
-0.1444784 -0.051630419 0.48105901
-0.14394504 -0.051750634 0.48217911
-0.14343871 -0.051882088 0.48340392
-0.14297503 -0.052030671 0.4847883
-0.14256211 -0.052199662 0.48636287
-0.14222562 -0.052398913 0.48821935
-0.14198457 -0.052636024 0.4904286
-0.14182842 -0.05290778 0.49296063
-0.14176674 -0.053218428 0.49585506
-0.19859299 -0.050402127 0.47764218
-0.19642584 -0.050069332 0.47448841
-0.1948643 -0.04988867 0.47277635
-0.19353177 -0.049765311 0.47160733
-0.19229244 -0.049664937 0.4706561
-0.19110723 -0.049577709 0.46982947
-0.18995768 -0.049498994 0.46908352
-0.18883786 -0.04942736 0.46840468
-0.18774602 -0.04936244 0.46778944
-0.18668035 -0.049303841 0.46723413
-0.18563865 -0.049251072 0.46673405
-0.18461989 -0.049203932 0.46628734
-0.18362248 -0.049162082 0.46589074
-0.18264394 -0.049124919 0.46553856
-0.18168208 -0.049091928 0.46522591
-0.18073681 -0.049063124 0.46495295
-0.17980562 -0.0490379 0.4647139
-0.17888738 -0.04901598 0.46450618
-0.17798194 -0.04899738 0.46432993
-0.1770881 -0.048981816 0.46418241
-0.17620492 -0.048969064 0.46406159
-0.17533234 -0.048959147 0.46396762
-0.17446992 -0.048951991 0.46389979
-0.1736165 -0.048947301 0.46385536
-0.17277254 -0.048945248 0.4638359
-0.17193711 -0.048945602 0.46383923
-0.17110956 -0.04894821 0.46386397
-0.17029062 -0.048953325 0.46391243
-0.16947885 -0.048960559 0.46398097
-0.16867465 -0.048970059 0.46407101
-0.16787738 -0.048981678 0.46418113
-0.16708687 -0.048995398 0.46431115
-0.16630328 -0.049011294 0.46446177
-0.16552556 -0.04902909 0.46463042
-0.16475435 -0.049049001 0.46481913
-0.16398902 -0.049070884 0.4650265
-0.16322933 -0.049094684 0.46525204
-0.162476 -0.04912065 0.46549812
-0.16172747 -0.049148351 0.46576062
-0.16098519 -0.049178243 0.46604389
-0.16024831 -0.049210113 0.46634591
-0.15951647 -0.049243867 0.4666658
-0.15879101 -0.049279969 0.46700791
-0.15807086 -0.049318109 0.46736935
-0.1573558 -0.049358252 0.46774977
-0.15664569 -0.049400389 0.4681491
-0.1559419 -0.049444996 0.46857181
-0.15524237 -0.049491435 0.4690119
-0.15454718 -0.049539782 0.46947005
-0.15385635 -0.049590062 0.46994656
-0.15316935 -0.049642146 0.47044012
-0.1524864 -0.049696125 0.47095168
-0.1518075 -0.049752038 0.47148153
-0.15113364 -0.049810242 0.47203311
-0.15046522 -0.049870908 0.47260803
-0.14980377 -0.049934592 0.47321153
-0.14915095 -0.050001897 0.47384936
-0.1485105 -0.050074145 0.47453403
-0.14788529 -0.050152402 0.47527564
-0.14727806 -0.050237704 0.47608399
-0.1466911 -0.050330967 0.47696781
-0.14612111 -0.050431181 0.47791752
-0.14556389 -0.050537016 0.47892049
-0.14501387 -0.050646633 0.47995928
-0.14446999 -0.050759729 0.48103103
-0.14393663 -0.050877903 0.48215094
-0.14342342 -0.051004685 0.48335239
-0.14294361 -0.051144958 0.48468173
-0.14251611 -0.051305797 0.48620594
-0.14215849 -0.051493943 0.48798892
-0.14190429 -0.051722124 0.49015132
-0.14175856 -0.051992949 0.49271783
-0.14171696 -0.052305628 0.49568096
-0.141984 -0.052736916 0.49976811
-0.19853905 -0.049527097 0.47751245
-0.19642144 -0.049212344 0.4744778
-0.19491915 -0.049049679 0.47290945
-0.19359867 -0.048931532 0.47177035
-0.19235662 -0.048832253 0.47081316
-0.19116236 -0.048744284 0.46996501
-0.19000213 -0.048664242 0.46919331
-0.18887377 -0.048591685 0.46849373
-0.18777646 -0.048526499 0.46786526
-0.18670683 -0.048467912 0.46730039
-0.1856636 -0.048415679 0.46679679
-0.18464398 -0.048369151 0.4663482
-0.18364547 -0.048327755 0.46594909
-0.18266621 -0.048291069 0.46559536
-0.18170367 -0.048258483 0.46528119
-0.1807569 -0.048229799 0.46500465
-0.17982383 -0.048204526 0.46476096
-0.17890449 -0.048182707 0.46455061
-0.17799751 -0.048164036 0.46437058
-0.17710178 -0.048148237 0.46421826
-0.17621773 -0.048135486 0.46409532
-0.17534426 -0.048125513 0.46399918
-0.17448047 -0.048118114 0.46392784
-0.17362632 -0.048113316 0.46388158
-0.17278193 -0.048111193 0.46386111
-0.17194605 -0.048111424 0.46386334
-0.17111836 -0.048113964 0.46388784
-0.17029937 -0.048118986 0.46393624
-0.16948779 -0.048126165 0.46400544
-0.16868369 -0.048135545 0.46409589
-0.16788702 -0.048147153 0.4642078
-0.16709684 -0.048160743 0.46433884
-0.16631398 -0.04817659 0.46449164
-0.16553685 -0.048194271 0.4646621
-0.16476645 -0.0482141 0.46485329
-0.16400139 -0.048235703 0.46506158
-0.16324277 -0.04825943 0.46529034
-0.16248925 -0.048284922 0.46553609
-0.16174208 -0.048312571 0.46580267
-0.16099964 -0.04834193 0.46608573
-0.16026278 -0.048373278 0.46638799
-0.15953158 -0.048406675 0.46671
-0.15880515 -0.048441887 0.46704948
-0.15808474 -0.048479319 0.46741039
-0.15737019 -0.048518959 0.46779257
-0.15666103 -0.048560698 0.46819496
-0.15595657 -0.048604351 0.46861586
-0.155258 -0.048650328 0.46905914
-0.15456432 -0.048698347 0.46952212
-0.1538755 -0.048748437 0.47000507
-0.15319112 -0.048800495 0.47050697
-0.15251045 -0.048854321 0.47102594
-0.15183389 -0.048910078 0.47156352
-0.15116099 -0.048967645 0.47211853
-0.15049289 -0.049027428 0.47269493
-0.14983046 -0.049089752 0.47329581
-0.14917524 -0.049155168 0.47392651
-0.14852877 -0.049224231 0.47459239
-0.14789519 -0.049298398 0.47530746
-0.14727825 -0.049379006 0.47608465
-0.14668174 -0.049467448 0.47693735
-0.14610554 -0.049563829 0.47786659
-0.14554916 -0.049668115 0.47887206
-0.14500509 -0.049777865 0.47993022
-0.14446744 -0.049891159 0.48102254
-0.1439373 -0.050008431 0.48215321
-0.14342231 -0.050132416 0.48334861
-0.14293432 -0.050267421 0.48465025
-0.14249223 -0.050420329 0.48612449
-0.1421162 -0.050598651 0.48784378
-0.14183985 -0.050814901 0.48992872
-0.14169972 -0.051082969 0.4925133
-0.14168662 -0.051400509 0.49557483
-0.14194237 -0.05182023 0.49962157
-0.1985105 -0.048658758 0.47744378
-0.19647649 -0.048370026 0.47461075
-0.19500549 -0.04821799 0.47311893
-0.1936847 -0.048101917 0.47198001
-0.19243325 -0.048002113 0.47100073
-0.19122565 -0.047912415 0.47012061
-0.19005539 -0.047831312 0.46932483
-0.18891977 -0.04775824 0.46860784
-0.18781643 -0.047692712 0.46796486
-0.1867446 -0.047634628 0.46739495
-0.18570024 -0.047583055 0.4668889
-0.18467897 -0.047536954 0.46643656
-0.18367904 -0.047495954 0.46603426
-0.18269712 -0.047459252 0.46567413
-0.18173254 -0.047426734 0.46535507
-0.18078339 -0.047397964 0.46507278
-0.17984815 -0.047372587 0.46482378
-0.17892602 -0.047350448 0.46460652
-0.17801663 -0.047331482 0.46442044
-0.17711943 -0.047315594 0.46426454
-0.17623344 -0.047302563 0.46413669
-0.1753581 -0.047292281 0.46403581
-0.17449288 -0.047284644 0.46396086
-0.1736383 -0.047279824 0.46391359
-0.17279308 -0.047277521 0.463891
-0.17195667 -0.047277626 0.46389201
-0.17112884 -0.047280096 0.46391624
-0.17030981 -0.047285035 0.4639647
-0.1694984 -0.047292147 0.4640345
-0.16869438 -0.047301404 0.46412531
-0.16789843 -0.047313027 0.46423936
-0.1671093 -0.047326691 0.46437344
-0.16632678 -0.047342382 0.4645274
-0.16555111 -0.047360189 0.46470213
-0.16478103 -0.047379788 0.46489444
-0.16401775 -0.047401551 0.46510798
-0.16325971 -0.047425061 0.46533865
-0.1625077 -0.047450569 0.46558893
-0.16176061 -0.047477789 0.46585605
-0.16101958 -0.047507081 0.46614343
-0.16028313 -0.047538042 0.46644723
-0.15955199 -0.04757091 0.46676975
-0.15882689 -0.047605939 0.46711344
-0.15810613 -0.047642648 0.46747363
-0.1573911 -0.047681484 0.46785471
-0.1566813 -0.047722336 0.46825555
-0.15597793 -0.047765601 0.46868005
-0.1552795 -0.047810853 0.46912408
-0.15458627 -0.047858212 0.46958879
-0.1538987 -0.047907863 0.47007594
-0.15321611 -0.047959615 0.47058374
-0.15253812 -0.048013393 0.47111142
-0.15186405 -0.048069015 0.47165719
-0.15119386 -0.048126496 0.4722212
-0.15052697 -0.048185688 0.47280198
-0.14986512 -0.048247173 0.4734053
-0.14920889 -0.048311189 0.47403342
-0.14856033 -0.048378438 0.47469327
-0.14792071 -0.048449393 0.47538948
-0.14729546 -0.048525911 0.47614029
-0.14668824 -0.048609298 0.47695848
-0.14610401 -0.048701335 0.47786155
-0.14554238 -0.048802044 0.47884974
-0.14500052 -0.048910622 0.47991508
-0.14446984 -0.049024299 0.48103052
-0.14394635 -0.049141809 0.48218352
-0.14343369 -0.049264457 0.48338696
-0.14294046 -0.04939533 0.48467109
-0.14248621 -0.049541358 0.48610395
-0.14209589 -0.049711563 0.48777401
-0.14179718 -0.049916144 0.48978138
-0.14165038 -0.050177094 0.49234182
-0.14166677 -0.05049951 0.49550539
-0.14194204 -0.050918892 0.49962041
-0.19853649 -0.047803797 0.47750628
-0.1965766 -0.047538131 0.47485259
-0.19511604 -0.047391426 0.47338715
-0.1937874 -0.047275607 0.47223026
-0.19252217 -0.047174305 0.47121838
-0.19129905 -0.047082473 0.47030106
-0.19011824 -0.047000274 0.46948001
-0.18897586 -0.04692689 0.46874696
-0.18786924 -0.046861764 0.46809644
-0.18679409 -0.046803933 0.46751878
-0.18574771 -0.046752825 0.46700826
-0.18472418 -0.046707027 0.46655077
-0.18372102 -0.046665981 0.46614078
-0.18273591 -0.046629161 0.46577299
-0.18176739 -0.046596259 0.46544433
-0.18081439 -0.046567045 0.46515253
-0.17987612 -0.046541374 0.46489608
-0.17895108 -0.0465189 0.46467161
-0.17803892 -0.046499576 0.46447858
-0.17713925 -0.046483353 0.46431652
-0.17625159 -0.046470135 0.46418449
-0.17537549 -0.046459857 0.46408182
-0.17451005 -0.046452314 0.46400648
-0.17365487 -0.046447448 0.46395788
-0.17280932 -0.046445116 0.4639346
-0.17197268 -0.046445176 0.4639352
-0.17114468 -0.046447579 0.46395919
-0.17032529 -0.046452351 0.46400687
-0.16951369 -0.046459306 0.46407634
-0.16870959 -0.046468399 0.46416715
-0.16791327 -0.046479732 0.46428037
-0.16712436 -0.046493243 0.46441531
-0.16634203 -0.046508729 0.46457002
-0.1655668 -0.046526365 0.46474618
-0.1647982 -0.046546057 0.46494287
-0.16403551 -0.046567626 0.46515831
-0.16327952 -0.04659133 0.46539509
-0.16252846 -0.046616688 0.46564838
-0.16178323 -0.046643998 0.46592119
-0.16104302 -0.046673045 0.46621132
-0.16030811 -0.046703938 0.46651992
-0.15957803 -0.046736572 0.4668459
-0.15885307 -0.046771064 0.46719044
-0.15813375 -0.046807591 0.46755528
-0.15741874 -0.046845794 0.4679369
-0.15670928 -0.046886064 0.46833917
-0.15600547 -0.046928473 0.46876279
-0.15530722 -0.046973031 0.46920785
-0.15461405 -0.047019612 0.46967316
-0.15392682 -0.047068533 0.47016183
-0.15324587 -0.047119923 0.47067514
-0.15256919 -0.047173206 0.47120738
-0.15189756 -0.047228653 0.47176126
-0.15123022 -0.047286067 0.47233474
-0.150567 -0.04734543 0.47292769
-0.14990669 -0.04740639 0.47353664
-0.14925101 -0.047469519 0.47416723
-0.14860156 -0.047535371 0.47482499
-0.14795984 -0.047604471 0.47551525
-0.1473282 -0.047677636 0.47624609
-0.14671259 -0.047756884 0.47703767
-0.14611693 -0.047843598 0.47790384
-0.14554758 -0.047940005 0.47886685
-0.14500274 -0.048045684 0.47992244
-0.14447725 -0.048159081 0.48105517
-0.14396161 -0.048277155 0.4822346
-0.14345428 -0.048399467 0.48345637
-0.14296193 -0.048528362 0.48474386
-0.1425005 -0.048669405 0.48615274
-0.14209612 -0.048831791 0.48777479
-0.14177901 -0.049026389 0.48971859
-0.14161432 -0.049276456 0.4922165
-0.14166114 -0.049603742 0.49548572
-0.14197727 -0.050030082 0.49974439
-0.19863878 -0.046966653 0.4777523
-0.19671375 -0.046714157 0.47518387
-0.19525211 -0.046569977 0.47371724
-0.19390689 -0.046452418 0.47252142
-0.19262153 -0.046348225 0.47146156
-0.19138405 -0.04625468 0.47051001
-0.19019328 -0.046171643 0.46966532
-0.18904497 -0.046098214 0.46891841
-0.18793392 -0.046033252 0.46825761
-0.18685612 -0.045975886 0.46767405
-0.18580574 -0.045924775 0.46715415
-0.18477735 -0.04587866 0.46668506
-0.18376972 -0.045837298 0.46626434
-0.18278013 -0.045800079 0.46588573
-0.18180698 -0.045766652 0.46554571
-0.18084911 -0.045736782 0.46524185
-0.17990695 -0.045710623 0.46497577
-0.17897959 -0.045687996 0.46474561
-0.17806625 -0.045668758 0.4645499
-0.17716661 -0.045652863 0.46438822
-0.17627923 -0.045639992 0.4642573
-0.17540361 -0.045630056 0.46415621
-0.17453815 -0.045622684 0.46408123
-0.17368306 -0.04561796 0.46403319
-0.17283759 -0.045615733 0.46401051
-0.17200087 -0.045615803 0.46401125
-0.17117274 -0.045618162 0.46403524
-0.17035265 -0.045622703 0.46408141
-0.16954026 -0.045629356 0.46414909
-0.16873519 -0.045638055 0.4642376
-0.16793783 -0.045648936 0.46434829
-0.16714804 -0.045661997 0.46448112
-0.16636486 -0.045677006 0.46463379
-0.16558899 -0.04569418 0.46480849
-0.16481967 -0.045713346 0.46500346
-0.16405739 -0.04573467 0.46522036
-0.16330105 -0.045757879 0.46545646
-0.16255185 -0.045783337 0.46571541
-0.1618077 -0.045810491 0.46599165
-0.16106975 -0.045839693 0.46628869
-0.16033641 -0.04587052 0.46660227
-0.15960838 -0.045903198 0.46693468
-0.15888466 -0.045937475 0.46728334
-0.15816617 -0.045973636 0.46765116
-0.15745242 -0.046011567 0.46803701
-0.15674354 -0.046051338 0.46844158
-0.15603998 -0.04609311 0.4688665
-0.15534206 -0.046137013 0.46931309
-0.15464884 -0.046182804 0.46977887
-0.15396184 -0.046230968 0.47026879
-0.15328099 -0.046281517 0.470783
-0.15260527 -0.046334188 0.47131878
-0.15193547 -0.046389259 0.47187898
-0.15127042 -0.046446409 0.4724603
-0.15060987 -0.046505593 0.47306234
-0.14995296 -0.046566591 0.47368279
-0.14929959 -0.046629384 0.47432154
-0.14865093 -0.046694383 0.47498274
-0.14800876 -0.046762191 0.47567248
-0.14737509 -0.046833482 0.47639766
-0.14675318 -0.046909373 0.47716963
-0.14614804 -0.046991553 0.47800559
-0.14556822 -0.047082897 0.47893476
-0.14501634 -0.047184423 0.47996747
-0.14448997 -0.047295518 0.48109758
-0.14398283 -0.047414288 0.48230571
-0.14348307 -0.047536947 0.48355341
-0.14299478 -0.047664929 0.48485526
-0.1425299 -0.047802337 0.48625299
-0.14211625 -0.047958735 0.48784393
-0.14178638 -0.048145533 0.48974404
-0.14160332 -0.048384834 0.49217826
-0.14167114 -0.048713423 0.49552071
-0.19882812 -0.046148825 0.47820768
-0.19689247 -0.04589868 0.47561559
-0.19540954 -0.045752343 0.47409922
-0.19404157 -0.045631751 0.47284961
-0.19273511 -0.045524627 0.47173956
-0.19148262 -0.045429356 0.47075233
-0.19028154 -0.045345489 0.46988326
-0.18912768 -0.045272175 0.46912357
-0.18801264 -0.045207534 0.46845374
-0.18692949 -0.045150012 0.46785769
-0.1858727 -0.045098368 0.46732253
-0.18483856 -0.045051768 0.46683964
-0.18382464 -0.045009695 0.46640369
-0.18282896 -0.044971719 0.46601018
-0.18185073 -0.044937707 0.46565774
-0.18089016 -0.044907767 0.46534747
-0.17994694 -0.044881873 0.46507913
-0.1790197 -0.044859741 0.4648498
-0.17810689 -0.044841029 0.46465591
-0.1772088 -0.044825867 0.46449879
-0.1763224 -0.044813532 0.46437097
-0.17544824 -0.044804204 0.46427432
-0.17458376 -0.044797271 0.46420249
-0.17372936 -0.044792872 0.4641569
-0.17288433 -0.044790857 0.464136
-0.17204776 -0.044791024 0.46413776
-0.17121904 -0.044793244 0.46416077
-0.17039801 -0.04479751 0.46420497
-0.16958427 -0.044803746 0.46426958
-0.16877744 -0.044811878 0.46435383
-0.16797851 -0.044822197 0.46446076
-0.16718644 -0.044834457 0.46458781
-0.16640118 -0.04484868 0.46473518
-0.16562331 -0.044865049 0.46490481
-0.16485198 -0.044883363 0.4650946
-0.16408783 -0.044903833 0.4653067
-0.16333041 -0.04492636 0.46554014
-0.16258006 -0.044951074 0.46579623
-0.16183662 -0.04497797 0.46607494
-0.16109887 -0.045006733 0.466373
-0.16036755 -0.045037605 0.46669289
-0.15964125 -0.04507022 0.46703085
-0.15891999 -0.045104615 0.46738726
-0.15820289 -0.045140557 0.4677597
-0.15749103 -0.045178391 0.46815175
-0.15678346 -0.045217872 0.46856087
-0.15608069 -0.045259174 0.46898884
-0.15538345 -0.045302533 0.46943814
-0.15469095 -0.045347758 0.46990678
-0.15400366 -0.04539502 0.47039652
-0.15332286 -0.045444727 0.47091159
-0.15264781 -0.045496698 0.47145015
-0.15197925 -0.045551203 0.47201496
-0.15131553 -0.045607779 0.47260121
-0.15065707 -0.04566659 0.47321063
-0.15000345 -0.045727547 0.47384226
-0.14935355 -0.045790344 0.474493
-0.14870735 -0.045855004 0.47516301
-0.14806604 -0.045921933 0.47585657
-0.14743154 -0.045991763 0.47658017
-0.14680633 -0.046065331 0.47734249
-0.14619556 -0.046144322 0.47816101
-0.14560515 -0.046230715 0.47905624
-0.14504282 -0.04632711 0.48005512
-0.14451185 -0.046434741 0.48117042
-0.14400803 -0.046552442 0.48239008
-0.14351907 -0.046676416 0.48367473
-0.14303869 -0.046804707 0.48500413
-0.14257546 -0.04694023 0.48640844
-0.14215496 -0.047091585 0.48797682
-0.14181465 -0.04727155 0.48984167
-0.14161715 -0.047501676 0.4922263
-0.14170229 -0.047830112 0.49562967
-0.19909766 -0.045347624 0.47885597
-0.19710228 -0.045088757 0.47612244
-0.19559275 -0.04493925 0.47454369
-0.19419476 -0.044814177 0.47322294
-0.19286422 -0.044703629 0.47205558
-0.19159605 -0.044606619 0.47103122
-0.19038486 -0.044522073 0.47013843
-0.189225 -0.044448826 0.46936497
-0.18810335 -0.044383936 0.46867976
-0.187013 -0.044325881 0.46806669
-0.1859484 -0.044273429 0.46751285
-0.18490647 -0.04422592 0.46701115
-0.18388477 -0.044182841 0.46655625
-0.18288375 -0.044144355 0.46614984
-0.18190359 -0.044110566 0.46579307
-0.18094321 -0.044081293 0.46548393
-0.18000136 -0.044056278 0.4652198
-0.17907649 -0.044035204 0.46499726
-0.17816658 -0.044017624 0.46481162
-0.17727138 -0.044003531 0.46466282
-0.17638688 -0.043991975 0.46454078
-0.17551519 -0.043983519 0.46445149
-0.1746524 -0.04397722 0.46438497
-0.17379843 -0.043973099 0.46434143
-0.17295383 -0.043971315 0.4643226
-0.17211702 -0.043971501 0.46432459
-0.17128752 -0.043973569 0.46434641
-0.17046526 -0.043977521 0.46438816
-0.16964979 -0.043983281 0.46444896
-0.16884103 -0.043990843 0.4645288
-0.16803969 -0.044000417 0.46462992
-0.16724472 -0.044011768 0.46474978
-0.16645582 -0.04402484 0.4648878
-0.16567501 -0.044040196 0.46504995
-0.16490018 -0.044057298 0.46523058
-0.16413304 -0.044076648 0.46543488
-0.16337201 -0.044097845 0.46565872
-0.16261943 -0.044121549 0.46590903
-0.16187367 -0.044147365 0.46618164
-0.16113465 -0.044175293 0.46647656
-0.16040276 -0.044205487 0.46679538
-0.15967713 -0.044237729 0.46713585
-0.15895775 -0.04427205 0.46749827
-0.15824318 -0.044308092 0.46787885
-0.15753347 -0.044345886 0.46827793
-0.15682824 -0.044385351 0.46869469
-0.15612705 -0.044426396 0.46912813
-0.15543069 -0.044469271 0.46958086
-0.15473931 -0.044514045 0.47005367
-0.15405282 -0.044560734 0.47054666
-0.15337153 -0.044609446 0.47106108
-0.15269716 -0.044660732 0.47160262
-0.15202881 -0.044714358 0.47216889
-0.15136659 -0.044770401 0.47276068
-0.15070993 -0.044828732 0.47337663
-0.15005893 -0.04488942 0.4740175
-0.14941193 -0.044952013 0.47467846
-0.1487699 -0.045016825 0.47536287
-0.14813092 -0.045083325 0.47606507
-0.14749742 -0.045152269 0.47679311
-0.14687127 -0.045224294 0.47755364
-0.1462568 -0.045300782 0.47836134
-0.14565903 -0.045383375 0.4792335
-0.14508572 -0.04547463 0.4801971
-0.14454758 -0.045578066 0.48128936
-0.14404204 -0.045693096 0.48250404
-0.14356089 -0.045817308 0.48381567
-0.14309107 -0.045946673 0.48518172
-0.14263517 -0.046082128 0.48661211
-0.14221179 -0.046229843 0.48817191
-0.14186558 -0.04640463 0.49001759
-0.1416589 -0.046627536 0.49237144
-0.14175855 -0.046954725 0.49582642
-0.19951372 -0.044576816 0.47985664
-0.1973505 -0.044285625 0.47672203
-0.19580008 -0.044129994 0.47504672
-0.19436947 -0.044000123 0.47364867
-0.19301312 -0.043885987 0.47242004
-0.19172846 -0.043787207 0.47135672
-0.19050692 -0.043702032 0.47043982
-0.18933731 -0.043628059 0.46964353
-0.18820693 -0.043562502 0.46893781
-0.187107 -0.043503433 0.46830195
-0.18603303 -0.04344989 0.46772557
-0.184981 -0.04340101 0.46719941
-0.18395373 -0.043357514 0.46673119
-0.18295078 -0.043319382 0.46632069
-0.18197183 -0.043286603 0.46596783
-0.18101434 -0.043258648 0.46566692
-0.18007626 -0.043235093 0.46541336
-0.17915489 -0.043215349 0.46520081
-0.17824987 -0.043199379 0.46502891
-0.17735705 -0.043186232 0.46488738
-0.17647545 -0.043175705 0.46477407
-0.17560431 -0.043167647 0.46468732
-0.17474298 -0.043161936 0.46462584
-0.17388952 -0.043158121 0.4645848
-0.17304374 -0.043156188 0.46456397
-0.17220646 -0.043156363 0.46456587
-0.17137602 -0.043158263 0.46458632
-0.1705524 -0.04316191 0.46462557
-0.16973528 -0.043167245 0.464683
-0.16892526 -0.043174446 0.46476051
-0.1681214 -0.043183301 0.46485585
-0.16732371 -0.043193839 0.46496928
-0.16653183 -0.043205991 0.46510011
-0.1657474 -0.043220211 0.46525314
-0.16496794 -0.043235872 0.46542174
-0.16419686 -0.043253906 0.46561587
-0.16343167 -0.043273684 0.46582878
-0.16267437 -0.043295763 0.46606645
-0.1619246 -0.043320086 0.46632829
-0.16118254 -0.04334674 0.46661523
-0.16044749 -0.043375567 0.46692553
-0.15972041 -0.043406866 0.46726245
-0.15900038 -0.043440424 0.46762368
-0.158287 -0.043476161 0.4680084
-0.15757892 -0.043513749 0.468413
-0.15687652 -0.043553319 0.46883896
-0.15617763 -0.043594297 0.46928009
-0.15548347 -0.043637048 0.4697403
-0.15479377 -0.043681532 0.47021914
-0.1541083 -0.0437277 0.47071612
-0.15342791 -0.04377583 0.47123426
-0.15275387 -0.043826319 0.47177774
-0.15208572 -0.043879077 0.47234565
-0.15142402 -0.043934293 0.47294006
-0.15076917 -0.043992139 0.47356275
-0.15011959 -0.044052187 0.47420913
-0.14947554 -0.04411456 0.47488058
-0.14883667 -0.044179182 0.47557622
-0.14820193 -0.044245791 0.47629324
-0.14757086 -0.04431428 0.47703052
-0.14694536 -0.044385251 0.4777945
-0.14633039 -0.044460263 0.47860196
-0.14572752 -0.044539865 0.47945887
-0.14514637 -0.044627093 0.48039785
-0.14459801 -0.044725507 0.48145726
-0.14408672 -0.044836652 0.48265368
-0.14361072 -0.044960193 0.48398358
-0.14315321 -0.04509107 0.48539242
-0.14270641 -0.045226954 0.48685518
-0.14228687 -0.045373209 0.48842958
-0.14193556 -0.045543183 0.49025929
-0.1417242 -0.045760479 0.49259841
-0.14184393 -0.046088088 0.49612504
-0.19764374 -0.043490235 0.47743037
-0.19604054 -0.043326247 0.47563013
-0.19456761 -0.04318973 0.47413149
-0.19318092 -0.043071244 0.47283074
-0.191879 -0.042970687 0.47172683
-0.19064616 -0.042884767 0.47078365
-0.18946484 -0.042809729 0.46995986
-0.18832204 -0.042742755 0.46922463
-0.18721019 -0.04268223 0.46856022
-0.18612464 -0.042627186 0.46795592
-0.18506598 -0.042577825 0.46741405
-0.18403696 -0.042534858 0.46694237
-0.18303613 -0.042498045 0.46653825
-0.18206051 -0.042466771 0.46619493
-0.18110757 -0.042440519 0.46590674
-0.18017475 -0.042418763 0.4656679
-0.17925845 -0.04240071 0.46546972
-0.17835523 -0.042385597 0.46530381
-0.17746362 -0.042373113 0.46516675
-0.17658363 -0.042363297 0.46505898
-0.17571202 -0.042355403 0.46497235
-0.17485039 -0.042349856 0.46491143
-0.17399657 -0.042346153 0.46487078
-0.17315015 -0.042344227 0.46484965
-0.17231104 -0.042344075 0.46484798
-0.17147945 -0.042345781 0.46486673
-0.17065471 -0.042349204 0.46490431
-0.16983654 -0.042354297 0.46496019
-0.16902469 -0.042361028 0.4650341
-0.16821873 -0.042369306 0.46512496
-0.16741878 -0.042379189 0.46523345
-0.16662537 -0.042390838 0.46536133
-0.16583747 -0.042404011 0.46550596
-0.16505565 -0.042418879 0.46566918
-0.16428021 -0.042435553 0.4658522
-0.16351099 -0.042454012 0.46605486
-0.16274787 -0.042474255 0.46627706
-0.16199315 -0.042496905 0.46652573
-0.16124585 -0.042521752 0.46679851
-0.1605064 -0.042548943 0.46709698
-0.1597753 -0.042578645 0.46742305
-0.15905237 -0.04261085 0.4677766
-0.15833765 -0.042645607 0.46815816
-0.15762946 -0.042682506 0.46856326
-0.15692873 -0.042721838 0.46899503
-0.1562327 -0.042762883 0.46944559
-0.15554111 -0.042805593 0.46991447
-0.1548536 -0.042849898 0.47040084
-0.15417014 -0.042895824 0.47090501
-0.1534916 -0.042943634 0.47142988
-0.15281832 -0.042993452 0.47197679
-0.15215054 -0.043045394 0.47254696
-0.15148886 -0.043099649 0.47314256
-0.15083478 -0.043156695 0.47376883
-0.15018664 -0.043216098 0.47442096
-0.14954536 -0.043278169 0.47510237
-0.14890979 -0.04334262 0.47580987
-0.14827885 -0.043409172 0.47654048
-0.14765191 -0.043477677 0.47729251
-0.14702874 -0.043548103 0.47806564
-0.14641343 -0.0436217 0.47887358
-0.14580961 -0.043699615 0.47972894
-0.14522254 -0.043783512 0.48064995
-0.14466417 -0.043877121 0.48167756
-0.14414605 -0.043984141 0.48285243
-0.14366907 -0.044105094 0.48418024
-0.14322442 -0.044237509 0.48563388
-0.1427888 -0.044374365 0.48713627
-0.14237787 -0.044520631 0.48874196
-0.14202736 -0.044687737 0.49057642
-0.14181766 -0.044901513 0.49292323
-0.14196587 -0.045232028 0.49655157
-0.19799215 -0.042704187 0.47827199
-0.19631559 -0.042527884 0.47629744
-0.19479431 -0.04238382 0.47468397
-0.19337659 -0.042261109 0.47330967
-0.19205213 -0.042157784 0.47215247
-0.19080311 -0.042070173 0.47117126
-0.1896069 -0.041993476 0.47031227
-0.18845031 -0.041924898 0.46954423
-0.18732381 -0.041862428 0.46884459
-0.18622799 -0.041806284 0.46821576
-0.18516652 -0.041757371 0.46766797
-0.18413839 -0.041715562 0.46719971
-0.18314244 -0.041680694 0.46680921
-0.18217316 -0.041651599 0.46648338
-0.1812257 -0.041627251 0.46621066
-0.18029593 -0.041606754 0.4659811
-0.17938077 -0.041589454 0.46578735
-0.17847818 -0.041574918 0.46562454
-0.17758732 -0.041562989 0.46549097
-0.17670582 -0.041553151 0.46538079
-0.17583402 -0.041545507 0.46529517
-0.17497018 -0.04153968 0.46522993
-0.17411467 -0.041535791 0.46518636
-0.17326736 -0.041533824 0.4651643
-0.17242737 -0.041533601 0.4651618
-0.1715939 -0.041534953 0.46517697
-0.17076758 -0.04153806 0.46521175
-0.16994815 -0.04154288 0.46526575
-0.16913457 -0.041549191 0.46533641
-0.1683273 -0.041557115 0.46542516
-0.1675261 -0.041566625 0.46553171
-0.16673088 -0.041577727 0.46565601
-0.16594097 -0.04159027 0.4657965
-0.16515745 -0.041604549 0.46595642
-0.16437866 -0.041620173 0.46613139
-0.16360681 -0.041637722 0.46632794
-0.16284037 -0.041656837 0.46654204
-0.16208017 -0.041677754 0.46677631
-0.16132766 -0.041700881 0.46703532
-0.16058215 -0.041726071 0.46731743
-0.1598458 -0.041753918 0.46762928
-0.15911791 -0.041784279 0.46796933
-0.15839899 -0.041817334 0.46833953
-0.15768832 -0.041852932 0.46873823
-0.15698622 -0.041891199 0.46916682
-0.1562915 -0.041931868 0.46962225
-0.15560263 -0.041974552 0.47010031
-0.15491822 -0.042018916 0.47059718
-0.1542373 -0.042064719 0.47111017
-0.15356116 -0.042112339 0.47164351
-0.15288948 -0.042161722 0.47219658
-0.15222307 -0.04221312 0.47277221
-0.15156218 -0.042266637 0.4733716
-0.15090795 -0.042322628 0.47399864
-0.1502613 -0.042381391 0.47465679
-0.14962213 -0.042442951 0.47534624
-0.14898917 -0.042506997 0.47606352
-0.14836179 -0.042573381 0.476807
-0.14773911 -0.0426419 0.47757441
-0.14711991 -0.042712234 0.47836208
-0.14650694 -0.042785209 0.47917941
-0.14590205 -0.042861436 0.4800331
-0.14531262 -0.042943131 0.48094809
-0.14474712 -0.043032929 0.48195377
-0.14422078 -0.043135524 0.4831028
-0.14374214 -0.043253716 0.4844265
-0.14330423 -0.043385681 0.48590448
-0.14288452 -0.043524824 0.48746285
-0.14248519 -0.043671932 0.48911038
-0.14213867 -0.04383716 0.4909609
-0.14193629 -0.044049192 0.49333557
-0.14215083 -0.044394106 0.49719849
-0.19841066 -0.041929923 0.47928298
-0.1966351 -0.041736551 0.47707263
-0.19505504 -0.041583162 0.4753193
-0.19359757 -0.041454669 0.47385055
-0.19224745 -0.041348122 0.47263265
-0.19097964 -0.04125841 0.47160718
-0.18976593 -0.041179631 0.4707067
-0.18859249 -0.041108925 0.46989852
-0.18745011 -0.041044381 0.46916074
-0.18634781 -0.040988069 0.46851704
-0.18528652 -0.040940303 0.46797106
-0.18426311 -0.04090051 0.46751618
-0.1832725 -0.04086766 0.4671407
-0.1823072 -0.040840182 0.46682662
-0.18136248 -0.040817078 0.46656251
-0.18043417 -0.040797472 0.4663384
-0.17951931 -0.040780731 0.46614707
-0.17861612 -0.0407665 0.4659844
-0.17772277 -0.040754393 0.465846
-0.17683972 -0.040744547 0.46573344
-0.17596523 -0.040736582 0.46564239
-0.17509983 -0.040730655 0.46557468
-0.17424235 -0.040726524 0.46552745
-0.17339243 -0.040724128 0.46550006
-0.1725502 -0.040723525 0.46549317
-0.17171553 -0.04072471 0.4655067
-0.17088751 -0.040727492 0.4655385
-0.17006683 -0.040732056 0.46559069
-0.16925216 -0.040738113 0.46565992
-0.16844395 -0.040745791 0.46574768
-0.16764206 -0.040755086 0.46585393
-0.16684538 -0.040765747 0.46597579
-0.16605479 -0.040778011 0.46611598
-0.16526954 -0.04079172 0.46627265
-0.16448981 -0.040806934 0.46644658
-0.16371514 -0.040823568 0.46663672
-0.16294694 -0.040842 0.46684739
-0.16218373 -0.040861875 0.46707457
-0.16142663 -0.040883508 0.46732187
-0.16067609 -0.040907037 0.46759081
-0.15993372 -0.040932905 0.46788648
-0.1591996 -0.040961169 0.46820956
-0.15847446 -0.040992063 0.46856269
-0.15775956 -0.041025944 0.46894997
-0.15705432 -0.04106272 0.46937037
-0.15635803 -0.041102245 0.46982217
-0.15566941 -0.041144229 0.47030205
-0.15498742 -0.041188437 0.47080737
-0.1543099 -0.041234326 0.47133189
-0.15363659 -0.041281853 0.47187516
-0.15296741 -0.041331027 0.47243726
-0.1523027 -0.041381966 0.47301951
-0.15164314 -0.041434884 0.47362441
-0.15099007 -0.04149019 0.47425658
-0.15034431 -0.041548144 0.47491902
-0.1497065 -0.041608971 0.47561431
-0.14907551 -0.041672405 0.4763394
-0.14845137 -0.041738503 0.47709495
-0.14783265 -0.041806899 0.47787675
-0.147218 -0.041877262 0.47868103
-0.1466084 -0.041949894 0.47951126
-0.14600541 -0.042025294 0.48037311
-0.14541483 -0.04210519 0.48128638
-0.14484578 -0.042192318 0.48228228
-0.14431119 -0.042290591 0.48340562
-0.14382933 -0.042405609 0.48472035
-0.14339542 -0.042536259 0.48621374
-0.14299381 -0.042678151 0.48783568
-0.14260897 -0.042826843 0.4895353
-0.14227507 -0.042992774 0.49143198
-0.14209072 -0.043206271 0.49387234
-0.14240691 -0.043575615 0.49809417
-0.19895656 -0.041178375 0.48060167
-0.19701067 -0.040954076 0.47798383
-0.19535874 -0.040789187 0.47605938
-0.19384895 -0.040652651 0.47446582
-0.1924701 -0.040542483 0.47318003
-0.19117831 -0.040449753 0.47209775
-0.18994321 -0.040368244 0.47114646
-0.18874764 -0.040294442 0.47028509
-0.187594 -0.040228959 0.46952084
-0.18648754 -0.040173054 0.46886835
-0.18542722 -0.040126618 0.46832639
-0.18441041 -0.04008922 0.4678899
-0.18342327 -0.040057953 0.46752501
-0.18246105 -0.040031873 0.46722057
-0.18151711 -0.040009573 0.46696031
-0.18058725 -0.039990183 0.46673402
-0.17967001 -0.039973423 0.4665384
-0.17876405 -0.039959021 0.46637034
-0.17786844 -0.039946813 0.46622786
-0.17698167 -0.039936483 0.46610728
-0.17610461 -0.03992825 0.4660112
-0.17523539 -0.039921731 0.46593511
-0.17437537 -0.039917253 0.46588284
-0.17352314 -0.039914522 0.46585098
-0.17267895 -0.039913628 0.46584052
-0.17184252 -0.039914519 0.46585095
-0.17101298 -0.039917037 0.4658803
-0.17019081 -0.039921302 0.4659301
-0.16937497 -0.039927103 0.46599782
-0.16856568 -0.039934512 0.46608427
-0.16776288 -0.039943542 0.46618965
-0.16696613 -0.039954111 0.466313
-0.16617498 -0.039966132 0.46645334
-0.16538939 -0.039979622 0.46661076
-0.16460896 -0.039994504 0.46678445
-0.16383369 -0.040010799 0.46697465
-0.16306354 -0.04002852 0.46718144
-0.16229877 -0.04004775 0.46740589
-0.16153947 -0.040068537 0.46764851
-0.16078593 -0.040090978 0.46791044
-0.1600389 -0.040115293 0.46819422
-0.15929943 -0.040141765 0.46850318
-0.15856791 -0.040170535 0.46883896
-0.1578465 -0.040202193 0.46920842
-0.15713499 -0.040236726 0.46961147
-0.15643451 -0.040274464 0.47005194
-0.15574414 -0.040315241 0.47052783
-0.1550623 -0.040358681 0.47103485
