# .PCD v0.7 - Point Cloud Data file format
VERSION 0.7
FIELDS x y z
SIZE 4 4 4
TYPE F F F
COUNT 1 1 1
WIDTH 87
HEIGHT 1
VIEWPOINT 0 0 0 1 0 0 0
POINTS 87
DATA ascii
-0.16633806 -0.019960567 0.49181303
-0.16747479 -0.019884869 0.48994792
-0.17709133 -0.019873092 0.4896577
-0.17893149 -0.02066285 0.48745221
-0.16388378 -0.020761557 0.48978078
-0.18807052 -0.02422454 0.48835149
-0.14977857 -0.029602256 0.48987997
-0.15946427 -0.022528192 0.48977414
-0.14936349 -0.029155035 0.49732453
-0.15872656 -0.027247338 0.4795382
-0.15974598 -0.022049446 0.49893188
-0.16924131 -0.023806322 0.47992048
-0.16208792 -0.021102859 0.49783236
-0.17948152 -0.02465168 0.47952509
-0.18810432 -0.028107543 0.47945648
-0.19078863 -0.025996603 0.48854464
-0.17955285 -0.030280884 0.47287884
-0.16986652 -0.030226873 0.47203538
-0.19679758 -0.032872647 0.48597404
-0.14934096 -0.035928406 0.47995389
-0.14832053 -0.031106737 0.49985614
-0.15356268 -0.030712536 0.47961968
-0.14891955 -0.030490948 0.489961
-0.15893623 -0.037720867 0.469928
-0.18968588 -0.03139925 0.47690964
-0.19664407 -0.038464442 0.47919151
-0.15040042 -0.030255478 0.48617721
-0.16983235 -0.033458244 0.46958661
-0.17914928 -0.034305181 0.46958518
-0.18775769 -0.039416399 0.46993053
-0.19895656 -0.041178375 0.48060167
-0.18994321 -0.040368244 0.47114646
-0.14284027 -0.04280702 0.49960992
-0.15043603 -0.040716305 0.47520876
-0.14179718 -0.049916144 0.48978138
-0.15385635 -0.049590062 0.46994656
-0.14500509 -0.049777865 0.47993022
-0.19116236 -0.048744284 0.46996501
-0.16925216 -0.040738113 0.46565992
-0.17951931 -0.040780731 0.46614707
-0.18995768 -0.049498994 0.46908352
-0.19115552 -0.054676414 0.4699482
-0.14672458 -0.059295777 0.4798913
-0.14292273 -0.059964426 0.49989837
-0.15031908 -0.059528071 0.47483933
-0.14351782 -0.059615098 0.4896234
-0.15635002 -0.059743501 0.46979809
-0.19951372 -0.044576816 0.47985664
-0.18934081 -0.058030631 0.46965224
-0.16987352 -0.059980035 0.46506146
-0.17925854 -0.059193101 0.46546996
-0.14846301 -0.062761337 0.47991446
-0.1479845 -0.069353931 0.48979136
-0.15974183 -0.063981473 0.46980429
-0.19908653 -0.053982247 0.47882921
-0.18777998 -0.061462972 0.46998635
-0.14871375 -0.070164643 0.48928386
-0.16979289 -0.068171211 0.46947753
-0.1500815 -0.069571309 0.48514631
-0.18972161 -0.059845071 0.47059679
-0.179167 -0.067346461 0.46963164
-0.15365252 -0.069684669 0.4799003
-0.14546429 -0.067102723 0.49933675
-0.18744195 -0.073158637 0.47997496
-0.19466034 -0.068370633 0.48284709
-0.16037071 -0.069707796 0.47416931
-0.17992744 -0.06933374 0.47162488
-0.15955648 -0.073940806 0.47943282
-0.14886124 -0.072406828 0.49864712
-0.19194959 -0.074232221 0.48701847
-0.18028009 -0.083653539 0.49600083
-0.15854056 -0.079049468 0.48964983
-0.15627083 -0.079711631 0.49933052
-0.16991119 -0.077389576 0.47936809
-0.17938656 -0.076509446 0.47927135
-0.18783137 -0.07662119 0.48545673
-0.16029792 -0.07992816 0.489622
-0.17866856 -0.079942167 0.48435581
-0.19973604 -0.055024896 0.48039135
-0.18957405 -0.068349823 0.47662845
-0.15886866 -0.081459567 0.49900305
-0.18139941 -0.080377944 0.48699608
-0.16542859 -0.08161144 0.48912403
-0.17530546 -0.082574606 0.48960358
-0.1932143 -0.066998251 0.47926027
-0.16636215 -0.085209884 0.4998824
-0.17439041 -0.086068645 0.49963319
