# .PCD v0.7 - Point Cloud Data file format
VERSION 0.7
FIELDS x y z
SIZE 4 4 4
TYPE F F F
COUNT 1 1 1
WIDTH 148
HEIGHT 1
VIEWPOINT 0 0 0 1 0 0 0
POINTS 148
DATA ascii
-0.069266483 0.044870742 0.48302066
-0.070305429 0.044978008 0.48417532
-0.069445543 0.043565217 0.47825351
-0.078326367 0.041976009 0.47980976
-0.079145491 0.039786652 0.47434476
-0.044262208 0.039879814 0.48590502
-0.069938809 0.039420053 0.46997413
-0.056359164 0.038561534 0.46984279
-0.067611359 0.031109523 0.45990884
-0.049570639 0.036012858 0.46976247
-0.089420661 0.030089417 0.46988881
-0.03815062 0.035519544 0.48620793
-0.079629242 0.029600399 0.46225208
-0.050449535 0.029602619 0.46228677
-0.031133447 0.027625453 0.48619282
-0.036876027 0.025855606 0.46996397
-0.040233463 0.029222198 0.46957338
-0.05597689 0.029439697 0.45974252
-0.06992384 0.029376289 0.4587523
-0.079195313 0.026951283 0.4597331
-0.094503462 0.024155594 0.46987522
-0.029452743 0.025056811 0.48740572
-0.049578067 0.042558163 0.48646414
-0.08958479 0.019583652 0.4619931
-0.040428087 0.019588867 0.46211615
-0.099331819 0.019184256 0.47268534
-0.031782418 0.016526859 0.46985665
-0.050592382 0.019332048 0.45605758
-0.079366244 0.019327531 0.45595104
-0.049737364 0.041087389 0.47953975
-0.089992262 0.013685459 0.45981708
-0.05843401 0.043717295 0.47992304
-0.090834901 0.011198823 0.45988399
-0.081088595 0.041194741 0.48079267
-0.030079212 0.0097439699 0.46972945
-0.081427895 0.040067695 0.47769544
-0.038580276 0.0012445251 0.45996213
-0.040137082 0.0095170401 0.45878977
-0.050339103 0.009413003 0.45377445
-0.069639713 0.0093667451 0.45154446
-0.044558354 0.038501877 0.47965789
-0.089752264 0.0095129125 0.45859081
-0.050153699 0.039865758 0.47528791
-0.0916875 0.0020743778 0.45999968
-0.10044518 -0.00042381932 0.46991622
-0.090833381 -0.0020738214 0.4598763
-0.086933933 0.037628122 0.47954896
-0.039411709 -0.0029040207 0.45998254
-0.030309875 -0.0098186918 0.47333157
-0.089118473 0.036951564 0.48200724
-0.03177309 -0.0080491826 0.46971869
-0.040378928 -0.0095743854 0.46155423
-0.09034352 0.035013516 0.47928119
-0.041898042 -0.008711474 0.45995149
-0.050512575 -0.009445441 0.45533818
-0.029848479 0.022927092 0.47963712
-0.069901891 -0.0094020087 0.45324445
-0.059832688 0.0449837 0.48423663
-0.099608816 0.013139887 0.46996942
-0.032452423 0.027260035 0.47976166
-0.079229645 -0.0094418749 0.45516628
-0.089991242 -0.0045617679 0.45981187
-0.090198524 -0.020749895 0.46952584
-0.028134666 -0.010821026 0.47991917
-0.095513351 -0.021177169 0.47919413
-0.029603746 -0.016348338 0.48990461
-0.098091193 0.026359307 0.47911948
-0.049359888 -0.017006347 0.45990366
-0.10045905 0.008901435 0.4699811
-0.086708069 -0.011201521 0.45999479
-0.031307675 -0.018960986 0.48891363
-0.032453012 -0.018606393 0.47977036
-0.036029782 -0.016531313 0.46998328
-0.099643826 0.025672428 0.48245254
-0.040146329 -0.019861868 0.46855643
-0.10181966 0.020363932 0.4804005
-0.050341934 -0.019554304 0.46130079
-0.10083512 0.022071207 0.47983903
-0.053507157 -0.019494856 0.45989832
-0.10084017 -0.013416503 0.47986305
-0.099336028 0.0097222496 0.46868235
-0.030331116 0.019223947 0.47366327
-0.078407675 -0.018668495 0.45997736
-0.08324986 -0.030625597 0.47826201
-0.058471158 0.030272303 0.45979291
-0.10186308 -0.011703418 0.48060536
-0.02694248 0.019875599 0.48971951
-0.079431728 -0.019546028 0.46110553
-0.10375479 0.0099019092 0.47734326
-0.089998357 -0.019858792 0.46848387
-0.037656307 -0.024671374 0.47990817
-0.049537342 -0.027520744 0.46944693
-0.10424702 -0.0030279218 0.47960785
-0.087722152 -0.023307817 0.46987095
-0.044568896 -0.029856835 0.47977138
-0.050614711 -0.029348027 0.47159532
-0.079541422 -0.029349508 0.47161913
-0.1042561 0.011680144 0.47964963
-0.057661474 -0.021156369 0.45995
-0.08698146 -0.028993821 0.47981113
-0.041897986 0.017837755 0.45995086
-0.039411277 0.012030811 0.45997748
-0.084645867 -0.030819777 0.48129442
-0.024383171 0.010196598 0.49154937
-0.059740711 -0.030929588 0.46977612
-0.089444235 -0.0095684528 0.46126825
-0.025539577 0.0099561065 0.47995594
-0.068445995 -0.021985684 0.45994276
-0.026404256 -0.0056271367 0.47993651
-0.097021602 -0.011439228 0.46975634
-0.07174436 0.030273631 0.45981309
-0.037500285 -0.026029611 0.48916495
-0.026033115 -0.0083835451 0.48923081
-0.069888264 -0.030920263 0.4696345
-0.041980557 -0.029607341 0.48996413
-0.030666638 -0.018222205 0.49278417
-0.098099969 -0.017718498 0.47916237
-0.0741226 -0.030072598 0.46962616
-0.085851133 0.021151729 0.45984912
-0.043361541 -0.03022168 0.48563412
-0.049755462 -0.032449212 0.47971421
-0.099581741 -0.0046612727 0.46984166
-0.072599679 -0.021157622 0.45997724
-0.037652101 0.033324275 0.47985458
-0.079800069 0.0094123157 0.45374131
-0.089214593 0.029174441 0.46880597
-0.044855528 -0.031532101 0.49241838
-0.089767337 -0.027320493 0.48082569
-0.052965913 -0.029237185 0.46981418
-0.050400525 -0.03374644 0.48593357
-0.059253868 -0.035033308 0.47955212
-0.028135374 0.019478336 0.47993124
-0.069810577 -0.019414775 0.45800918
-0.069999039 0.019239502 0.45387435
-0.076699562 0.03771415 0.46984434
-0.033272479 -0.021738021 0.49188501
-0.026297487 -0.0093601225 0.49419907
-0.069517307 -0.034974545 0.47874776
-0.079903916 -0.032393478 0.47889027
-0.069689348 -0.029987538 0.46829784
-0.024234185 0.0092530521 0.48854592
-0.099177793 -0.0097900825 0.47195238
-0.079224043 -0.028385084 0.46973732
-0.072445348 -0.035138164 0.48098743
-0.026988681 -0.011060935 0.49055928
-0.049361747 0.02613269 0.459921
-0.09663628 -0.020367287 0.48047966
-0.062520333 -0.036288023 0.4847579
