# .PCD v0.7 - Point Cloud Data file format
VERSION 0.7
FIELDS x y z
SIZE 4 4 4
TYPE F F F
COUNT 1 1 1
WIDTH 1422
HEIGHT 1
VIEWPOINT 0 0 0 1 0 0 0
POINTS 1422
DATA ascii
0.26698735 0.030822931 0.48134366
0.26823491 0.030866578 0.48202527
0.26958564 0.030921778 0.4828873
0.27104428 0.030988961 0.48393646
0.27269885 0.031078037 0.48532751
0.27472016 0.03120821 0.48736033
0.2258575 0.032909375 0.49984628
0.22617508 0.032824613 0.49855888
0.22654577 0.0327482 0.49739826
0.22692993 0.032674331 0.49627626
0.22734545 0.032605536 0.49523139
0.22777849 0.032539785 0.49423271
0.22823046 0.032477237 0.49328274
0.22870147 0.032417879 0.49238113
0.22918564 0.032360837 0.49151474
0.22968726 0.032306686 0.49069229
0.23020019 0.032254536 0.4899002
0.23073334 0.032205608 0.48915705
0.23128034 0.032158982 0.48844886
0.23183434 0.032113675 0.48776072
0.23240574 0.032071114 0.48711425
0.2329767 0.032028813 0.48647177
0.23357113 0.03199004 0.48588291
0.23416433 0.031951394 0.48529592
0.23477767 0.031915773 0.48475486
0.23539934 0.031881541 0.48423496
0.23602532 0.031848148 0.48372775
0.23666798 0.031817243 0.48325834
0.23730913 0.03178636 0.48278928
0.23796897 0.031758197 0.48236153
0.23863764 0.031731416 0.48195475
0.23930739 0.031704973 0.48155311
0.23999539 0.031681128 0.48119095
0.24068698 0.031657927 0.48083857
0.24138804 0.031636134 0.48050755
0.24210107 0.031616062 0.48020267
0.24281837 0.031596687 0.47990841
0.2435476 0.031578995 0.47963971
0.24428774 0.031562842 0.47939435
0.24503241 0.031547382 0.47915956
0.24578744 0.03153336 0.4789466
0.24655695 0.031521291 0.47876325
0.2473318 0.031509984 0.47859153
0.24811114 0.03149933 0.47842968
0.24891016 0.031491231 0.47830671
0.24971746 0.031484239 0.4782005
0.25053304 0.031478334 0.47811079
0.25135812 0.031473659 0.47803977
0.25219372 0.031470329 0.4779892
0.253041 0.031468473 0.477961
0.25390288 0.03146844 0.47796053
0.2547771 0.03146993 0.47798315
0.25566632 0.031473257 0.47803366
0.25657213 0.031478595 0.47811478
0.25749308 0.031485755 0.4782235
0.25843102 0.03149493 0.47836289
0.25938287 0.031505741 0.47852707
0.2603524 0.031518616 0.47872263
0.26135784 0.031535737 0.47898269
0.26237762 0.031554475 0.47926727
0.26343003 0.031576999 0.47960937
0.26452094 0.031603977 0.48001912
0.26564741 0.031635009 0.48049048
0.26681855 0.031671148 0.48103935
0.2680667 0.031716157 0.48172301
0.26937422 0.031767882 0.4825086
0.2708002 0.031833194 0.48350063
0.27238938 0.031917218 0.48477679
0.27433681 0.032042541 0.48668027
0.27804065 0.032371558 0.49167761
0.22576983 0.033797879 0.49965227
0.22608905 0.033711091 0.49836922
0.22645456 0.033631865 0.49719799
0.2268396 0.033556156 0.49607873
0.22724582 0.033484157 0.49501437
0.22768286 0.033417247 0.4940252
0.22813493 0.03335306 0.49307626
0.22861584 0.033293568 0.49219677
0.22910018 0.033235036 0.49133146
0.22961041 0.033180695 0.49052811
0.23012321 0.03312714 0.48973638
0.23065874 0.033077259 0.48899892
0.23119794 0.033028275 0.48827481
0.23175354 0.032982003 0.48759073
0.23231989 0.032937601 0.48693433
0.23289995 0.032895472 0.4863115
0.23349413 0.032855649 0.48572275
0.23408848 0.032816142 0.48513871
0.2347047 0.032779988 0.48460421
0.23531917 0.032743856 0.48407006
0.23594819 0.032710008 0.48356968
0.23658936 0.03267809 0.48309779
0.23723426 0.032646917 0.48263696
0.23789664 0.03261837 0.48221493
0.23855843 0.03258995 0.48179477
0.23923317 0.032563496 0.48140374
0.23992096 0.03253901 0.4810417
0.24060781 0.032514568 0.48068041
0.24131447 0.032492969 0.4803611
0.24202476 0.032472018 0.48005134
0.24274148 0.032452069 0.47975644
0.24347322 0.032434266 0.47949323
0.24421085 0.032417372 0.47924346
0.24495389 0.032401308 0.47900599
0.24571568 0.03238783 0.47880676
0.24647912 0.032374665 0.47861212
0.24724922 0.032362461 0.47843173
0.24803998 0.03235304 0.47829244
0.24883589 0.032344352 0.47816402
0.24963775 0.032336496 0.47804785
0.25044805 0.032329779 0.47794858
0.25127849 0.032325707 0.47788835
0.25211743 0.032322746 0.4778446
0.25296685 0.032321148 0.47782093
0.25382799 0.032321051 0.4778195
0.25470066 0.032322422 0.47783977
0.25558743 0.032325562 0.4778862
0.25648651 0.03233023 0.47795522
0.25739992 0.032336671 0.47805044
0.25833142 0.032345336 0.47817853
0.2592878 0.032357048 0.47835168
0.26025844 0.032370456 0.47854987
0.2612429 0.032385483 0.47877207
0.26227215 0.032405946 0.4790746
0.26331431 0.03242787 0.4793987
0.26439926 0.0324549 0.47979829
0.26551113 0.032485045 0.48024395
0.26668864 0.032523002 0.4808051
0.26790187 0.032565057 0.48142681
0.26920456 0.032617677 0.48220471
0.2706086 0.032682199 0.48315856
0.27217427 0.032765761 0.48439392
0.27397144 0.032876574 0.4860321
0.27666414 0.033093795 0.48924342
0.22568233 0.034685709 0.49945861
0.22601166 0.034598209 0.49819866
0.22637689 0.034516871 0.49702746
0.22677083 0.03444054 0.49592832
0.22717735 0.034366712 0.49486521
0.22761968 0.034298856 0.49388811
0.22806576 0.034232091 0.49292675
0.2285441 0.034170672 0.49204233
0.2290251 0.034110121 0.49117041
0.22953367 0.03405413 0.49036416
0.23004857 0.033999499 0.48957753
0.23059015 0.033949219 0.48885351
0.23112971 0.033899024 0.48813072
0.23169261 0.033852622 0.48746255
0.23225667 0.033806734 0.4868018
0.2328378 0.033763673 0.48618174
0.23342532 0.033721857 0.48557958
0.23402146 0.033681594 0.48499981
0.23463637 0.033644322 0.48446313
0.23525131 0.03360733 0.48393047
0.23588866 0.033573803 0.48344767
0.23652461 0.033540323 0.48296559
0.23717232 0.033508752 0.48251095
0.23782851 0.033478603 0.48207682
0.23849069 0.033449516 0.48165798
0.23917346 0.033423513 0.48128361
0.23985477 0.033397499 0.48090899
0.2405457 0.033373009 0.48055634
0.24125144 0.033350736 0.48023564
0.24195743 0.033328664 0.47991776
0.2426801 0.033309031 0.47963512
0.24341014 0.033290554 0.47936901
0.2441414 0.033272367 0.47910714
0.24489412 0.033257224 0.47888911
0.24564996 0.033242613 0.4786787
0.24640937 0.033228584 0.4784767
0.2471897 0.033217464 0.47831658
0.24797522 0.033207115 0.47816756
0.24876542 0.033197466 0.4780286
0.24957092 0.033189915 0.47791988
0.25038883 0.033184063 0.4778356
0.251214 0.033179209 0.47776571
0.25204921 0.033175711 0.47771531
0.25289458 0.033173569 0.47768447
0.25375307 0.033173151 0.47767848
0.25462431 0.033174399 0.47769648
0.25551125 0.033177685 0.47774377
0.25641289 0.033182845 0.47781804
0.2573286 0.033189785 0.477918
0.25825772 0.033198401 0.4780421
0.25919965 0.033208609 0.47818905
0.26017442 0.033222936 0.47839534
0.26116496 0.033239178 0.47862923
0.26217297 0.033257525 0.47889343
0.26322263 0.033281021 0.47923177
0.26428661 0.03330617 0.47959387
0.26541188 0.033338849 0.48006445
0.26656333 0.033374593 0.48057917
0.26777899 0.033418123 0.48120597
0.26906842 0.033470545 0.48196083
0.27045861 0.033535123 0.48289073
0.27197626 0.033615042 0.48404151
0.2737627 0.033727564 0.48566177
0.27615076 0.033913251 0.48833558
0.22562003 0.035576813 0.49932075
0.22594751 0.035486788 0.49805725
0.22630301 0.035401858 0.49686527
0.22670193 0.035324365 0.49577764
0.22711362 0.03524946 0.49472639
0.22755925 0.035180394 0.49375701
0.22801246 0.035113029 0.49281156
0.22849065 0.03505002 0.49192724
0.22897786 0.03498888 0.49106911
0.22948515 0.034931265 0.49026051
0.22999933 0.03487514 0.48947278
0.23053424 0.034822572 0.48873499
0.2310726 0.034770925 0.48801011
0.23163196 0.034722816 0.48733494
0.23219559 0.034675714 0.4866738
0.232784 0.034632649 0.48606941
0.23337175 0.034589808 0.48546815
0.23397452 0.034549508 0.48490253
0.23458435 0.034510549 0.48435572
0.23520099 0.034472872 0.48382694
0.23583283 0.034437694 0.48333323
0.23646505 0.034402836 0.48284397
0.2371209 0.034371655 0.48240635
0.2377772 0.034340765 0.48197284
0.23844224 0.034311362 0.48156014
0.23911917 0.034283873 0.48117435
0.2397958 0.034256544 0.48079076
0.24049637 0.034232814 0.48045775
0.24119739 0.034209326 0.48012805
0.24190485 0.034186911 0.47981349
0.24262853 0.03416694 0.4795332
0.24335417 0.034147389 0.47925878
0.24409252 0.03412975 0.47901124
0.24484167 0.034113742 0.47878656
0.24559154 0.034097947 0.47856486
0.24636161 0.034085058 0.47838396
0.24713689 0.034072973 0.47821438
0.24791646 0.034061566 0.47805426
0.24871363 0.034052644 0.47792906
0.24952044 0.034045104 0.4778232
0.25033271 0.034038354 0.47772849
0.25115302 0.034032743 0.47764972
0.25199091 0.034029543 0.47760484
0.25284052 0.034027942 0.47758234
0.25370017 0.034027696 0.47757891
0.25457096 0.034028944 0.47759643
0.25545406 0.034031823 0.47763684
0.25634938 0.034036305 0.4776997
0.25725907 0.03404266 0.4777889
0.25819349 0.03405223 0.47792321
0.25914088 0.034063444 0.47808063
0.26009932 0.034076031 0.4782573
0.26109308 0.034093145 0.47849748
0.26210204 0.034112126 0.47876388
0.26313999 0.034134742 0.4790813
0.26421234 0.034161661 0.47945908
0.26532078 0.034193054 0.47989967
0.26646563 0.034228921 0.48040307
0.26768076 0.03427355 0.48102948
0.26895708 0.0343257 0.4817614
0.27031729 0.034388192 0.48263845
0.27182603 0.034469113 0.48377419
0.27355298 0.034577094 0.48528972
0.27580833 0.034750972 0.48773006
0.22557846 0.036470771 0.49922875
0.22591218 0.036379497 0.49797937
0.22626776 0.036292452 0.49678785
0.22666655 0.036212999 0.49570027
0.22707564 0.036135808 0.49464363
0.22751375 0.036063824 0.49365827
0.22796629 0.035994679 0.49271178
0.22843799 0.03592908 0.49181387
0.22893065 0.035867278 0.49096787
0.22943805 0.03580825 0.49015987
0.22995813 0.035751648 0.48938507
0.23049237 0.035697669 0.48864621
0.23103619 0.035645582 0.48793322
0.23159611 0.035596367 0.48725951
0.23215862 0.035547916 0.48659632
0.23274228 0.03550306 0.48598227
0.23332489 0.035458378 0.48537067
0.23392926 0.035417326 0.48480874
0.23453723 0.035377122 0.48425841
0.23516037 0.035339497 0.48374337
0.23579188 0.035303403 0.48324931
0.23642735 0.035268169 0.48276699
0.23707998 0.03523574 0.48232308
0.23773144 0.035203375 0.48188007
0.23839974 0.035173733 0.48147431
0.23907547 0.035145395 0.4810864
0.23975815 0.035118282 0.48071527
0.24045542 0.035093494 0.48037595
0.24115129 0.03506868 0.48003629
0.24186496 0.035046622 0.47973436
0.24258608 0.035025798 0.4794493
0.2433098 0.035005495 0.4791714
0.24405228 0.034988027 0.47893226
0.24479741 0.034971058 0.47870001
0.24555124 0.034955449 0.47848633
0.24632083 0.034942184 0.47830477
0.24709098 0.034929093 0.47812554
0.24787647 0.034918249 0.47797713
0.24867366 0.034909125 0.47785226
0.24947473 0.034900609 0.47773567
0.25028607 0.03489358 0.47763947
0.25111553 0.034889124 0.47757843
0.25195175 0.034885626 0.47753057
0.25279766 0.034883492 0.47750136
0.25365466 0.034882899 0.47749326
0.25452465 0.034884088 0.4775095
0.25540885 0.03488721 0.47755226
0.25630662 0.03489216 0.47762004
0.25721672 0.034898754 0.47771025
0.25813812 0.034906827 0.47782075
0.25908673 0.034918513 0.47798073
0.2600525 0.034932427 0.4781712
0.26102895 0.034947675 0.47837994
0.26204592 0.034968235 0.47866136
0.26307255 0.034989946 0.47895852
0.26415002 0.035018254 0.47934604
0.26524237 0.03504834 0.47975788
0.26639962 0.035086777 0.48028404
0.26759911 0.035130516 0.48088273
0.26886064 0.035182089 0.48158866
0.27021712 0.035245713 0.4824596
0.27169859 0.035325181 0.48354739
0.27340823 0.03543371 0.48503298
0.2755827 0.03560159 0.48733103
0.22553672 0.037364367 0.49913636
0.22587685 0.037271924 0.49790147
0.22623622 0.037183378 0.49671862
0.22663647 0.037102222 0.4956345
0.22705013 0.037023891 0.49458808
0.22748789 0.036950089 0.49360219
0.22794475 0.036879949 0.4926652
0.22841649 0.036812756 0.49176759
0.22890754 0.03674918 0.49091831
0.22940905 0.036687769 0.49009794
0.22992852 0.036629688 0.48932207
0.23045745 0.036573555 0.48857221
0.23100099 0.036520157 0.48785886
0.23155992 0.03646959 0.48718336
0.23212798 0.036420837 0.48653209
0.23271123 0.036374826 0.48591745
0.23329668 0.0363295 0.48531199
0.23390347 0.036287826 0.48475528
0.23450819 0.036246143 0.48419845
0.23513183 0.036207683 0.48368469
0.23575881 0.036170021 0.48318154
0.23639566 0.036134142 0.48270226
0.23704536 0.036100484 0.48225266
0.23769811 0.036067538 0.48181251
0.23837179 0.036037993 0.48141783
0.239044 0.03600844 0.48102307
0.23972888 0.035981007 0.48065659
0.24042203 0.035955004 0.48030925
0.24111851 0.035929687 0.47997102
0.24183607 0.035907682 0.47967705
0.24255265 0.035885688 0.47938323
0.24328111 0.035865597 0.47911489
0.24402085 0.03584731 0.4788706
0.24476169 0.035829313 0.47863016
0.24552284 0.035814404 0.47843099
0.24628782 0.035800155 0.47824067
0.24705829 0.0357868 0.47806227
0.24784799 0.035776317 0.47792223
0.24864 0.03576624 0.47778758
0.24944121 0.035757549 0.47767147
0.25026006 0.035751436 0.47758982
0.251084 0.035746094 0.47751847
0.2519151 0.035741802 0.47746113
0.25276017 0.035739511 0.47743055
0.25362056 0.035739399 0.47742906
0.25449049 0.035740629 0.47744545
0.25537097 0.035743326 0.47748148
0.25626519 0.035747919 0.47754285
0.25718099 0.035755478 0.47764385
0.25810814 0.035764568 0.47776526
0.2590442 0.035774823 0.47790223
0.26001298 0.035789516 0.47809854
0.26099399 0.035805788 0.47831589
0.26200023 0.035825402 0.47857791
0.26303485 0.035848759 0.47888991
0.26410002 0.03587611 0.47925529
0.26519635 0.035907499 0.47967461
0.26634663 0.035945967 0.48018852
0.26753891 0.035989836 0.48077452
0.26879221 0.036041606 0.48146611
0.27015376 0.036107507 0.48234645
0.27163425 0.036188833 0.48343286
0.27329877 0.036294077 0.48483875
0.27545404 0.036463615 0.48710355
0.2255391 0.038265117 0.49914163
0.22587322 0.038169429 0.49789345
0.22622728 0.038077861 0.49669901
0.22662011 0.037993509 0.4955987
0.22703068 0.037912786 0.49454573
0.22746225 0.037836187 0.49354652
0.22792315 0.037765045 0.49261853
0.22839499 0.037696257 0.49172127
0.22888984 0.037631791 0.49088034
0.22939122 0.03756889 0.49005982
0.22991435 0.037510019 0.48929191
0.23044349 0.037452575 0.48854259
0.23099045 0.037398454 0.48783663
0.23154576 0.037346091 0.48715359
0.232113 0.037296042 0.48650071
0.23269206 0.037248258 0.48587742
0.23327728 0.037201818 0.48527163
0.23388018 0.037158534 0.48470703
0.23448269 0.037115511 0.48414582
0.23511092 0.037076861 0.48364168
0.23573785 0.037038293 0.48313859
0.23637922 0.037002273 0.4826687
0.23702748 0.03696759 0.4822163
0.23768124 0.036934014 0.48177832
0.23835111 0.036903176 0.48137608
0.23902011 0.036872428 0.480975
0.23970787 0.03684479 0.48061445
0.24040005 0.036818024 0.48026532
0.24110147 0.036792863 0.47993714
0.24181567 0.036769822 0.47963658
0.24252884 0.036746792 0.47933617
0.24326186 0.036726926 0.47907698
0.24399902 0.036707819 0.47882774
0.24474385 0.036689997 0.47859529
0.24550271 0.036674395 0.47839177
0.24626376 0.03665923 0.47819394
0.24704161 0.036646664 0.47803003
0.24782705 0.036635302 0.47788185
0.24861428 0.03662429 0.47773817
0.24942507 0.036616806 0.47764057
0.25023898 0.036609832 0.47754961
0.25105709 0.036603522 0.4774673
0.25189787 0.036600545 0.47742844
0.25274605 0.03659866 0.47740388
0.25360358 0.036598139 0.47739708
0.25447303 0.036599338 0.4774127
0.25535536 0.03660237 0.47745228
0.25624931 0.036607042 0.47751322
0.25715265 0.036613021 0.47759122
0.25808379 0.036622908 0.47772017
0.25902647 0.03663436 0.47786954
0.25998223 0.036647577 0.47804198
0.26097083 0.03666532 0.47827342
0.26196691 0.036683999 0.47851706
0.26300874 0.036708936 0.47884235
0.26406458 0.036735661 0.47919095
0.26516902 0.036768951 0.4796252
0.26630911 0.036806952 0.4801209
0.2674951 0.036851026 0.48069581
0.26876256 0.036906004 0.48141298
0.2701104 0.036971632 0.48226902
0.27158493 0.037054125 0.48334509
0.27325919 0.03716325 0.48476857
0.27536365 0.037330002 0.48694372
0.22554336 0.039166216 0.49915108
0.22587982 0.039068677 0.49790803
0.22623597 0.038975306 0.49671805
0.22662856 0.038888924 0.49561718
0.22704089 0.038806595 0.49456796
0.22747228 0.038728155 0.49356827
0.22792859 0.038654558 0.4926303
0.22839493 0.038583219 0.49172115
0.22888723 0.038516808 0.49087477
0.22938375 0.038451612 0.49004388
0.22990528 0.038391091 0.48927259
0.23043045 0.038331643 0.48851496
0.23097987 0.038276665 0.48781428
0.23153527 0.038223092 0.48713151
0.2321056 0.038172375 0.48648518
0.23268464 0.038123474 0.48586193
0.2332729 0.038076438 0.48526251
0.23387562 0.038032111 0.48469758
0.23448026 0.037988421 0.48414078
0.23510498 0.037948299 0.48362944
0.23572867 0.037908304 0.48311976
0.23637091 0.037871584 0.48265174
0.23701613 0.037835602 0.48219317
0.23767115 0.037801445 0.48175788
0.2383389 0.037769552 0.48135144
0.2390092 0.037738293 0.48095307
0.23970033 0.03771054 0.48059934
0.24039018 0.037682787 0.48024562
0.24109326 0.037657294 0.47992077
0.24180445 0.037633251 0.47961435
0.2425189 0.037609883 0.47931653
0.24325246 0.037589636 0.47905847
0.24398683 0.037569653 0.47880381
0.24473612 0.037552103 0.47858015
0.24549234 0.037535734 0.47837156
0.24625258 0.037520096 0.47817224
0.24703351 0.037507705 0.47801432
0.24781421 0.037495367 0.47785708
0.2486095 0.037485313 0.47772896
0.24941613 0.037477035 0.47762346
0.25022477 0.037469111 0.47752249
0.25105369 0.037464276 0.47746083
0.25189066 0.037460662 0.47741479
0.25273386 0.037457999 0.47738087
0.25358725 0.037456859 0.47736633
0.25445604 0.037457999 0.47738084
0.2553409 0.037461482 0.47742525
0.25624028 0.037467066 0.47749642
0.25714946 0.03747404 0.47758529
0.25806686 0.037482165 0.47768885
0.25901666 0.037494924 0.47785145
0.25997072 0.037508216 0.47802082
0.26095843 0.037526254 0.47825071
0.26195779 0.037545845 0.4785004
0.26299548 0.037570786 0.47881824
0.26404706 0.037597533 0.47915915
0.26515716 0.037632421 0.47960377
0.26629469 0.037670955 0.48009485
0.26747939 0.037715893 0.48066759
0.26874945 0.03777254 0.48138949
0.27009964 0.037840046 0.48224983
0.27156997 0.037923895 0.48331845
0.27323008 0.038033627 0.48471692
0.27534935 0.038206369 0.48691842
0.22556789 0.040070944 0.49920535
0.22589608 0.039969683 0.49794385
0.22624648 0.039873142 0.49674115
0.22663714 0.039784431 0.49563596
0.2270509 0.039700452 0.49458975
0.22748271 0.039620277 0.49359092
0.2279404 0.039545216 0.49265581
0.22840638 0.03947217 0.49174583
0.22890007 0.039404463 0.4909023
0.22939675 0.039337784 0.49007162
0.22991912 0.039276011 0.48930207
0.23044418 0.039215166 0.48854405
0.2309922 0.03915868 0.48784032
0.23154409 0.039103273 0.48715007
0.2321129 0.03905113 0.4865005
0.23268886 0.039000582 0.48587075
0.23327644 0.038952351 0.4852699
0.2338765 0.038906559 0.4846994
0.23448098 0.038861837 0.48414227
0.2351034 0.038820412 0.48362619
0.23572664 0.03877943 0.48311561
0.23637182 0.038742341 0.48265359
0.23701754 0.038705617 0.48219606
0.23767535 0.038671128 0.4817664
0.23834243 0.038638391 0.48135856
0.23901308 0.038606469 0.48096088
0.23970149 0.038577635 0.48060167
0.24038938 0.038548928 0.48024401
0.24109468 0.038523208 0.47992361
0.24180363 0.038498253 0.47961271
0.24252035 0.038474709 0.47931939
0.24325314 0.038453873 0.47905982
0.24398528 0.038433079 0.47880077
0.24473765 0.038415611 0.47858316
0.24549192 0.03839856 0.47837076
0.2462557 0.038383111 0.47817829
0.24703407 0.038370039 0.47801542
0.24781236 0.038357046 0.47785354
0.24861243 0.038347501 0.47773463
0.24941571 0.038338512 0.47762266
0.25022802 0.038330968 0.47752869
0.25105727 0.038326066 0.4774676
0.25188884 0.038321547 0.47741133
0.25273556 0.03831936 0.47738406
0.25359625 0.038319297 0.47738329
0.25446603 0.038320601 0.47739953
0.25534615 0.038323451 0.47743502
0.25623682 0.038327858 0.47748995
0.25715297 0.038336039 0.47759184
0.25807327 0.038344774 0.47770068
0.25901759 0.038357016 0.47785318
0.25997743 0.038371462 0.47803316
0.26095906 0.03838902 0.47825187
0.26196375 0.038409844 0.4785113
0.26299697 0.038434695 0.47882092
0.26405382 0.038462829 0.47917143
0.26516137 0.038498141 0.47961134
0.26629832 0.038537484 0.48010144
0.26748833 0.038584217 0.48068365
0.26875415 0.03864155 0.4813979
0.27010787 0.038711112 0.48226452
0.27158687 0.038798124 0.48334852
0.27326685 0.038913202 0.48478216
0.27539334 0.03909092 0.4869962
0.22562133 0.040981118 0.49932361
0.22594658 0.040877014 0.49805516
0.22629489 0.040777892 0.49684742
0.22668067 0.040686276 0.49573115
0.22708724 0.040599097 0.49466893
0.22751386 0.040516168 0.49365851
0.22796728 0.040438637 0.4927139
0.22842871 0.040363133 0.4917939
0.22891906 0.040293295 0.49094301
0.2294123 0.040224507 0.49010488
0.22993328 0.040161088 0.48933217
0.23045793 0.040098798 0.48857319
0.2310071 0.040041231 0.48787177
0.23155908 0.039984584 0.4871816
0.23212895 0.039931443 0.48653412
0.232705 0.039879762 0.48590443
0.23329362 0.039830618 0.48530564
0.23389369 0.039783787 0.48473501
0.23449916 0.039738216 0.48417979
0.23512155 0.039695844 0.48366353
0.23574266 0.039653573 0.48314846
0.23638698 0.039615497 0.48268455
0.23703074 0.039577611 0.48222291
0.23768879 0.039542377 0.48179364
0.23835433 0.039508641 0.48138258
0.23902547 0.039476078 0.48098582
0.23971257 0.039446373 0.48062387
0.24039854 0.039416701 0.48026234
0.24110509 0.039390597 0.47994432
0.24181332 0.03936496 0.47963193
0.24253291 0.039341345 0.47934422
0.24326409 0.039319776 0.47908139
0.24399543 0.039298378 0.47882071
0.24474925 0.039280742 0.47860584
0.24550226 0.039263103 0.4783909
0.24626888 0.039247755 0.47820389
0.24704514 0.039234046 0.47803685
0.24782418 0.03922087 0.47787631
0.24862508 0.039211236 0.47775891
0.24942563 0.039201614 0.47764167
0.25024277 0.039194651 0.47755685
0.2510691 0.039189171 0.4774901
0.2518996 0.03918438 0.47743171
0.25275207 0.039183032 0.47741526
0.25360787 0.039182201 0.47740516
0.25447649 0.039183352 0.4774192
0.2553623 0.039187133 0.47746527
0.2562539 0.039191775 0.47752181
0.25716639 0.039199568 0.47761676
0.25809133 0.039209202 0.47773415
0.25903165 0.039221101 0.47787911
0.25999537 0.039236449 0.47806612
0.26097527 0.039254133 0.47828159
0.26198217 0.039275747 0.47854495
0.26301542 0.039301153 0.47885451
0.26407599 0.039330468 0.47921169
0.26518372 0.039366584 0.47965175
0.2663222 0.039407022 0.48014444
0.26751786 0.039455634 0.48073673
0.2687878 0.039514847 0.48145822
0.27014247 0.039586093 0.48232627
0.27162328 0.03967531 0.48341334
0.27332142 0.039795596 0.48487893
0.27552381 0.039988302 0.4872269
0.2256746 0.04189169 0.4994415
0.22599752 0.04178483 0.49816748
0.22634339 0.041683041 0.4969539
0.22672889 0.041589323 0.49583659
0.22713363 0.041499857 0.49476996
0.22755994 0.041415017 0.4937585
0.2280121 0.041335527 0.49281079
0.22847392 0.041258398 0.49189124
0.22896284 0.041186739 0.49103689
0.22945608 0.041116409 0.4901984
0.22997525 0.041051246 0.48942152
0.23049696 0.040987033 0.48865595
0.23104225 0.040927485 0.48794603
0.2315919 0.040869158 0.48725063
0.23215984 0.040814489 0.48659888
0.23273395 0.040761314 0.48596489
0.23332073 0.040710747 0.48536202
0.23391925 0.040662598 0.484788
0.23452362 0.040615823 0.48423034
0.23514485 0.040572304 0.48371148
0.23576474 0.040528875 0.4831937
0.23640881 0.040489908 0.48272914
0.23705161 0.040451005 0.48226535
0.2377097 0.040414996 0.48183602
0.23837475 0.040380422 0.48142383
0.23904695 0.040347304 0.481029
0.2397342 0.040316965 0.48066726
0.24042042 0.040286664 0.48030603
0.24112786 0.040260129 0.47998965
0.24183606 0.040233906 0.47967702
0.24255566 0.040209763 0.47938919
0.24328588 0.040187541 0.47912428
0.24401766 0.040165741 0.47886434
0.2447709 0.040147606 0.47864816
0.24552344 0.04012949 0.47843215
0.24629132 0.040113997 0.47824746
0.24706708 0.040099893 0.47807929
0.24784786 0.040086698 0.47792196
0.24864788 0.040076695 0.47780272
0.24944745 0.040066689 0.47768342
0.25026688 0.040059932 0.47760287
0.25109181 0.040054094 0.47753328
0.25192562 0.040049713 0.47748107
0.25277641 0.040048052 0.47746125
0.25362813 0.040046547 0.47744328
0.25449884 0.040048044 0.47746113
0.2553874 0.040052321 0.47751215
0.25628173 0.04005748 0.47757366
0.257193 0.04006524 0.47766617
0.25811964 0.040075336 0.47778654
0.25906053 0.04008757 0.47793239
0.2600255 0.040103436 0.47812152
0.26100665 0.040121686 0.47833911
0.26201576 0.040144093 0.47860628
0.26305172 0.040170461 0.47892061
0.26411316 0.040200531 0.47927913
0.26522392 0.040237889 0.4797245
0.2663669 0.040279873 0.48022506
0.2675654 0.040329956 0.48082215
0.26884431 0.040391792 0.4815594
0.2702117 0.040466487 0.48244992
0.27171323 0.040560722 0.48357341
0.27343106 0.040686544 0.48507348
0.27571085 0.040894911 0.48755768
0.22577332 0.042811308 0.49965999
0.22608221 0.042699423 0.49835414
0.22641644 0.042593192 0.4971143
0.2267964 0.042496365 0.49598423
0.22719263 0.04240334 0.4948985
0.22761445 0.0423158 0.49387679
0.2280606 0.042233445 0.49291563
0.22851968 0.042154115 0.49198973
0.22900666 0.042080529 0.49113089
0.22949989 0.04200865 0.49029198
0.2300178 0.041941825 0.48951206
0.23053959 0.041876215 0.48874632
0.23108369 0.041815143 0.48803353
0.2316328 0.041755438 0.4873367
0.23219971 0.04169938 0.48668244
0.23277453 0.041645162 0.48604962
0.23336032 0.041593302 0.48544437
0.23395865 0.041544057 0.48486963
0.23456202 0.041496076 0.48430961
0.23518337 0.041451618 0.48379073
0.23580338 0.041407246 0.48327288
0.23644663 0.041367274 0.48280635
0.23708962 0.041327547 0.48234269
0.23774672 0.041290563 0.48191103
0.23841166 0.041255206 0.48149839
0.23908249 0.041221119 0.48110053
0.23976928 0.041190021 0.4807376
0.24045509 0.041158978 0.48037529
0.24116148 0.041131672 0.48005658
0.24186935 0.041104808 0.47974306
0.2425884 0.041080032 0.47945389
0.2433189 0.041057363 0.47918931
0.2440501 0.041034974 0.478928
0.24480318 0.041016404 0.47871128
0.24555556 0.040997855 0.47849476
0.2463236 0.040982034 0.47831014
0.24710014 0.040967736 0.47814327
0.24788064 0.040954191 0.47798517
0.24868132 0.040944066 0.47786698
0.24948162 0.040933944 0.47774887
0.25030068 0.040926959 0.47766736
0.25112689 0.040921193 0.47760004
0.25195912 0.040916439 0.47754455
0.25281215 0.040915083 0.47752875
0.25366893 0.040914346 0.47752011
0.25453958 0.040915836 0.47753751
0.25542623 0.040919881 0.47758475
0.25631806 0.040924732 0.47764134
0.25723433 0.040933438 0.47774294
0.25815955 0.0409435 0.47786039
0.25910485 0.040956672 0.47801414
0.26006833 0.040972624 0.47820029
0.26105449 0.040992025 0.47842675
0.26206324 0.041014839 0.47869301
0.26310426 0.041042533 0.47901624
0.26416567 0.041073222 0.47937441
0.26528293 0.041112363 0.47983125
0.26643321 0.041156348 0.48034459
0.26763153 0.041207448 0.480941
0.26892066 0.041272156 0.48169619
0.27030203 0.041350551 0.48261118
0.27182409 0.041449901 0.4837707
0.27357608 0.041583564 0.48533073
0.27600127 0.041818377 0.48807126
0.22587645 0.043732565 0.49988821
0.22617802 0.043616835 0.49856535
0.22651026 0.043507911 0.49732029
0.22688678 0.043408319 0.49618188
0.22727755 0.043312225 0.49508348
0.22769932 0.043222766 0.49406093
0.22814026 0.043137632 0.4930878
0.22859903 0.043056518 0.49216059
0.22908026 0.042980243 0.49128872
0.22957113 0.042906359 0.49044418
0.23008364 0.042837068 0.48965219
0.23060371 0.042769711 0.48888224
0.23114355 0.042706523 0.48815995
0.23169146 0.042645298 0.48746014
0.23225451 0.04258731 0.4867973
0.23282857 0.042531773 0.48616245
0.23341198 0.042478353 0.48555186
0.23401006 0.042427991 0.48497617
0.23461103 0.04237853 0.48441082
0.23523255 0.04233313 0.48389187
0.23585251 0.042287789 0.48337358
0.23649371 0.042246573 0.48290247
0.23713695 0.042206027 0.48243898
0.23779237 0.042167936 0.4820036
0.23845764 0.04213186 0.48159122
0.23912683 0.042096738 0.48118976
0.23981424 0.042065065 0.48082772
0.24050055 0.04203343 0.48046613
0.2412056 0.042005286 0.48014441
0.24191421 0.041977957 0.47983205
0.24263149 0.041952327 0.47953907
0.24336255 0.041929249 0.47927526
0.24409282 0.0419062 0.47901183
0.24484637 0.041887298 0.47879577
0.24560088 0.04186869 0.47858307
0.2463669 0.041852172 0.47839424
0.24714467 0.041837756 0.47822943
0.24792242 0.041823436 0.47806576
0.24872552 0.041813474 0.47795191
0.24952847 0.041803561 0.47783858
0.25034383 0.041795786 0.47774971
0.2511737 0.041790478 0.47768906
0.25200629 0.041785657 0.47763395
0.25285628 0.041783746 0.47761208
0.25371885 0.041783921 0.4776141
0.2545909 0.041785646 0.4776338
0.25547284 0.041788984 0.47767195
0.25637025 0.041794814 0.47773859
0.25728801 0.041803915 0.47784263
0.25820959 0.041813575 0.47795305
0.25916347 0.041828379 0.47812229
0.2601245 0.041844241 0.47830358
0.26111832 0.041865248 0.47854373
0.26212382 0.041887991 0.47880369
0.26317373 0.041917656 0.47914276
0.26423994 0.041949712 0.47950917
0.26535958 0.041990016 0.47996986
0.26652077 0.042036608 0.48050246
0.26772919 0.042090327 0.48111647
0.26901945 0.042156525 0.48187315
0.27041915 0.042239383 0.4828203
0.27196801 0.042344935 0.48402682
0.27381253 0.042495705 0.4857502
0.27656183 0.042785481 0.48906249
0.22628878 0.04453795 0.49880949
0.22661474 0.044425465 0.49754968
0.22697972 0.044321481 0.49638513
0.22736253 0.044221789 0.49526858
0.22778426 0.044130415 0.49424523
0.22822039 0.044042531 0.49326098
0.22867866 0.043959588 0.49233201
0.2291555 0.043880839 0.49145007
0.22964676 0.04380545 0.49060574
0.23015551 0.043733966 0.48980513
0.23067555 0.043665163 0.48903456
0.23121178 0.043599937 0.48830405
0.23175982 0.043537423 0.48760393
0.23231953 0.043477569 0.48693359
0.2328933 0.043420784 0.48629764
0.23347352 0.043365628 0.48567986
0.23407182 0.043314226 0.4851042
0.23466994 0.043263171 0.48453242
0.23529172 0.043216847 0.48401359
0.23591217 0.04317062 0.48349586
0.23655041 0.043127973 0.48301825
0.23719344 0.043086514 0.4825539
0.23784617 0.043047111 0.48211262
0.23851275 0.043010496 0.48170254
0.23918013 0.04297429 0.48129702
0.23986913 0.042942215 0.48093781
0.2405571 0.042910188 0.48057911
0.24126017 0.042881072 0.48025304
0.24197039 0.042853434 0.47994348
0.24268526 0.042826809 0.47964531
0.24341781 0.042803489 0.47938412
0.2441496 0.042780194 0.47912323
0.24490091 0.042760476 0.4789024
0.24565749 0.042741813 0.47869337
0.24641973 0.042724259 0.47849679
0.24720007 0.042709958 0.47833663
0.24798131 0.042695913 0.47817931
0.24877964 0.042684894 0.47805592
0.24958664 0.042675436 0.47794998
0.25039619 0.042666476 0.47784963
0.25122997 0.042661693 0.47779605
0.2520687 0.042657781 0.47775224
0.25291467 0.042655118 0.47772241
0.2537722 0.04265441 0.47771448
0.25464559 0.042656366 0.47773641
0.25553578 0.042661116 0.47778961
0.25643888 0.042667981 0.4778665
0.25735065 0.04267624 0.47795898
0.25828114 0.042687532 0.47808546
0.25923389 0.042702425 0.47825223
0.26019686 0.042718891 0.47843665
0.2611959 0.04274115 0.47868595
0.26220569 0.042765014 0.47895321
0.26325861 0.042795733 0.47929728
0.2643376 0.042830478 0.47968641
0.26545304 0.042870883 0.48013893
0.26662806 0.042920616 0.4806959
0.26785851 0.042978916 0.48134887
0.2691628 0.043048654 0.4821299
0.27057955 0.04313587 0.48310667
0.27218074 0.043251835 0.48440543
0.27411863 0.043420393 0.48629323
0.2264335 0.045466766 0.49912849
0.22675787 0.045351572 0.49786392
0.22711305 0.045243431 0.49667674
0.22748685 0.045139827 0.4955394
0.22790353 0.045045514 0.49450403
0.22832938 0.044953737 0.49349654
0.22878575 0.044868663 0.49256259
0.22925395 0.044786554 0.49166122
0.22974384 0.044709302 0.49081314
0.23024674 0.044635162 0.48999926
0.23076648 0.044564847 0.48922732
0.23129721 0.044497177 0.48848447
0.23184538 0.044433363 0.48778394
0.2324004 0.044371344 0.48710307
0.23297456 0.044313427 0.4864673
0.2335505 0.044256285 0.48583999
0.23414968 0.044203959 0.48526555
0.23474747 0.044151761 0.48469251
0.23536675 0.044103973 0.48416793
0.23598827 0.044056959 0.48365182
0.23662332 0.044012811 0.48316714
0.23726785 0.043970738 0.4827053
0.23791693 0.043929815 0.48225605
0.23858367 0.043892443 0.48184577
0.23924929 0.043855134 0.48143619
0.23993553 0.04382186 0.48107094
0.24062471 0.043789364 0.48071417
0.24132518 0.043759145 0.48038244
0.24203779 0.043731336 0.48007715
0.24274947 0.043703556 0.47977221
0.24348393 0.043680068 0.47951433
0.24421795 0.043656658 0.47925738
0.24496545 0.043635823 0.47902861
0.24572496 0.04361726 0.47882485
0.24648382 0.043598711 0.47862124
0.24726637 0.043584473 0.47846493
0.24805109 0.043570712 0.47831386
0.24884297 0.0435583 0.47817761
0.2496549 0.043549474 0.47808069
0.25047004 0.043541268 0.4779906
0.25129279 0.043534432 0.47791556
0.25213742 0.043531418 0.4778825
0.25298932 0.043529678 0.47786337
0.25385156 0.043529723 0.47786388
0.25472632 0.04353191 0.4778879
0.25561392 0.043536264 0.4779357
0.2565124 0.043542441 0.4780035
0.25742802 0.043551475 0.47810265
0.25836793 0.043564543 0.47824612
0.25931451 0.043578647 0.47840095
0.26029277 0.043597963 0.47861299
0.26128548 0.043619562 0.47885013
0.26231077 0.04364644 0.47914517
0.26335827 0.043676823 0.47947872
0.26445267 0.043714762 0.4798952
0.26557055 0.043756321 0.48035145
0.26675865 0.043809142 0.48093131
0.26800984 0.04387195 0.48162082
0.2693392 0.043947108 0.4824459
0.27078763 0.044041146 0.48347822
0.27243167 0.044166293 0.48485205
0.27447599 0.044355322 0.48692718
0.2265843 0.046397977 0.49946091
0.22690213 0.046279047 0.49818066
0.22724584 0.046166312 0.49696711
0.22762042 0.046060715 0.49583036
0.22802773 0.045962535 0.49477351
0.22844519 0.04586716 0.49374682
0.22890185 0.045780372 0.49281254
0.22936293 0.04569513 0.49189496
0.22985235 0.045616169 0.49104497
0.23034839 0.045539126 0.4902156
0.23086892 0.045467492 0.48944449
0.23139362 0.045397226 0.48868808
0.23194197 0.045332111 0.48798716
0.23249131 0.045267686 0.48729363
0.23306546 0.045208555 0.48665711
0.23363817 0.045149587 0.48602235
0.23423505 0.045095719 0.48544246
0.23483291 0.045042437 0.48486891
0.23544754 0.044992756 0.48433411
0.23607112 0.044945151 0.48382163
0.23670281 0.04489943 0.48332947
0.23734984 0.044856943 0.4828721
0.23799571 0.044814549 0.48241577
0.23866515 0.044776883 0.4820103
0.23933332 0.044739258 0.48160526
0.24001543 0.044704501 0.48123112
0.24070591 0.044671547 0.48087639
0.24139974 0.04463945 0.48053086
0.24211554 0.044611629 0.48023137
0.24283078 0.044583905 0.47993293
0.24356084 0.044559088 0.47966579
0.24429812 0.044535764 0.4794147
0.24504004 0.044513445 0.47917446
0.24580289 0.044495076 0.47897673
0.24656658 0.044476986 0.47878197
0.2473416 0.044461057 0.47861052
0.24813177 0.044447951 0.47846943
0.2489244 0.044435378 0.4783341
0.24973138 0.044425443 0.47822714
0.2505528 0.044418138 0.47814849
0.25138015 0.044411931 0.47808167
0.25221545 0.044407167 0.47803038
0.253066 0.044405106 0.47800821
0.25393164 0.044405703 0.47801462
0.25480711 0.044408008 0.47803944
0.25569493 0.044412442 0.47808719
0.25660479 0.044420663 0.47817567
0.25752801 0.044431131 0.47828835
0.258461 0.044443209 0.47841838
0.25941855 0.044459417 0.47859287
0.26039883 0.0444794 0.47880799
0.26139337 0.044501681 0.47904781
0.26242927 0.044530831 0.47936162
0.26348385 0.044562954 0.47970739
0.2645835 0.044602454 0.48013261
0.26572528 0.044648785 0.48063135
0.26691073 0.04470212 0.48120549
0.26817882 0.044768915 0.4819245
0.2695376 0.044850357 0.48280123
0.2710366 0.044954538 0.48392269
0.27275446 0.045094233 0.48542649
0.27507886 0.045332994 0.48799667
0.22679494 0.047342882 0.49992523
0.22708929 0.047216583 0.49859157
0.22741233 0.047097228 0.49733123
0.22778276 0.046988584 0.49618399
0.22817595 0.046885472 0.49509513
0.22859047 0.046787523 0.49406084
0.22903645 0.046696752 0.49310231
0.22949055 0.046608333 0.49216864
0.22997786 0.046527311 0.4913131
0.2304657 0.04644702 0.49046525
0.23098657 0.046373975 0.48969391
0.23150626 0.046301249 0.48892596
0.23205446 0.046234757 0.48822382
0.23260263 0.046168763 0.48752692
0.23317418 0.046107888 0.48688412
0.23374861 0.046048038 0.48625213
0.23433979 0.04599192 0.48565954
0.23493955 0.0459379 0.48508909
0.23554876 0.045886122 0.48454234
0.23617284 0.045837611 0.4840301
0.2367975 0.045789573 0.4835228
0.23744442 0.04574617 0.4830645
0.2380901 0.045702852 0.48260707
0.23875497 0.045663521 0.48219174
0.23942703 0.045625839 0.48179385
0.24010514 0.045589581 0.48141098
0.24079919 0.045556605 0.48106274
0.24149226 0.045523673 0.48071501
0.24220406 0.045494501 0.48040694
0.24292341 0.045466948 0.48011601
0.2436479 0.045440551 0.47983724
0.24438918 0.045417458 0.4795934
0.245133 0.045395002 0.47935626
0.24589083 0.045375284 0.47914806
0.24665967 0.045357734 0.47896272
0.24743019 0.045340609 0.47878191
0.24822108 0.045327328 0.47864166
0.24902013 0.04531562 0.47851804
0.24982363 0.045304805 0.47840381
0.25064138 0.045296632 0.47831753
0.25147498 0.045291375 0.47826201
0.25231671 0.045287617 0.47822231
0.25316921 0.045285802 0.47820318
0.25403425 0.045286246 0.47820783
0.25491315 0.04528914 0.4782384
0.25580642 0.045294557 0.47829562
0.25671288 0.045302276 0.4783771
0.25763157 0.045312088 0.47848073
0.25857541 0.04532624 0.47863016
0.25954026 0.045343973 0.4788174
0.26051393 0.045363121 0.47901961
0.26153034 0.045389567 0.47929886
0.26255852 0.045417864 0.47959769
0.26363629 0.045454532 0.47998491
0.26472959 0.045493633 0.48039776
0.26589674 0.045545116 0.48094144
0.26710695 0.045603622 0.48155925
0.26838669 0.045673586 0.48229802
0.26977414 0.045761365 0.48322496
0.27132285 0.045875844 0.4844338
0.27317098 0.046040054 0.48616782
0.27605075 0.046376526 0.48972085
0.22728516 0.04815745 0.49902165
0.22760157 0.048034254 0.49774507
0.22796263 0.047921419 0.4965758
0.22834197 0.047813289 0.49545535
0.22875656 0.047713358 0.49441981
0.22919025 0.047618169 0.49343345
0.22964412 0.047527891 0.49249798
0.23012103 0.047443062 0.49161896
0.23060922 0.047361203 0.4907707
0.23112009 0.047284607 0.489977
0.23163956 0.047210351 0.48920751
0.2321789 0.047140688 0.48848563
0.23272692 0.047073308 0.48778746
0.23329023 0.04700952 0.48712644
0.23386522 0.046948552 0.48649469
0.23444884 0.046889767 0.48588553
0.23505124 0.046835165 0.48531973
0.23565544 0.046781324 0.4847618
0.23628327 0.046732552 0.48425642
0.23690973 0.04668387 0.48375198
0.23755386 0.046639018 0.48328719
0.23820312 0.046595491 0.48283619
0.23886028 0.046553824 0.48240441
0.23953259 0.046515405 0.48200628
0.24020591 0.046477456 0.48161304
0.24090262 0.046444289 0.48126936
0.24160036 0.046411559 0.48093021
0.24230595 0.046380568 0.48060906
0.24302693 0.046352729 0.4803206
0.24375072 0.046325628 0.48003975
0.24449076 0.04630179 0.47979274
0.24523884 0.046279643 0.47956324
0.24598886 0.04625801 0.47933909
0.2467622 0.046240903 0.47916183
0.24753858 0.046224482 0.47899166
0.24832025 0.04620916 0.4788329
0.24912322 0.046197891 0.47871614
0.2499337 0.046188094 0.4786146
0.25075042 0.046179511 0.47852564
0.25157681 0.04617276 0.47845572
0.25242096 0.046169303 0.47841987
0.25327799 0.046168219 0.47840866
0.25414604 0.046169147 0.47841826
0.25502601 0.04617222 0.47845012
0.25591847 0.046177533 0.47850516
0.25682989 0.046186212 0.47859511
0.25776193 0.046198536 0.47872281
0.25870934 0.046213523 0.47887811
0.25966778 0.046230368 0.47905266
0.26066521 0.046254024 0.47929779
0.26167697 0.04628006 0.47956756
0.26272222 0.046311826 0.47989672
0.26379994 0.046349086 0.48028284
0.26492518 0.046394426 0.48075268
0.26608241 0.046445049 0.48127726
0.2673251 0.046510223 0.48195258
0.2686477 0.046588823 0.48276708
0.27007765 0.046685476 0.48376861
0.27171016 0.046816405 0.48512533
0.27372688 0.047012482 0.48715714
0.22750914 0.049105935 0.49951342
0.22782049 0.048979156 0.49822381
0.22816035 0.048859484 0.49700651
0.22852556 0.048746157 0.49585369
0.22893506 0.04864312 0.4948056
0.22935501 0.048543099 0.49378815
0.22980924 0.048451077 0.49285209
0.23027484 0.048362155 0.49194756
0.23076466 0.048278976 0.49110147
0.23126681 0.048199013 0.49028805
0.23178846 0.048123699 0.48952195
0.23231973 0.048050947 0.48878193
0.23287061 0.04798279 0.48808861
0.23342638 0.047916148 0.48741072
0.23400442 0.047854565 0.48678428
0.23458129 0.047793198 0.48616004
0.23518446 0.047737628 0.48559478
0.23578621 0.047682185 0.4850308
0.23640668 0.047630921 0.48450935
0.23703346 0.047581304 0.48400462
0.2376707 0.047534142 0.48352489
0.23832488 0.047490697 0.48308298
0.23897786 0.047447335 0.48264188
0.23965347 0.04740876 0.4822495
0.24032962 0.047370579 0.48186108
0.24101551 0.047334574 0.48149487
0.2417188 0.047302242 0.48116598
0.24242114 0.047269955 0.48083752
0.24314234 0.047241557 0.48054868
0.24387035 0.047214687 0.48027533
0.24460229 0.047188759 0.48001161
0.24535477 0.047166966 0.47978991
0.24611141 0.047146123 0.4795779
0.24687345 0.047126453 0.47937784
0.24765614 0.047110856 0.47921914
0.2484445 0.047096435 0.47907248
0.24923813 0.047083113 0.47893697
0.25004956 0.047073234 0.47883648
0.25087327 0.047065724 0.47876006
0.25170588 0.047059931 0.47870114
0.25254959 0.04705625 0.47866368
0.25340477 0.047054719 0.47864813
0.25427487 0.04705596 0.47866076
0.25515935 0.047059845 0.47870028
0.25605971 0.047066621 0.47876921
0.25697479 0.047076054 0.47886515
0.25790438 0.047088068 0.47898737
0.25885028 0.047102973 0.47913897
0.25983045 0.047123987 0.47935274
0.2608248 0.047147434 0.47959125
0.26184785 0.047175895 0.47988075
0.26290593 0.047210455 0.4802323
0.26399291 0.047249962 0.48063415
0.26513147 0.047298413 0.48112702
0.26632506 0.047356334 0.48171619
0.26757878 0.047424532 0.48240992
0.26892009 0.047507767 0.48325658
0.27042153 0.047618654 0.48438457
0.27216703 0.04777167 0.48594105
0.27452233 0.048030391 0.48857284
0.22807087 0.049932677 0.4987714
0.22838914 0.049805883 0.49750489
0.22875443 0.049690295 0.49635029
0.22914524 0.049581133 0.49525988
0.22955731 0.049477398 0.49422368
0.23000318 0.049381729 0.49326804
0.23045573 0.049288217 0.49233398
0.23094353 0.049202941 0.49148217
0.23143224 0.049118508 0.49063876
0.23195459 0.049041826 0.48987281
0.232475 0.048965324 0.48910862
0.23302525 0.048895657 0.48841274
0.23357476 0.048826363 0.48772058
0.23414814 0.04876256 0.48708326
0.23472749 0.04870047 0.48646304
0.23532492 0.048642579 0.48588479
0.23593171 0.04858705 0.4853301
0.23654534 0.048533332 0.48479351
0.23717672 0.048483636 0.48429713
0.2378072 0.048434127 0.48380256
0.23845953 0.048389412 0.48335591
0.23911338 0.048345327 0.48291555
0.23978281 0.048304707 0.48250979
0.24046479 0.048266895 0.48213211
0.24114576 0.048229154 0.48175511
0.2418469 0.048195705 0.48142099
0.24255577 0.048164025 0.48110455
0.24326909 0.048133455 0.4807992
0.244 0.048106574 0.48053068
0.24473681 0.048081037 0.4802756
0.24548036 0.048057001 0.48003551
0.24624351 0.048036959 0.4798353
0.2470082 0.048017357 0.4796395
0.24778169 0.047999594 0.47946209
0.24857666 0.047986105 0.47932732
0.24937721 0.047973778 0.47920421
0.25018516 0.047962956 0.47909611
0.2510024 0.047953989 0.47900653
0.25183877 0.047948718 0.4789539
0.25268683 0.047945708 0.4789238
0.25354803 0.047945198 0.4789187
0.25442073 0.047946859 0.47893533
0.25530714 0.047951087 0.47897756
0.2562075 0.047957897 0.47904557
0.2571224 0.047967371 0.47914019
0.25806665 0.047982238 0.47928873
0.25902724 0.048000041 0.47946653
0.26000234 0.0480204 0.4796699
0.26100874 0.048046388 0.47992948
0.26204515 0.048077703 0.48024228
0.26310533 0.048113164 0.48059651
0.26422113 0.04815853 0.48104966
0.26537091 0.048209772 0.48156151
0.26658377 0.048272103 0.48218414
0.26788214 0.048349462 0.48295686
0.2692945 0.048446819 0.48392937
0.27085993 0.048571005 0.48516983
0.27276918 0.048755843 0.48701614
0.22833307 0.050890803 0.4993448
0.22863792 0.050758515 0.49804679
0.22898777 0.050637219 0.4968566
0.22935832 0.050521422 0.49572042
0.22977106 0.050415784 0.49468389
0.23020139 0.05031481 0.49369311
0.23065585 0.050219867 0.49276152
0.23113163 0.050130274 0.49188244
0.23162194 0.050044511 0.49104092
0.23213367 0.049964011 0.49025103
0.23265821 0.049886864 0.48949409
0.23319905 0.049813785 0.48877701
0.23375288 0.049744021 0.48809248
0.23431739 0.049677044 0.48743531
0.23489913 0.04961421 0.48681876
0.23548342 0.049552377 0.48621207
0.23609075 0.049495835 0.48565724
0.23669669 0.049439419 0.4851037
0.23732717 0.049388528 0.48460436
0.23796336 0.049339194 0.48412028
0.23860861 0.049292091 0.48365811
0.23926844 0.04924833 0.48322871
0.23992704 0.049204636 0.48280001
0.24060915 0.049166068 0.48242155
0.2412975 0.049129039 0.48205823
0.24199072 0.049093269 0.48170725
0.24270044 0.04906109 0.48139152
0.24341686 0.04903049 0.48109126
0.24414274 0.049002007 0.48081177
0.24488357 0.048976716 0.48056361
0.24562784 0.048952285 0.48032391
0.24638392 0.048930373 0.48010892
0.24715567 0.048911717 0.47992584
0.24793465 0.048894618 0.47975805
0.24871872 0.048878636 0.47960126
0.24952208 0.048866544 0.47948259
0.25033712 0.04885681 0.4793871
0.2511614 0.048848946 0.47930995
0.25199664 0.048843257 0.47925413
0.25284436 0.04884002 0.47922236
0.2537052 0.048839331 0.47921559
0.25458091 0.048841499 0.47923687
0.25547406 0.04884699 0.47929072
0.25638303 0.04885545 0.47937375
0.25730866 0.048867021 0.4794873
0.25824982 0.04888146 0.47962895
0.25920582 0.048898596 0.4797971
0.26020357 0.048923466 0.48004115
0.26121923 0.048951533 0.48031652
0.26226062 0.048984218 0.48063722
0.2633504 0.049025696 0.4810442
0.26446322 0.04907117 0.48149043
0.26565272 0.049130537 0.48207292
0.26689833 0.049199853 0.48275307
0.26823181 0.049284868 0.48358724
0.26969418 0.049392935 0.4846476
0.27141437 0.049547371 0.48616293
0.27363226 0.049791377 0.48855716
0.22894794 0.051726941 0.49872211
0.22926931 0.051596813 0.49746749
0.22963126 0.051476792 0.49631032
0.23002772 0.051365413 0.49523646
0.23043858 0.051258095 0.49420178
0.23089102 0.051160824 0.49326393
0.23134845 0.0510654 0.4923439
0.23183998 0.050978199 0.49150318
0.23233451 0.05089232 0.49067518
0.23285863 0.050813552 0.48991573
0.23338425 0.050735705 0.48916519
0.23393817 0.050664578 0.48847941
0.23449054 0.050593644 0.4877955
0.23507567 0.050530285 0.48718461
0.23566219 0.050467696 0.48658118
0.23626576 0.050409209 0.48601729
0.23687816 0.050353028 0.48547563
0.2374963 0.050298482 0.48494971
0.23813267 0.050248176 0.4844647
0.2387687 0.050198171 0.48398259
0.23943155 0.05015415 0.48355815
0.24009797 0.050111193 0.48314399
0.24076869 0.050069436 0.48274139
0.24145792 0.050031822 0.48237872
0.24215376 0.04999584 0.48203182
0.24286021 0.049962297 0.48170841
0.2435783 0.049931381 0.48141032
0.2443032 0.049902074 0.48112777
0.24503927 0.049875248 0.48086914
0.24579187 0.049851965 0.48064467
0.24654523 0.049828999 0.48042324
0.24731226 0.049808949 0.48022991
0.24809726 0.049792644 0.48007271
0.24888812 0.049777623 0.4799279
0.24968787 0.04976448 0.47980118
0.25049719 0.049753331 0.47969368
0.25132483 0.04974588 0.47962183
0.25216615 0.049741179 0.4795765
0.25301906 0.049738787 0.47955346
0.25388438 0.04973885 0.47955406
0.254765 0.04974189 0.47958338
0.25566038 0.049747787 0.47964025
0.25657001 0.049756411 0.47972339
0.25749752 0.049768429 0.47983927
0.25845534 0.049786206 0.48001063
0.25943142 0.04980737 0.48021469
0.26042545 0.049831826 0.48045048
0.26145303 0.049862519 0.48074642
0.26251659 0.049899846 0.48110628
0.26360771 0.049942154 0.48151422
0.26476601 0.049996864 0.48204169
0.2659696 0.050059747 0.48264796
0.26724532 0.050135747 0.48338071
0.26865068 0.050235495 0.48434243
0.27021858 0.050364889 0.48558998
0.27213272 0.050557774 0.48744968
0.22925906 0.052698053 0.49939984
0.2295613 0.052561 0.49810103
0.2299132 0.052436344 0.49691972
0.23028533 0.052317251 0.49579111
0.23069583 0.052207761 0.49475351
0.23112744 0.052103873 0.49376902
0.23158352 0.052006278 0.49284413
0.23206463 0.051915031 0.49197942
0.2325592 0.051827479 0.49114972
0.23307598 0.051745519 0.49037302
0.23360392 0.051666655 0.48962563
0.23414916 0.051592186 0.48891994
0.23470773 0.051521208 0.48824731
0.23527572 0.051452823 0.48759922
0.23586196 0.051388919 0.48699364
0.23644914 0.051325694 0.48639449
0.23706405 0.051268935 0.48585659
0.23768325 0.051213518 0.48533145
0.23831873 0.051162001 0.48484322
0.23896208 0.051112548 0.48437458
0.2396075 0.051063895 0.48391351
0.24027696 0.051020697 0.48350415
0.24095131 0.050978851 0.48310757
0.24163568 0.050939415 0.48273385
0.24233188 0.050902747 0.48238638
0.24303593 0.050867986 0.48205695
0.24375391 0.050836377 0.4817574
0.24448262 0.050807223 0.48148113
0.24521731 0.050779514 0.48121855
0.24596356 0.050754383 0.4809804
0.24672741 0.050733052 0.48077825
0.24749632 0.050712906 0.48058733
0.2482705 0.050693974 0.48040792
0.24906556 0.050679427 0.48027006
0.2498731 0.050667509 0.48015711
0.25069001 0.050657563 0.48006287
0.2515175 0.050649825 0.47998953
0.25235736 0.050644618 0.47994018
0.25321147 0.050642297 0.47991818
0.25408041 0.050642945 0.47992432
0.25496587 0.050646871 0.47996154
0.25586861 0.050654192 0.48003089
0.25678909 0.050664961 0.48013297
0.25772819 0.050679322 0.48026907
