# .PCD v0.7 - Point Cloud Data file format
VERSION 0.7
FIELDS x y z
SIZE 4 4 4
TYPE F F F
COUNT 1 1 1
WIDTH 1342
HEIGHT 1
VIEWPOINT 0 0 0 1 0 0 0
POINTS 1342
DATA ascii
0.06649673 -0.083041377 0.35277167
0.067150064 -0.083062403 0.35286099
0.067803696 -0.083083406 0.35295022
0.06846559 -0.083114043 0.35308036
0.069129705 -0.083146788 0.35321948
0.069794357 -0.083179578 0.35335878
0.070468701 -0.083223216 0.35354415
0.071144983 -0.083268344 0.35373586
0.071822517 -0.083314121 0.35393032
0.072512008 -0.083372839 0.35417977
0.073202439 -0.083431602 0.35442939
0.073897891 -0.083495021 0.35469881
0.074603327 -0.083568528 0.35501111
0.075310037 -0.083642207 0.35532409
0.076028578 -0.083727673 0.35568717
0.076752774 -0.083817884 0.3560704
0.077483036 -0.083913162 0.35647514
0.078227729 -0.08402238 0.35693911
0.078974366 -0.084131874 0.35740426
0.079742156 -0.084261954 0.35795686
0.080513485 -0.08439365 0.35851634
0.081310131 -0.084549576 0.35917872
0.082114555 -0.08471106 0.35986474
0.082949631 -0.084901392 0.36067328
0.083797552 -0.085101791 0.36152461
0.084685616 -0.085339554 0.36253467
0.085609131 -0.085609131 0.36367986
0.086580098 -0.08592169 0.36500767
0.087631159 -0.08630842 0.36665055
0.088896923 -0.086899243 0.36916044
0.035767749 -0.088227116 0.37769565
0.036177523 -0.087569892 0.37488213
0.036655847 -0.087099671 0.37286913
0.037162784 -0.086713165 0.37121451
0.037688848 -0.08638417 0.36980611
0.038230769 -0.086102337 0.36859959
0.0387793 -0.085844778 0.367497
0.0393329 -0.085606903 0.36647865
0.0398928 -0.085390374 0.36555171
0.040455807 -0.085187435 0.36468294
0.041025169 -0.085004151 0.36389831
0.04159845 -0.084834635 0.36317262
0.04217048 -0.084667861 0.36245868
0.042749815 -0.084520623 0.36182836
0.043327086 -0.084373794 0.3611998
0.043907735 -0.084237806 0.36061764
0.044490647 -0.084110051 0.36007074
0.045071796 -0.083982699 0.35952553
0.045659315 -0.083870657 0.35904589
0.046247754 -0.083763413 0.35858679
0.046835035 -0.083657064 0.3581315
0.047428422 -0.083564363 0.35773465
0.04802049 -0.083471857 0.35733864
0.048611928 -0.083380722 0.35694849
0.049208935 -0.083301403 0.35660893
0.049804796 -0.083222203 0.3562699
0.050399948 -0.083143868 0.35593453
0.051000997 -0.083077095 0.3556487
0.051601101 -0.083010465 0.35536346
0.052200247 -0.082943946 0.3550787
0.052805364 -0.082888424 0.35484099
0.053409997 -0.082833469 0.35460573
0.054014724 -0.082779959 0.35437667
0.054624613 -0.082735524 0.35418645
0.055235278 -0.082693271 0.35400558
0.055845305 -0.082651049 0.35382482
0.056459039 -0.082615204 0.35367137
0.057075005 -0.082583383 0.35353515
0.057690542 -0.082551658 0.35339934
0.058308721 -0.082524367 0.35328248
0.058930703 -0.082502984 0.35319096
0.059552342 -0.082481585 0.35309935
0.060175464 -0.082462668 0.35301837
0.060804099 -0.082451627 0.35297111
0.061432537 -0.082440555 0.35292369
0.062061485 -0.082430385 0.35288015
0.06269747 -0.08242967 0.35287711
0.063333422 -0.082428925 0.35287389
0.063969351 -0.082428172 0.35287067
0.06461338 -0.082437761 0.35291174
0.065257832 -0.0824477 0.3529543
0.065902449 -0.082457654 0.35299689
0.066555306 -0.082477629 0.35308242
0.067209199 -0.082498498 0.35317174
0.06786342 -0.082519375 0.35326111
0.068526976 -0.082551099 0.35339692
0.069191724 -0.082583673 0.35353637
0.069857307 -0.082616635 0.35367748
0.070533521 -0.08266145 0.35386935
0.071210481 -0.08270634 0.35406151
0.071890838 -0.082754344 0.354267
0.072580978 -0.082812659 0.35451666
0.073272049 -0.082871005 0.35476643
0.073971093 -0.082937285 0.35505018
0.074677333 -0.083010428 0.35536328
0.075384833 -0.083083712 0.35567701
0.076107971 -0.08317285 0.3560586
0.076833069 -0.083262615 0.3564429
0.077569179 -0.083362728 0.35687146
0.078314804 -0.083471335 0.3573364
0.079067871 -0.08358603 0.35782743
0.079837687 -0.083716437 0.35838568
0.080613725 -0.083851218 0.35896268
0.081412621 -0.084007449 0.35963148
0.082221054 -0.08417096 0.36033148
0.083056644 -0.084359489 0.36113855
0.083916105 -0.084569149 0.36203611
0.084805444 -0.084805444 0.36304766
0.085750572 -0.085093483 0.36428073
0.086752214 -0.08543279 0.3657333
0.087852545 -0.085863426 0.36757684
0.089172617 -0.086500779 0.3703053
0.035881404 -0.087824009 0.37889582
0.036257967 -0.087086894 0.3757157
0.036718119 -0.086573914 0.37350258
0.037221093 -0.086178564 0.37179694
0.037743419 -0.085841224 0.37034157
0.038282722 -0.085553564 0.36910051
0.038825065 -0.085282408 0.36793068
0.039379153 -0.08504574 0.36690962
0.039937869 -0.084826715 0.36596471
0.040504668 -0.084631704 0.36512336
0.041070018 -0.084439963 0.36429614
0.041643832 -0.084271371 0.36356881
0.042215247 -0.084103242 0.36284345
0.042792343 -0.083951384 0.36218831
0.043370109 -0.083805397 0.36155847
0.043948814 -0.08366552 0.360955
0.044534244 -0.08354234 0.36042356
0.045117956 -0.083419532 0.35989374
0.045704547 -0.083305456 0.35940158
0.046293508 -0.083198823 0.35894156
0.046880949 -0.083092444 0.3584826
0.047472667 -0.082996428 0.35806838
0.04806523 -0.082904458 0.35767159
0.048656479 -0.082812682 0.35727564
0.049252521 -0.082731359 0.3569248
0.049848862 -0.082652628 0.35658512
0.05044407 -0.082574047 0.35624611
0.051045462 -0.082507446 0.35595876
0.051647387 -0.082443349 0.35568222
0.052248362 -0.082379319 0.35540599
0.052853558 -0.082323417 0.35516483
0.05345989 -0.082270607 0.35493699
0.05406544 -0.082217857 0.35470942
0.054674521 -0.082171649 0.35451004
0.055285715 -0.08212965 0.35432884
0.055896256 -0.082087643 0.35414764
0.056509476 -0.08205048 0.35398731
0.057126001 -0.082018889 0.35385102
0.057742134 -0.081987448 0.35371536
0.058360085 -0.08195924 0.35359368
0.058982585 -0.081937969 0.35350189
0.059604742 -0.081916675 0.35341004
0.060227931 -0.081897236 0.35332617
0.060857091 -0.081886239 0.35327873
0.061486062 -0.08187522 0.35323119
0.06211542 -0.081864938 0.35318682
0.062751926 -0.081864193 0.3531836
0.06338843 -0.081863448 0.35318038
0.06402491 -0.081862696 0.35317713
0.06467019 -0.081873097 0.35322201
0.065315671 -0.08188355 0.3532671
0.065961309 -0.081893988 0.35331216
0.066615626 -0.081914909 0.35340241
0.067270391 -0.081935979 0.3534933
0.067925945 -0.081957594 0.35358655
0.068590902 -0.081990056 0.35372663
0.069256395 -0.082022548 0.35386679
0.06992428 -0.08205726 0.35401654
0.070601039 -0.082101665 0.35420811
0.071278527 -0.082146108 0.35439986
0.071961507 -0.082196027 0.35461524
0.072651893 -0.082253464 0.35486302
0.07334324 -0.082310967 0.35511112
0.07404533 -0.082379438 0.35540649
0.074751578 -0.082451314 0.35571659
0.075463213 -0.082527854 0.35604683
0.076187596 -0.082616925 0.3564311
0.076913536 -0.082706191 0.3568162
0.077655502 -0.08281105 0.3572686
0.078402057 -0.082919046 0.35773453
0.07916256 -0.08303991 0.35825595
0.07993345 -0.083169624 0.35881558
0.080719009 -0.083312392 0.35943151
0.081519321 -0.08346799 0.3601028
0.082340531 -0.083642356 0.36085507
0.083177373 -0.083829746 0.36166352
0.084050491 -0.084050491 0.36261588
0.084949657 -0.084293678 0.36366504
0.085892685 -0.084576324 0.36488444
0.086926252 -0.084943138 0.366467
0.088075429 -0.085416548 0.36850941
0.089634322 -0.086277232 0.3722226
0.036076177 -0.087613568 0.38095254
0.036338791 -0.086601794 0.37655324
0.036789309 -0.086066738 0.37422675
0.03728335 -0.085650936 0.37241882
0.037803926 -0.085309744 0.37093526
0.038334817 -0.085003287 0.36960277
0.038877953 -0.084734 0.36843187
0.039432891 -0.084499054 0.3674103
0.039988559 -0.084273405 0.36642918
0.040553644 -0.084074624 0.36556485
0.041118547 -0.08388184 0.3647266
0.041689284 -0.083706826 0.36396563
0.042261336 -0.083539851 0.36323959
0.042837527 -0.083386026 0.36257076
0.043418169 -0.083245359 0.36195913
0.043996911 -0.083105274 0.36135003
0.04458148 -0.082980126 0.36080587
0.04516574 -0.082858019 0.36027491
0.045749869 -0.082739122 0.35975796
0.046339348 -0.082633108 0.35929698
0.046927311 -0.082527339 0.3588371
0.04751699 -0.082427435 0.3584027
0.048110355 -0.082336515 0.35800737
0.048703764 -0.082248077 0.35762283
0.049299616 -0.082166024 0.35726607
0.04989795 -0.082090177 0.35693628
0.050495222 -0.082014538 0.35660738
0.051095285 -0.08194527 0.3563062
0.051697761 -0.081881545 0.35602912
0.052299239 -0.081817828 0.35575208
0.052903298 -0.081759647 0.35549909
0.053510167 -0.081707142 0.3552708
0.054116253 -0.081654705 0.35504279
0.054724522 -0.081606746 0.35483426
0.05533623 -0.081564963 0.35465258
0.055947296 -0.081523202 0.35447103
0.056560006 -0.081484757 0.35430384
0.057177149 -0.08145348 0.35416785
0.057794083 -0.081422605 0.35403359
0.058412749 -0.081394814 0.35391277
0.05903662 -0.081374802 0.35382575
0.059660181 -0.081354797 0.35373875
0.060284313 -0.081335977 0.35365695
0.06091477 -0.081326 0.35361356
0.061545063 -0.081316017 0.35357013
0.062175643 -0.081306607 0.35352924
0.062813349 -0.081306614 0.35352927
0.063451059 -0.081306629 0.35352933
0.064089119 -0.081307091 0.35353133
0.064735085 -0.081317469 0.35357648
0.065381221 -0.081327856 0.35362163
0.066028088 -0.081338957 0.35366988
0.066683203 -0.081359893 0.35376093
0.067338683 -0.081380874 0.35385215
0.067996204 -0.081403904 0.35395229
0.068661876 -0.08143618 0.35409263
0.06932807 -0.08146847 0.35423303
0.069998473 -0.081505068 0.35439217
0.070675991 -0.081549227 0.35458416
0.071354195 -0.081593364 0.35477608
0.072040439 -0.081645831 0.35500422
0.072731636 -0.08170294 0.35525253
0.073424205 -0.081760578 0.35550314
0.074130103 -0.081831932 0.35581341
0.074837275 -0.081903458 0.3561244
0.075553343 -0.08198341 0.35647205
0.076277435 -0.082070656 0.3568514
0.077005796 -0.082160994 0.35724419
0.077749647 -0.082266226 0.35770175
0.078495383 -0.082371697 0.35816035
0.079261348 -0.082496502 0.35870302
0.080030762 -0.082622848 0.35925239
0.08082477 -0.082772352 0.35990244
0.081626378 -0.082927197 0.36057574
0.082460091 -0.083111949 0.36137903
0.083308004 -0.083308004 0.36223149
0.084188685 -0.083533518 0.36321208
0.085111581 -0.08379712 0.36435822
0.086082682 -0.084103771 0.36569157
0.087133333 -0.084482893 0.36734003
0.088381872 -0.085046709 0.36979157
0.036454674 -0.086196564 0.37775403
0.036875512 -0.085591786 0.37510359
0.03735641 -0.085145697 0.37314862
0.037865028 -0.084777445 0.37153479
0.038393259 -0.084465168 0.37016624
0.038938642 -0.084200658 0.36900702
0.039486773 -0.08395087 0.36791235
0.040043045 -0.083726369 0.36692846
0.040602762 -0.083516248 0.36600763
0.041169416 -0.083326899 0.36517781
0.041738864 -0.083149076 0.36439851
0.042314131 -0.08298818 0.36369339
0.042887148 -0.082827851 0.36299074
0.043467864 -0.08268699 0.36237341
0.044047207 -0.082547732 0.36176312
0.044628821 -0.082416728 0.36118901
0.045213632 -0.082295313 0.36065692
0.045796726 -0.082174271 0.36012644
0.046386834 -0.08206901 0.35966516
0.046977196 -0.081967108 0.35921857
0.047566511 -0.081866175 0.35877621
0.048161782 -0.081778057 0.35839006
0.04875575 -0.081690095 0.35800457
0.0493498 -0.08160457 0.35762975
0.0499487 -0.08152917 0.3572993
0.050546594 -0.081454068 0.35697016
0.051145211 -0.081381999 0.35665435
0.051748198 -0.081318595 0.35637647
0.052350216 -0.081255242 0.35609883
0.052953139 -0.081194818 0.35583401
0.05356054 -0.081142619 0.35560524
0.054168165 -0.081091985 0.35538337
0.054776799 -0.081044041 0.35517323
0.055390149 -0.081004091 0.35499817
0.056002896 -0.080964185 0.35482329
0.056616213 -0.080926001 0.35465592
0.057234917 -0.080896281 0.35452569
0.057853162 -0.080866575 0.35439551
0.058471654 -0.080837861 0.35426965
0.059096139 -0.08081796 0.35418245
0.059720304 -0.080798052 0.35409522
0.06034461 -0.080778763 0.35401067
0.060975682 -0.080768831 0.35396716
0.061606597 -0.080758907 0.35392365
0.062237717 -0.080749445 0.35388219
0.062876061 -0.08074946 0.35388225
0.063514471 -0.080749549 0.35388264
0.064153492 -0.080750413 0.35388643
0.064800113 -0.080760732 0.35393164
0.065446861 -0.080771007 0.35397667
0.066095129 -0.080782935 0.35402894
0.066750959 -0.080803789 0.35412034
0.067407161 -0.080824703 0.35421199
0.068066612 -0.080849074 0.3543188
0.068732984 -0.080881141 0.35445935
0.069399878 -0.080913223 0.35459995
0.07007283 -0.080951713 0.35476863
0.070751049 -0.080995545 0.35496071
0.071429998 -0.081039414 0.35515296
0.072119549 -0.081094429 0.35539407
0.072811574 -0.081151225 0.35564297
0.073508292 -0.081212215 0.35591027
0.074215136 -0.081283249 0.35622156
0.074923262 -0.081354439 0.35653356
0.075644553 -0.081438601 0.35690239
0.076369502 -0.081525251 0.35728213
0.077104494 -0.081621073 0.35770208
0.077849381 -0.081725694 0.35816059
0.078602314 -0.081836976 0.35864827
0.079370603 -0.081962295 0.35919747
0.080147639 -0.082094543 0.35977703
0.080944046 -0.082244352 0.36043358
0.081754327 -0.082405761 0.36114094
0.082585134 -0.082585134 0.36192703
0.083444864 -0.082790397 0.36282659
0.084335342 -0.083022729 0.36384478
0.085273832 -0.083298378 0.36505282
0.08627902 -0.083634451 0.36652565
0.087380886 -0.084058419 0.36838368
0.088766299 -0.084746689 0.3714
0.036593907 -0.085841775 0.37919679
0.036968675 -0.085129701 0.37605128
0.037430875 -0.084640987 0.37389243
0.037934545 -0.084261693 0.37221694
0.038461965 -0.08394742 0.37082866
0.03899952 -0.083665639 0.36958393
0.039542124 -0.083403975 0.36842805
0.040099021 -0.083180614 0.36744139
0.04065704 -0.082966805 0.36649692
0.041226264 -0.082782336 0.36568204
0.041793004 -0.082598776 0.36487117
0.042367063 -0.082435139 0.36414832
0.04294068 -0.082275651 0.36344382
0.043517683 -0.082127355 0.36278874
0.044097625 -0.081988916 0.36217719
0.04467833 -0.081855923 0.3615897
0.045265824 -0.081739001 0.36107323
0.045851644 -0.081622429 0.36055827
0.046439391 -0.081512496 0.36007267
0.04703036 -0.081411175 0.35962507
0.047619853 -0.081310086 0.35917854
0.048213318 -0.081218407 0.35877356
0.048807837 -0.081130907 0.35838702
0.04940106 -0.081043571 0.35800123
0.049999606 -0.080967106 0.35766345
0.05059807 -0.080892451 0.35733369
0.051196817 -0.080820128 0.35701421
0.051801454 -0.080758788 0.35674325
0.052405417 -0.080697909 0.35647431
0.053008527 -0.080637209 0.35620618
0.053617764 -0.080587178 0.35598516
0.054226242 -0.0805372 0.35576439
0.054834038 -0.080487385 0.35554436
0.055448003 -0.080447681 0.35536894
0.056061387 -0.080408052 0.35519388
0.056674201 -0.080368504 0.35501918
0.057293516 -0.080338947 0.35488865
0.057912346 -0.080309384 0.35475805
0.058530718 -0.080279835 0.35462752
0.05915577 -0.080259986 0.35453984
0.059780538 -0.08024019 0.35445237
0.060405023 -0.080220424 0.35436508
0.061036713 -0.080210552 0.35432145
0.061668251 -0.08020068 0.35427785
0.062299915 -0.080191173 0.35423586
0.062938958 -0.080191262 0.35423625
0.063578457 -0.080191925 0.35423917
0.064219058 -0.080193944 0.35424811
0.064866774 -0.080204733 0.35429576
0.065514676 -0.080215529 0.35434344
0.066164881 -0.080228917 0.35440257
0.066821754 -0.080250047 0.35449594
0.06747897 -0.080271192 0.35458934
0.068140663 -0.080297217 0.35470429
0.068807885 -0.08032921 0.35484561
0.069475636 -0.080361217 0.35498703
0.070151143 -0.08040154 0.35516512
0.07083001 -0.080444939 0.35535684
0.071510732 -0.080489658 0.35555437
0.072202221 -0.080545582 0.35580143
0.072894663 -0.080601588 0.35604882
0.073595189 -0.080665469 0.35633102
0.074302211 -0.080735303 0.3566395
0.075012475 -0.080807433 0.35695812
0.075735852 -0.080892332 0.35733315
0.076461777 -0.080978505 0.35771382
0.077203378 -0.081079699 0.35816082
0.077949308 -0.081183717 0.35862032
0.078710653 -0.08130195 0.3591426
0.079480194 -0.08142665 0.35969344
0.080267966 -0.081567846 0.36031717
0.081065722 -0.08171685 0.36097538
0.081889905 -0.081889905 0.36173981
0.082727753 -0.082073778 0.36255205
0.083600305 -0.082288928 0.36350247
0.08450681 -0.082533889 0.36458454
0.085457027 -0.082817428 0.36583707
0.086496606 -0.083182566 0.36745
0.087685458 -0.083684601 0.36966771
0.036852434 -0.085759401 0.38187575
0.037075303 -0.084694967 0.37713593
0.037520412 -0.084167406 0.37478679
0.038015641 -0.083768979 0.37301263
0.038532447 -0.083431125 0.37150821
0.039060593 -0.083128951 0.3701627
0.039608795 -0.08287891 0.36904928
0.040161338 -0.082646057 0.36801243
0.040720064 -0.082433306 0.36706504
0.041283268 -0.082236275 0.36618769
0.041850638 -0.082053609 0.36537433
0.042420115 -0.081880689 0.36460432
0.042995941 -0.081725106 0.36391154
0.04357177 -0.081574216 0.36323965
0.044154771 -0.081441022 0.36264655
0.044735841 -0.081308208 0.36205515
0.045320563 -0.081185758 0.36150989
0.045907024 -0.081069849 0.36099377
0.04649207 -0.080954723 0.36048111
0.047083639 -0.080853976 0.3600325
0.047673736 -0.080753468 0.35958496
0.048265133 -0.08065784 0.35915914
0.048861925 -0.080573641 0.3587842
0.049457476 -0.080489621 0.35841006
0.050055772 -0.080412172 0.35806522
0.050656393 -0.080340393 0.35774559
0.051255867 -0.080268621 0.35742599
0.051858954 -0.080204219 0.35713923
0.052463554 -0.080143712 0.35686979
0.053067274 -0.08008334 0.35660097
0.05367535 -0.080030911 0.3563675
0.054284438 -0.079981215 0.35614622
0.054892775 -0.07993158 0.3559252
0.055505984 -0.079890117 0.35574055
0.056120008 -0.079850756 0.35556528
0.056733418 -0.079811417 0.35539013
0.057352394 -0.079780705 0.35525337
0.057972882 -0.079752751 0.35512888
0.058592934 -0.079724811 0.35500449
0.059218749 -0.079705238 0.35491732
0.059845075 -0.079686761 0.35483503
0.060471114 -0.079668291 0.35475281
0.061103847 -0.07965894 0.35471117
0.061736852 -0.079650134 0.35467196
0.062369965 -0.079641648 0.35463417
0.063010365 -0.079642549 0.35463816
0.06365075 -0.079643406 0.35464197
0.064292401 -0.079645813 0.3546527
0.06494087 -0.079656534 0.35470045
0.065589577 -0.079667345 0.35474858
0.06624151 -0.079681814 0.35481301
0.066899158 -0.079702832 0.35490659
0.067557126 -0.079723813 0.35500002
0.06822107 -0.079751395 0.35512283
0.068889096 -0.079783186 0.35526443
0.069557615 -0.079814963 0.3554059
0.070236042 -0.079857416 0.35559496
0.070915788 -0.079900593 0.35578722
0.071600229 -0.079948239 0.35599938
0.072292648 -0.080003865 0.35624707
0.072986171 -0.080059722 0.3564958
0.073691465 -0.080127403 0.35679716
0.074399412 -0.080196768 0.35710603
0.075115368 -0.080273509 0.35744774
0.075839639 -0.080357745 0.35782287
0.076569185 -0.080446109 0.35821632
0.077312604 -0.080547437 0.35866752
0.078059912 -0.080651112 0.35912916
0.078825817 -0.080772132 0.35966808
0.079596579 -0.080896117 0.36022013
0.080389194 -0.081040114 0.36086136
0.081195451 -0.081195451 0.36155304
0.08202628 -0.081372686 0.36234224
0.082882561 -0.08157216 0.3632305
0.083762497 -0.081791617 0.36420768
0.084689096 -0.082052864 0.36537099
0.085674502 -0.082366608 0.36676806
0.086744264 -0.082756028 0.36850208
0.088064492 -0.083376653 0.37126565
0.037213385 -0.084327579 0.37854052
0.037626099 -0.08372654 0.37584248
0.038100176 -0.083280914 0.37384209
0.038605075 -0.082916982 0.37220845
0.039136708 -0.082621939 0.370884
0.039678752 -0.08235842 0.36970109
0.040224724 -0.082111627 0.36859325
0.040783282 -0.081898138 0.36763492
0.041340429 -0.081688687 0.36669472
0.041911256 -0.081512444 0.36590356
0.042480145 -0.081337951 0.36512029
0.043056853 -0.08118353 0.36442709
0.043632515 -0.081031814 0.36374605
0.044212293 -0.080892123 0.36311898
0.044794016 -0.08076001 0.36252594
0.045375437 -0.080631174 0.3619476
0.045962546 -0.080515951 0.36143038
0.046549369 -0.080403455 0.36092538
0.047140364 -0.080301173 0.36046624
0.047733035 -0.080204487 0.36003223
0.048324194 -0.080107898 0.35959864
0.048921119 -0.080023289 0.35921884
0.049517389 -0.079939842 0.35884425
0.050113741 -0.079858668 0.35847989
0.050714985 -0.079787269 0.35815936
0.051315054 -0.079715841 0.35783872
0.051916581 -0.07964842 0.35753608
0.052521832 -0.079588301 0.35726622
0.053126182 -0.07952828 0.3569968
0.053733628 -0.079474285 0.35675442
0.054344658 -0.079426803 0.35654128
0.054954953 -0.079379372 0.35632837
0.055568527 -0.079337724 0.35614139
0.056184374 -0.079300232 0.35597309
0.056799639 -0.079262771 0.35580495
0.057418998 -0.079231799 0.35566592
0.058040183 -0.079204008 0.35554114
0.058660947 -0.079176255 0.35541657
0.059286665 -0.079155713 0.35532436
0.059913702 -0.079137348 0.35524192
0.060540441 -0.079118989 0.35515952
0.061173458 -0.079109132 0.35511526
0.061807182 -0.079100385 0.35507599
0.062440991 -0.079091921 0.35503802
0.063082099 -0.079092778 0.35504186
0.063723125 -0.079093531 0.35504523
0.064365909 -0.079096422 0.35505819
0.065015204 -0.079107165 0.35510644
0.065664724 -0.079117984 0.35515499
0.066318311 -0.079133444 0.3552244
0.066976711 -0.079154298 0.35531801
0.067635462 -0.079175159 0.35541165
0.068301648 -0.079204254 0.35554227
0.068970449 -0.079235822 0.35568395
0.069641285 -0.079269111 0.35583341
0.070321165 -0.079312004 0.35602593
0.071001783 -0.079354934 0.35621867
0.071689993 -0.079405509 0.35644567
0.072383486 -0.079460986 0.3566947
0.073080175 -0.079518959 0.35695493
0.073787861 -0.07958778 0.35726389
0.074496731 -0.079656675 0.35757315
0.075218529 -0.079738095 0.35793865
0.075943843 -0.079821832 0.35831451
0.076680802 -0.079916276 0.35873848
0.077425495 -0.080017142 0.35919127
0.078182109 -0.080128558 0.35969138
0.078949556 -0.080249131 0.36023265
0.079732135 -0.08038301 0.36083362
0.080526233 -0.080526233 0.36147654
0.081344105 -0.080690742 0.36221498
0.082175367 -0.0808658 0.36300081
0.083039813 -0.08107049 0.36391965
0.083943017 -0.081309512 0.36499262
0.084893517 -0.081590265 0.3662529
0.085915089 -0.081934467 0.367798
0.087068327 -0.082397997 0.36987874
0.088762358 -0.083362371 0.37420774
0.03741876 -0.084106393 0.38062963
0.037741277 -0.083302818 0.376993
0.038191833 -0.082805306 0.37474146
0.038695395 -0.082438014 0.37307927
0.0392171 -0.082121275 0.37164584
0.039748956 -0.081836082 0.37035519
0.040295679 -0.081590429 0.36924344
0.040849674 -0.081367239 0.36823338
0.041411001 -0.08116556 0.36732069
0.041976668 -0.08097861 0.36647463
0.042546291 -0.080804966 0.3656888
0.043117937 -0.080640413 0.3649441
0.043694317 -0.080489531 0.36426127
0.044269964 -0.080341786 0.36359262
0.044853937 -0.080213249 0.36301091
0.045436956 -0.080086723 0.36243832
0.046024393 -0.079971462 0.36191672
0.046612747 -0.079861 0.36141679
0.04720081 -0.079753093 0.36092845
0.04779416 -0.079656929 0.36049327
0.048385967 -0.079560816 0.36005831
0.048980448 -0.079471588 0.35965449
0.049577445 -0.079388715 0.35927945
0.050173208 -0.079306036 0.35890529
0.050774168 -0.079233572 0.35857734
0.05137651 -0.079165064 0.35826728
0.051978081 -0.079097085 0.35795963
0.052585475 -0.079039522 0.35769913
0.053191986 -0.07898204 0.35743901
0.053798981 -0.078926645 0.35718831
0.054410707 -0.078879431 0.35697463
0.055021685 -0.078832239 0.35676107
0.055634379 -0.078788571 0.35656345
0.05625093 -0.078751296 0.35639477
0.056866877 -0.078714043 0.35622615
0.057485756 -0.078681618 0.35607943
0.058107652 -0.078653999 0.35595444
0.05872912 -0.078626417 0.3558296
0.059354741 -0.078604929 0.35573235
0.059982482 -0.078586675 0.35564974
0.060609929 -0.078568429 0.35556716
0.061243232 -0.078558072 0.35552031
0.061878126 -0.078549951 0.35548356
0.062513478 -0.078542568 0.35545015
0.063155904 -0.078544147 0.35545728
0.063798361 -0.078545719 0.3554644
0.064443044 -0.078549981 0.35548368
0.065093696 -0.078561358 0.35553518
0.065744542 -0.078572743 0.35558671
0.066400245 -0.078589663 0.35566327
0.067059807 -0.078610778 0.35575882
0.067719765 -0.078631952 0.35585466
0.068388529 -0.078662857 0.35599452
0.069058329 -0.078694373 0.35613716
0.069732331 -0.078730047 0.3562986
0.070413016 -0.078772552 0.35649094
0.071094498 -0.078815162 0.35668379
0.071786493 -0.078868568 0.35692549
0.072480567 -0.078923285 0.35717309
0.073181532 -0.078984469 0.35745001
0.073889434 -0.079052016 0.35775569
0.074601389 -0.079122685 0.3580755
0.075325049 -0.079204455 0.35844555
0.076050773 -0.079286978 0.35881901
0.076792963 -0.079385132 0.35926321
0.077538751 -0.079485334 0.35971668
0.078304909 -0.079604581 0.36025634
0.079075173 -0.079725996 0.36080584
0.079867981 -0.079867981 0.36144838
0.080671132 -0.080017924 0.36212698
0.081497036 -0.08018785 0.36289597
0.082348078 -0.080379598 0.36376375
0.083223015 -0.080591463 0.36472255
0.084138364 -0.080838814 0.36584198
0.085111022 -0.081136964 0.36719128
0.086186312 -0.081527591 0.36895907
0.087483868 -0.082120873 0.37164402
0.037885766 -0.082939111 0.3784363
0.038309865 -0.082383156 0.37589958
0.038791053 -0.081967182 0.37400156
0.03929783 -0.08161857 0.37241089
0.0398289 -0.081331283 0.37110007
0.040373523 -0.081080712 0.36995676
0.04092288 -0.080847643 0.3688933
0.041482981 -0.080642916 0.36795917
0.042042781 -0.08044406 0.36705181
0.042612638 -0.08027032 0.36625907
0.043181174 -0.080099426 0.36547932
0.043759882 -0.079952262 0.36480784
0.044337809 -0.079808056 0.36414984
0.044919625 -0.079674952 0.36354253
0.045503397 -0.079549104 0.3629683
0.046087231 -0.079426929 0.36241084
0.0466763 -0.079317071 0.36190957
0.047263756 -0.07920754 0.36140978
0.047855403 -0.07910791 0.36095521
0.04844854 -0.079013392 0.36052394
0.049042564 -0.078922801 0.36011058
0.049642086 -0.07884331 0.35974789
0.050240371 -0.078763939 0.35938573
0.050840352 -0.078689203 0.35904473
0.051443413 -0.078621067 0.35873383
0.052045602 -0.078553304 0.35842463
0.052651562 -0.07849282 0.35814866
0.053258765 -0.078435637 0.35788774
0.053865071 -0.078378521 0.35762712
0.054476917 -0.078330711 0.357409
0.055088576 -0.078283764 0.35719478
0.055700392 -0.078238122 0.35698652
0.056317627 -0.078201048 0.35681736
0.056935243 -0.078165337 0.35665441
0.057554852 -0.078133121 0.35650742
0.058178592 -0.078107171 0.35638902
0.058801915 -0.078081235 0.35627067
0.059428468 -0.078060098 0.35617423
0.060057931 -0.078043193 0.3560971
0.060687147 -0.078026332 0.35602015
0.061321687 -0.078016602 0.35597575
0.061957762 -0.078008994 0.35594106
0.062593974 -0.078001723 0.35590789
0.063237235 -0.078003295 0.35591504
0.063880533 -0.078004874 0.35592225
0.064526603 -0.078009769 0.3559446
0.065178111 -0.078021087 0.35599622
0.065829672 -0.07803224 0.35604712
0.066487297 -0.078050308 0.35612956
0.067147806 -0.078071371 0.35622567
0.067809843 -0.078093804 0.35632801
0.068480045 -0.078125119 0.35647091
0.069150753 -0.078156434 0.35661379
0.069828048 -0.078194544 0.35678768
0.070509806 -0.078236908 0.35698098
0.071194455 -0.078281686 0.3571853
0.071888603 -0.078336008 0.35743317
0.072583631 -0.078390323 0.35768098
0.073289827 -0.078455627 0.35797897
0.073998779 -0.078522719 0.3582851
0.074717171 -0.078598589 0.35863125
0.075442195 -0.078680053 0.35900298
0.076176234 -0.078769468 0.35941094
0.076919816 -0.078867152 0.35985667
0.077673659 -0.078973636 0.36034253
0.078439139 -0.079090089 0.36087388
0.079218373 -0.079218373 0.36145923
0.080009058 -0.079355925 0.36208686
0.080823287 -0.079514407 0.36280999
0.081656963 -0.079689324 0.36360809
0.082521871 -0.079891689 0.36453146
0.083423935 -0.080126546 0.36560306
0.08436989 -0.080399543 0.36684871
0.085384287 -0.080733001 0.36837021
0.08652477 -0.081179611 0.370408
0.088249274 -0.082163118 0.37489557
0.038092952 -0.082706317 0.38050583
0.038442377 -0.081987724 0.3771998
0.038896192 -0.081512891 0.37501526
0.039395638 -0.081148274 0.37333778
0.0399197 -0.080845781 0.3719461
0.04045314 -0.080571957 0.37068629
0.041003354 -0.080339909 0.36961871
0.041555215 -0.080118455 0.36859989
0.042117149 -0.079923093 0.36770108
0.042684123 -0.079743207 0.36687347
0.04325626 -0.07957831 0.36611485
0.043829467 -0.079420313 0.36538795
0.04440818 -0.079276823 0.3647278
0.044985503 -0.079135083 0.36407569
0.045570031 -0.079009913 0.36349982
0.04615273 -0.07888516 0.36292589
0.046741664 -0.078774415 0.36241639
0.047332156 -0.07866931 0.36193281
0.047922835 -0.078567363 0.36146381
0.048518132 -0.078475632 0.36104178
0.049112171 -0.078384325 0.36062169
0.049709879 -0.078301184 0.36023918
0.050308835 -0.078222126 0.35987547
0.050906703 -0.07814341 0.35951331
0.051510572 -0.078075774 0.35920215
0.052113503 -0.078008413 0.35889223
0.052717809 -0.077944733 0.35859928
0.053326551 -0.077889085 0.35834324
0.05393514 -0.077834547 0.35809234
0.054547101 -0.077786103 0.35786948
0.05516091 -0.077741399 0.35766381
0.055774033 -0.077696778 0.3574585
0.056392509 -0.077660538 0.35729179
0.057011213 -0.077625439 0.35713029
0.05763036 -0.07759171 0.35697514
0.05825489 -0.077565908 0.35685641
0.058878947 -0.077540033 0.35673738
0.059505466 -0.077517934 0.35663569
0.060135745 -0.077501148 0.35655847
0.060765781 -0.077484407 0.35648146
0.061400708 -0.077474192 0.35643446
0.062037624 -0.077466674 0.35639986
0.062674686 -0.077459484 0.35636681
0.063318789 -0.077461056 0.35637403
0.063962922 -0.077462636 0.3563813
0.064610362 -0.077468149 0.35640666
0.065262593 -0.077479236 0.35645768
0.065915018 -0.077490337 0.35650873
0.066574655 -0.077509619 0.35659745
0.067236111 -0.07753063 0.35669413
0.067900673 -0.077554792 0.35680529
0.068571776 -0.077585906 0.35694844
0.069243424 -0.077617049 0.3570917
0.069924146 -0.077657692 0.35727867
0.070606947 -0.077699877 0.35747278
0.071295768 -0.077747874 0.35769358
0.071990892 -0.077801816 0.35794175
0.072689466 -0.077858493 0.35820252
0.073398314 -0.077925086 0.35850888
0.07410866 -0.077992089 0.35881713
0.074833497 -0.078073047 0.3591896
0.075559907 -0.078154236 0.35956314
0.076302148 -0.078250282 0.36000502
0.077047192 -0.078347571 0.36045259
0.077811241 -0.078462377 0.36098081
0.07858023 -0.07858023 0.361523
0.079369985 -0.078716733 0.362151
0.080172382 -0.078863449 0.36282599
0.080993608 -0.079026148 0.36357453
0.081843123 -0.079213627 0.36443704
0.082717322 -0.079421811 0.36539483
0.083630145 -0.0796635 0.36650679
0.084609099 -0.079963893 0.36788881
0.085690938 -0.080356091 0.36969319
0.086992204 -0.080946416 0.37240908
0.038601674 -0.081644244 0.37876284
0.03901919 -0.08109206 0.37620112
0.039502826 -0.080693804 0.37435356
0.04001388 -0.080364011 0.3728236
0.040545251 -0.080085248 0.37153035
0.041084509 -0.079830877 0.37035027
0.041637752 -0.079611383 0.36933202
0.042198602 -0.079413116 0.3684122
0.042761456 -0.079224713 0.36753818
0.043331612 -0.079055384 0.36675262
0.043902323 -0.078892142 0.36599532
0.044478778 -0.078743912 0.36530763
0.045057848 -0.078604564 0.36466119
0.045641173 -0.078476548 0.36406729
0.046227314 -0.078356937 0.3635124
0.046813045 -0.078239985 0.36296982
0.047404338 -0.078135423 0.36248475
0.047994025 -0.0780311 0.36200079
0.048587926 -0.077936336 0.36156115
0.049182799 -0.077845626 0.36114031
0.049777862 -0.077757575 0.36073184
0.050377667 -0.077679113 0.36036783
0.050978057 -0.077603541 0.36001724
0.051581793 -0.077534899 0.3596988
0.052187257 -0.077470519 0.35940015
0.05279167 -0.07740619 0.35910171
0.053401753 -0.07735163 0.3588486
0.054011133 -0.077297367 0.35859686
0.054621767 -0.077246167 0.35835934
0.055236377 -0.077201724 0.35815313
0.055850305 -0.077157356 0.35794732
0.05646788 -0.077118993 0.35776934
0.05708738 -0.077084087 0.35760742
0.057706319 -0.077049218 0.35744566
0.058331341 -0.077023149 0.35732472
0.058956176 -0.076997414 0.3572053
0.05958268 -0.076974377 0.35709846
0.060214832 -0.076959066 0.35702741
0.060846739 -0.076943755 0.35695639
0.061483078 -0.076934323 0.35691261
0.062121749 -0.076927967 0.35688314
0.062760606 -0.07692197 0.35685533
0.063406318 -0.076924413 0.35686666
0.064052075 -0.076926872 0.35687804
0.064701676 -0.076933831 0.35691035
0.065355405 -0.076945521 0.35696459
0.066009358 -0.076957256 0.35701901
0.066671602 -0.076978326 0.35711676
0.067334436 -0.076999664 0.35721576
0.068002142 -0.077026121 0.35733849
0.068674423 -0.077057213 0.35748273
0.069348551 -0.077089787 0.35763386
0.070031606 -0.077131584 0.35782775
0.070715383 -0.077173412 0.3580218
0.071408555 -0.077224635 0.35825944
0.072104365 -0.077277772 0.35850596
0.07280796 -0.077338234 0.35878643
0.073517241 -0.077403612 0.35908976
0.07423386 -0.077475511 0.35942331
0.074958801 -0.077554777 0.35979104
0.075691417 -0.077640556 0.36018896
0.076434195 -0.077735201 0.36062804
0.077186763 -0.07783813 0.36110556
0.077950031 -0.077950031 0.36162469
0.07873068 -0.078077309 0.36221516
0.079522274 -0.078213267 0.36284587
0.080341309 -0.078373767 0.36359048
0.081177458 -0.078548223 0.36439982
0.082036056 -0.078741439 0.36529616
0.082938634 -0.078973442 0.36637247
0.083885707 -0.079243809 0.36762676
0.084900275 -0.079573199 0.36915487
0.086077884 -0.080049083 0.37136257
0.038866874 -0.081517249 0.381365
0.039175957 -0.08073654 0.37771258
0.039628785 -0.080273688 0.37554723
0.040122513 -0.079907857 0.37383574
0.040641028 -0.079602681 0.372408
0.041179482 -0.079345837 0.3712064
0.041728646 -0.079117507 0.37013823
0.042280369 -0.078901164 0.36912608
0.042844128 -0.078713626 0.36824873
0.043407232 -0.078530639 0.36739266
0.043982152 -0.078374214 0.36666083
0.044556163 -0.078220822 0.36594322
0.045137551 -0.07808467 0.36530626
0.045716789 -0.077948764 0.36467046
0.046302885 -0.077828251 0.36410666
0.046888024 -0.077709526 0.3635512
0.047476735 -0.077599905 0.36303836
0.048067223 -0.077496134 0.36255288
0.048659954 -0.077398717 0.36209714
0.0492578 -0.077311911 0.36169103
0.049854279 -0.077225253 0.36128563
0.050454643 -0.077146776 0.36091846
0.051055897 -0.077071644 0.36056697
0.051657345 -0.076998681 0.36022565
0.052263618 -0.076934643 0.35992604
0.052868839 -0.076870643 0.35962662
0.053477172 -0.076812662 0.35935539
0.054087337 -0.076758675 0.35910282
0.054696642 -0.076704755 0.35885057
0.05531206 -0.076660573 0.35864386
0.055928208 -0.076618411 0.3584466
0.056546349 -0.076579913 0.3582665
0.057168055 -0.076547056 0.35811278
0.057789214 -0.076514214 0.35795912
0.058414992 -0.076488137 0.35783714
0.05904191 -0.076464117 0.35772476
0.059669536 -0.076441512 0.35761902
0.060302593 -0.076426283 0.35754776
0.060935441 -0.076411106 0.35747677
0.061572313 -0.076401249 0.35743064
0.062211867 -0.076394886 0.35740086
0.062851712 -0.076389 0.35737336
0.06349837 -0.076391436 0.35738474
0.064145103 -0.076393925 0.35739636
0.064796291 -0.076401599 0.35743228
0.065451019 -0.076413259 0.35748684
0.066106983 -0.076426126 0.35754701
0.066770457 -0.076447338 0.35764626
0.067434318 -0.076468579 0.35774565
0.068104893 -0.076496966 0.35787845
0.068778194 -0.076527849 0.35802293
0.069456078 -0.076563209 0.35818836
0.070140235 -0.076604769 0.35838279
0.07082691 -0.076648302 0.35858643
0.071522929 -0.07670106 0.35883325
0.072219886 -0.07675387 0.35908031
0.072929315 -0.076818876 0.35938445
0.073640063 -0.076884121 0.35968968
0.074363917 -0.076961778 0.360053
0.075090282 -0.07704068 0.3604221
0.075831823 -0.077133656 0.3608571
0.076576799 -0.077228516 0.36130089
0.077339604 -0.077339604 0.36182058
0.078109875 -0.077456236 0.36236623
0.078896888 -0.077587396 0.36297983
0.079700939 -0.07773301 0.36366108
0.080519453 -0.07789024 0.36439666
0.081368737 -0.078074455 0.36525846
0.08225549 -0.078291364 0.36627325
0.083183482 -0.078543767 0.36745405
0.084173642 -0.078850411 0.36888865
0.085269287 -0.079250276 0.37075937
0.086706206 -0.07995864 0.37407333
0.039378304 -0.080468707 0.3796635
0.039767276 -0.079874441 0.37685966
0.040241335 -0.079468183 0.37494287
0.040754806 -0.079151899 0.37345058
0.041283 -0.078874029 0.37213954
0.04181993 -0.078621469 0.37094796
0.0423721 -0.078405067 0.36992693
0.042931139 -0.078207888 0.36899662
0.043497439 -0.078029759 0.36815616
0.044067182 -0.077863067 0.36736968
0.044641089 -0.077708565 0.36664072
0.04521754 -0.077562936 0.36595362
0.04579765 -0.077427678 0.36531547
0.046378698 -0.077297829 0.36470282
0.046967525 -0.077184394 0.3641676
0.047554757 -0.077071503 0.36363497
0.048148621 -0.076972283 0.36316684
0.048740979 -0.076873355 0.36270007
0.04933697 -0.076782703 0.36227235
0.04993429 -0.076696463 0.36186546
0.050531849 -0.076612808 0.36147076
0.051133994 -0.076538146 0.3611185
0.051735003 -0.076463684 0.36076719
0.052340373 -0.076397441 0.36045465
0.052948304 -0.07633651 0.36016718
0.053556647 -0.076277651 0.35988945
0.054169342 -0.076226324 0.35964727
0.054781251 -0.076175116 0.35940567
0.055396851 -0.076130174 0.35919365
0.056014009 -0.076088391 0.35899651
0.056631278 -0.076047719 0.35880458
0.057253875 -0.076015033 0.35865039
0.057875894 -0.075982317 0.35849604
0.058501244 -0.075954653 0.35836551
0.059128996 -0.075930677 0.35825238
0.05975664 -0.075907081 0.35814106
0.06039064 -0.075891979 0.35806981
0.061024409 -0.075876907 0.3579987
0.06166178 -0.075866587 0.35795
0.062302198 -0.075860187 0.35791981
0.062943086 -0.075854488 0.3578929
0.063591458 -0.075857833 0.3579087
0.064239971 -0.075861268 0.35792491
0.064893514 -0.075870529 0.3579686
0.06554988 -0.075882867 0.3580268
0.066208698 -0.075897776 0.35809714
0.066873655 -0.07591936 0.358199
0.067539006 -0.075940982 0.35830101
0.068212748 -0.075971544 0.3584452
0.068887308 -0.076002434 0.35859093
0.069569133 -0.076040678 0.35877138
0.070254341 -0.076081894 0.35896584
0.070945553 -0.076128796 0.35918713
0.071642302 -0.076180726 0.35943216
0.072344691 -0.076237679 0.35970086
0.073054716 -0.07630159 0.3600024
0.073770769 -0.076370619 0.36032811
0.07449571 -0.076447561 0.36069113
0.075228654 -0.076531313 0.36108628
0.075972594 -0.076624714 0.36152697
0.076728545 -0.076728545 0.36201683
0.077493168 -0.076839224 0.36253902
0.078277171 -0.07696709 0.36314234
0.079072297 -0.077103689 0.36378685
0.079888195 -0.077258132 0.36451551
0.080729358 -0.077434279 0.36534661
0.081595205 -0.077631064 0.36627507
0.082495578 -0.077857271 0.36734235
0.083448075 -0.078128673 0.36862287
0.084509164 -0.078496657 0.37035906
0.085758626 -0.079032458 0.37288705
0.039849374 -0.080738299 0.38420528
0.039941341 -0.079541303 0.37850922
0.040387027 -0.079077125 0.37630033
0.040875752 -0.07871116 0.37455884
0.041391175 -0.078407675 0.37311468
0.041926641 -0.078151256 0.37189448
0.042472925 -0.077922769 0.37080717
0.043028519 -0.077718176 0.36983359
0.043590382 -0.07753098 0.3689428
0.044155285 -0.077354744 0.36810416
0.044727389 -0.077196158 0.36734951
0.04530219 -0.077046789 0.36663869
0.045884222 -0.076913841 0.36600605
0.046466619 -0.076785259 0.36539418
0.047053069 -0.076666892 0.36483088
0.047641054 -0.076554246 0.36429486
0.048230674 -0.076447256 0.36378574
0.048823941 -0.076348849 0.36331743
0.049416389 -0.076251782 0.36285552
0.050015081 -0.076166756 0.36245093
0.05061426 -0.076084666 0.36206028
0.05121728 -0.076010354 0.36170667
0.051821291 -0.075939372 0.36136889
0.052425925 -0.075871058 0.36104381
0.053034779 -0.075810447 0.36075538
0.053642657 -0.075749934 0.3604674
0.054254904 -0.07569696 0.36021534
0.054867782 -0.075646117 0.35997337
0.055482011 -0.0755983 0.35974583
0.056100089 -0.07555677 0.35954821
0.056717496 -0.0755153 0.35935086
0.057339925 -0.07548137 0.35918942
0.057963863 -0.075450167 0.35904095
0.058590189 -0.075422727 0.35891035
0.05922018 -0.075400554 0.35880485
0.059849828 -0.075378433 0.35869956
0.060485411 -0.07536418 0.35863173
0.061121341 -0.07535065 0.35856736
0.061760377 -0.075341195 0.35852236
0.062402818 -0.075336047 0.35849786
0.063045815 -0.075331666 0.35847703
0.063695326 -0.075335085 0.3584933
0.064344965 -0.07533858 0.35850993
0.06500037 -0.07534869 0.35855803
0.065657757 -0.075360879 0.35861602
0.066319056 -0.075377263 0.35869402
0.066985168 -0.075398766 0.35879633
0.067653462 -0.07542228 0.35890824
0.068328671 -0.075452991 0.35905436
0.069004759 -0.075484082 0.35920233
0.069690496 -0.075525045 0.35939726
0.070376962 -0.075566046 0.35959235
0.071073309 -0.075616807 0.3598339
0.071771361 -0.075668447 0.36007965
0.072480232 -0.075730465 0.36037478
0.073191836 -0.075794213 0.36067811
0.073915787 -0.075869508 0.36103642
0.074642636 -0.075946435 0.36140251
0.07538449 -0.076037176 0.36183429
0.076131783 -0.076131783 0.36228451
0.07689324 -0.076238826 0.36279389
0.077666759 -0.076355927 0.36335114
0.078451209 -0.076481722 0.36394975
0.079259463 -0.076628439 0.36464792
0.08008948 -0.076793619 0.36543393
0.080944359 -0.076979741 0.36631963
0.081835672 -0.077197216 0.36735451
0.082776688 -0.077457704 0.36859408
0.083783321 -0.077774957 0.37010378
0.084946312 -0.078231193 0.37227485
0.040210158 -0.079389289 0.3810567
0.040563509 -0.078740932 0.37794468
0.041019212 -0.078309402 0.37587342
0.041518893 -0.077974506 0.37426597
0.042041942 -0.077693507 0.37291721
0.042583421 -0.07745488 0.37177184
0.043131646 -0.077235736 0.37071997
0.043685362 -0.077032968 0.36974671
0.044252906 -0.076860309 0.36891797
0.044821166 -0.076693989 0.36811969
0.045398608 -0.076548018 0.36741903
0.045974378 -0.076403461 0.36672518
0.046557769 -0.07627549 0.36611095
0.047139388 -0.076148242 0.36550015
0.047727834 -0.07603538 0.36495844
0.048316754 -0.075926326 0.36443502
0.048911642 -0.075829454 0.36397004
0.049507003 -0.075735882 0.36352089
0.050104465 -0.07564792 0.36309868
0.050704654 -0.075566292 0.3627069
0.051304691 -0.075486518 0.362324
0.051909618 -0.075415865 0.36198485
0.052513357 -0.075345255 0.36164594
0.05312153 -0.075282663 0.3613455
0.053730335 -0.07522247 0.3610566
0.054341692 -0.075167254 0.36079156
0.054957364 -0.075119242 0.3605611
0.055572283 -0.075071327 0.36033115
0.056192774 -0.075031973 0.36014223
0.05681283 -0.074992932 0.35995486
0.057435859 -0.07495866 0.35979035
0.058061291 -0.074928254 0.35964441
0.058687288 -0.074899249 0.35950518
0.0593183 -0.074877203 0.35939935
0.059949018 -0.074855261 0.35929406
0.060584731 -0.074839965 0.35922062
0.061221644 -0.074826449 0.35915577
0.061861333 -0.074816585 0.35910842
0.062504746 -0.074811377 0.35908341
0.063148953 -0.074807227 0.35906348
0.063799605 -0.074810699 0.35908017
0.064450331 -0.0748142 0.35909697
0.065107495 -0.074825034 0.35914895
0.065765932 -0.074837096 0.35920686
0.066429809 -0.074855052 0.35929304
0.067097098 -0.074876472 0.35939586
0.067768589 -0.074902125 0.359519
0.068445019 -0.074932694 0.35966572
0.069125302 -0.074966878 0.35982978
0.069812268 -0.075007603 0.36002526
0.070503026 -0.075051613 0.3602365
0.071201473 -0.075102925 0.36048281
0.071904607 -0.075158209 0.36074814
0.072616473 -0.075221546 0.36105216
0.073334731 -0.075290322 0.36138228
0.074061297 -0.075366341 0.36174715
0.07479772 -0.075450972 0.36215338
0.075541221 -0.075541221 0.36258656
0.076300494 -0.075645559 0.36308736
0.07706818 -0.075756386 0.3636193
0.077852257 -0.075881317 0.36421895
0.078654297 -0.076021522 0.36489192
0.079472624 -0.076175004 0.36562863
0.080314331 -0.076348186 0.36645988
0.081190817 -0.076551341 0.36743498
0.082111321 -0.076792367 0.36859187
0.0831028 -0.077095367 0.37004623
0.084205844 -0.077496216 0.37197024
0.085758589 -0.078301318 0.37583461
0.040798113 -0.078510657 0.38013056
0.04118868 -0.077952124 0.3774263
0.041667424 -0.077575937 0.37560487
0.042175509 -0.077265531 0.37410197
0.042700622 -0.076995611 0.37279508
0.04324213 -0.076763161 0.37166959
0.043798354 -0.07656353 0.37070304
0.044357054 -0.076374181 0.36978623
0.044926159 -0.076208077 0.36898202
0.045495436 -0.076047115 0.36820269
0.04607185 -0.075902544 0.36750269
0.046650682 -0.075766005 0.36684158
0.047236755 -0.075644873 0.3662551
0.047822781 -0.075527012 0.36568445
0.048413925 -0.075420335 0.36516795
0.049004164 -0.075315125 0.36465853
0.049600516 -0.075221978 0.36420754
0.050195321 -0.075128943 0.3637571
0.050795373 -0.075046062 0.36335582
0.051395357 -0.074965201 0.3629643
0.052000508 -0.074893817 0.36261865
0.052607533 -0.074826866 0.3622945
0.053215306 -0.074762613 0.36198339
0.053827211 -0.074705645 0.36170757
0.054438148 -0.074648716 0.36143196
0.055054363 -0.074600287 0.36119747
0.055670343 -0.074552685 0.36096698
0.056289427 -0.074510284 0.36076167
0.05691047 -0.074471414 0.3605735
0.057532575 -0.074434802 0.36039621
0.058159076 -0.074404627 0.36025012
0.058785077 -0.074374489 0.3601042
0.059416804 -0.074352175 0.35999617
0.060050003 -0.074332163 0.35989928
0.060687143 -0.074317411 0.35982785
0.061326388 -0.074305519 0.35977027
0.061967939 -0.074296638 0.35972726
0.062613517 -0.074292727 0.35970831
0.063260227 -0.074290209 0.35969615
0.06391295 -0.074294746 0.35971811
0.064565703 -0.074299224 0.35973978
0.065225586 -0.074311733 0.35980037
0.065885976 -0.074324578 0.35986254
0.066553302 -0.074344911 0.35996097
0.067222275 -0.074366674 0.36006635
0.067897618 -0.074395001 0.3602035
0.068575598 -0.074425645 0.36035189
0.069260612 -0.074463286 0.36053413
0.069948874 -0.07450369 0.36072975
0.07064499 -0.074551627 0.36096185
0.071344629 -0.074602373 0.36120757
0.072054327 -0.074662626 0.36149931
0.072766766 -0.074724615 0.36179942
0.073492154 -0.074798688 0.36215806
0.074222013 -0.074875951 0.36253217
0.074963503 -0.074963503 0.36295608
0.075715147 -0.075059608 0.36342138
0.076475509 -0.075162627 0.36392018
0.077254355 -0.075281903 0.36449769
0.078048185 -0.075413652 0.36513558
0.078860417 -0.075560816 0.36584812
0.079701431 -0.075732902 0.36668131
0.080571473 -0.0759295 0.36763319
0.081479803 -0.076158673 0.36874282
0.082441866 -0.076433957 0.37007567
0.083499223 -0.076792456 0.37181145
0.084859058 -0.077421211 0.37485573
0.041416895 -0.07769946 0.37951753
0.041839797 -0.077216536 0.3771587
0.042321209 -0.076855317 0.37539434
0.042837366 -0.076567575 0.3739889
0.043371398 -0.076320216 0.37278068
0.043915872 -0.076098494 0.37169772
0.044472557 -0.075904287 0.37074912
0.045031983 -0.075720444 0.36985114
0.045602486 -0.075560324 0.36906904
0.046177369 -0.07541196 0.3683444
0.046756878 -0.075275257 0.36767668
0.047338933 -0.075146422 0.36704737
0.047924105 -0.075026013 0.36645925
0.048511505 -0.074912325 0.36590394
0.049102239 -0.074806772 0.36538836
0.049696006 -0.074708566 0.3649087
0.050294802 -0.074620396 0.36447802
0.050893649 -0.074534565 0.36405882
0.05149734 -0.074457943 0.36368454
0.052099615 -0.07438121 0.36330977
0.052707452 -0.074314229 0.3629826
0.0533145 -0.0742478 0.36265811
0.053925522 -0.074188441 0.3623682
0.05453749 -0.074131794 0.36209151
0.055151727 -0.074079536 0.36183625
0.055769552 -0.07403326 0.36161023
0.056389201 -0.073990457 0.36140114
0.05701315 -0.073954202 0.36122406
0.057636499 -0.073917992 0.36104721
0.058265448 -0.073889703 0.36090901
0.058894224 -0.073861815 0.36077282
0.059527107 -0.073839635 0.36066446
0.060161434 -0.073819704 0.36056712
0.06079879 -0.073803879 0.36048982
0.061439149 -0.073791996 0.36043176
0.062081493 -0.07378272 0.36038646
0.062728345 -0.073778935 0.36036798
0.063376531 -0.073776782 0.36035746
0.064030409 -0.073781237 0.36037922
0.064684987 -0.073786393 0.3604044
0.065346405 -0.073799171 0.36046684
0.066008359 -0.073812306 0.36053097
0.066678204 -0.073833913 0.36063653
0.067348644 -0.073855758 0.36074322
0.068027422 -0.073886245 0.36089212
0.068707488 -0.073917538 0.36104497
0.069396414 -0.073957682 0.36124107
0.070087835 -0.07399971 0.36144635
0.07078813 -0.074050255 0.36169323
0.071493134 -0.074104756 0.36195943
0.072205894 -0.074166231 0.36225972
0.072926745 -0.074234851 0.36259487
0.073653743 -0.07430844 0.36295432
0.07439407 -0.07439407 0.36337256
0.075141683 -0.074485421 0.36381876
0.075902 -0.07458768 0.36431825
0.076676987 -0.074702471 0.36487892
0.077464983 -0.07482788 0.36549148
0.078270011 -0.074967474 0.36617333
0.079100519 -0.075128943 0.36696202
0.079955965 -0.075311221 0.36785233
0.080852799 -0.075529158 0.36891684
0.081808515 -0.075798094 0.37023044
0.082849696 -0.076141223 0.3719064
0.08409445 -0.076664418 0.37446192
0.041851748 -0.077823497 0.38350224
0.042062398 -0.076943412 0.37916532
0.042496223 -0.076493204 0.37694675
0.042993255 -0.076169156 0.37534988
0.043513354 -0.075895384 0.37400079
0.044046979 -0.07565321 0.37280738
0.044592746 -0.075438857 0.3717511
0.045155689 -0.075259484 0.37086716
0.04572003 -0.075087644 0.37002036
0.04629131 -0.074931979 0.36925328
0.046866544 -0.074787036 0.36853904
0.047445007 -0.074651234 0.36786982
0.048029553 -0.07452862 0.36726558
0.048617803 -0.074415006 0.36670572
0.049210154 -0.074310638 0.36619139
0.049803719 -0.074210837 0.36569962
0.050400343 -0.074118152 0.36524287
0.050998963 -0.074030749 0.36481217
0.051599871 -0.07394886 0.36440861
0.052203201 -0.073872454 0.36403209
0.05280805 -0.073800072 0.36367542
0.053418778 -0.073737577 0.36336744
0.054029536 -0.073676638 0.36306715
0.054644961 -0.073623449 0.36280504
0.055259492 -0.073570333 0.36254328
0.055879604 -0.073525794 0.36232382
0.056499042 -0.073481411 0.3621051
0.057122834 -0.073443644 0.36191899
0.057747338 -0.073407635 0.36174154
0.058375366 -0.073376857 0.36158988
0.059005264 -0.073349088 0.36145303
0.059637818 -0.073325187 0.36133525
0.060273279 -0.073305339 0.36123744
0.060911078 -0.073288731 0.3611556
0.061554033 -0.073278613 0.36110574
