# .PCD v0.7 - Point Cloud Data file format
VERSION 0.7
FIELDS x y z
SIZE 4 4 4
TYPE F F F
COUNT 1 1 1
WIDTH 1311
HEIGHT 1
VIEWPOINT 0 0 0 1 0 0 0
POINTS 1311
DATA ascii
-0.11141083 -0.065385371 0.40501139
-0.11044887 -0.065248668 0.40416464
-0.10951765 -0.065128438 0.40341988
-0.10860901 -0.065020107 0.40274888
-0.10772148 -0.064923048 0.40214765
-0.10685183 -0.064835519 0.40160549
-0.10599671 -0.064755671 0.40111089
-0.10515494 -0.064682931 0.40066034
-0.10432667 -0.064617552 0.40025535
-0.10350806 -0.064557299 0.39988211
-0.1027004 -0.064503059 0.39954615
-0.10190137 -0.064453512 0.39923927
-0.10111096 -0.064408764 0.39896205
-0.10032819 -0.06436827 0.39871123
-0.099553347 -0.064332306 0.39848849
-0.098785356 -0.064300284 0.39829013
-0.098023348 -0.064271718 0.39811319
-0.097267374 -0.064246714 0.39795831
-0.096516572 -0.06422478 0.39782244
-0.095771782 -0.064206548 0.39770952
-0.095032401 -0.064191699 0.39761752
-0.094297856 -0.064179912 0.3975445
-0.093568034 -0.06417118 0.39749041
-0.092842273 -0.064165123 0.39745289
-0.092120737 -0.064161912 0.39743301
-0.09140344 -0.064161636 0.39743128
-0.09068995 -0.064164035 0.39744616
-0.089980088 -0.064169064 0.39747733
-0.089274183 -0.064177021 0.39752662
-0.08857166 -0.064187564 0.39759189
-0.087872684 -0.064200856 0.39767426
-0.08717671 -0.064216584 0.39777169
-0.086483963 -0.064234979 0.39788559
-0.085794538 -0.064256161 0.39801681
-0.08510796 -0.064279854 0.39816356
-0.084424011 -0.064305946 0.3983252
-0.083743259 -0.064334951 0.39850485
-0.083065026 -0.064366408 0.3986997
-0.082389623 -0.064400621 0.39891163
-0.081717096 -0.06443771 0.39914137
-0.081047252 -0.064477593 0.3993884
-0.080379985 -0.064520255 0.39965269
-0.079715267 -0.064565755 0.39993453
-0.079053119 -0.064614192 0.40023455
-0.078393377 -0.064665504 0.40055239
-0.077736259 -0.06471996 0.40088966
-0.077081822 -0.06477768 0.40124723
-0.076429777 -0.064838529 0.40162414
-0.075780958 -0.064903304 0.40202537
-0.075134449 -0.064971335 0.40244678
-0.074490413 -0.065042846 0.40288973
-0.073849149 -0.065118216 0.40335658
-0.073210754 -0.065197632 0.4038485
-0.072575763 -0.065281719 0.40436932
-0.071944006 -0.06537044 0.40491891
-0.071315147 -0.065463647 0.40549624
-0.070690066 -0.065562293 0.40610728
-0.070068747 -0.065666527 0.40675291
-0.06945093 -0.065776274 0.40743273
-0.068838552 -0.06589359 0.4081594
-0.068230838 -0.066017948 0.40892971
-0.067628376 -0.066150159 0.40974867
-0.067032665 -0.066291973 0.4106271
-0.066445224 -0.066445224 0.41157633
-0.065865621 -0.066609867 0.4125962
-0.065297961 -0.066790484 0.41371498
-0.06474416 -0.066989623 0.41494849
-0.064208537 -0.06721244 0.41632867
-0.063698411 -0.067467548 0.41790885
-0.063228436 -0.067771792 0.41979343
-0.062826462 -0.068157196 0.42218068
-0.062625557 -0.068772852 0.42599419
-0.11775191 -0.066165358 0.4144738
-0.11612312 -0.06566707 0.4113524
-0.11484492 -0.065361902 0.40944076
-0.11369815 -0.065128066 0.40797597
-0.11263505 -0.064939424 0.40679428
-0.11162155 -0.064777099 0.40577742
-0.11065064 -0.064637505 0.40490299
-0.10970928 -0.06451343 0.40412575
-0.10879374 -0.064402983 0.40343392
-0.10789908 -0.064303488 0.40281066
-0.10702314 -0.064213887 0.40224937
-0.10616232 -0.064132184 0.40173757
-0.10531712 -0.064058863 0.40127826
-0.1044834 -0.063991569 0.4008567
-0.10366063 -0.063930072 0.40047151
-0.1028491 -0.063874699 0.40012464
-0.10204672 -0.063824274 0.39980873
-0.10125304 -0.063778602 0.39952266
-0.10046762 -0.063737519 0.39926532
-0.099689193 -0.063700311 0.39903224
-0.098917738 -0.063667051 0.39882389
-0.098153546 -0.063638017 0.39864197
-0.097395517 -0.063612573 0.39848259
-0.096643388 -0.063590631 0.39834517
-0.095895998 -0.063571505 0.39822534
-0.095154271 -0.063555866 0.39812741
-0.094417594 -0.063543402 0.39804929
-0.093685538 -0.063533872 0.3979896
-0.092958234 -0.063527443 0.39794934
-0.092235193 -0.063523844 0.39792681
-0.091516286 -0.063523069 0.39792195
-0.090801314 -0.063525029 0.39793423
-0.090090409 -0.063529886 0.39796466
-0.089382969 -0.063537292 0.39801103
-0.088679112 -0.06354738 0.39807421
-0.08797884 -0.063560225 0.39815468
-0.087282017 -0.063575789 0.39825219
-0.086588241 -0.063593857 0.39836535
-0.085897677 -0.063614599 0.39849529
-0.0852101 -0.06363792 0.39864141
-0.0845256 -0.06366396 0.39880452
-0.083843842 -0.063692532 0.39898351
-0.083164878 -0.063723736 0.39917895
-0.082489133 -0.063757978 0.39939344
-0.08181604 -0.063794881 0.39962465
-0.081145421 -0.063834399 0.39987215
-0.080477633 -0.063876867 0.4001382
-0.079812475 -0.063922212 0.40042225
-0.07914988 -0.063970454 0.40072444
-0.07849022 -0.064021975 0.4010472
-0.077832602 -0.064076141 0.4013865
-0.077177994 -0.06413383 0.40174785
-0.076526232 -0.064194992 0.40213099
-0.075876959 -0.064259432 0.40253466
-0.075230077 -0.064327165 0.40295896
-0.074585862 -0.064398527 0.40340599
-0.073945157 -0.064474352 0.40388095
-0.073307306 -0.064554192 0.40438113
-0.072672457 -0.064638317 0.40490806
-0.072040267 -0.064726532 0.40546069
-0.071412094 -0.064820208 0.40604749
-0.070787191 -0.064918824 0.40666524
-0.070166238 -0.065023169 0.40731886
-0.069550008 -0.065134138 0.408014
-0.068937801 -0.065251291 0.40874788
-0.0683311 -0.065376244 0.40953061
-0.067729831 -0.065509185 0.41036338
-0.067135975 -0.065652303 0.41125992
-0.066548757 -0.065805197 0.41221768
-0.065972209 -0.065972209 0.41326389
-0.065406039 -0.066153534 0.41439974
-0.064855896 -0.066355459 0.41566461
-0.064325057 -0.066582076 0.41708419
-0.063822426 -0.066843607 0.41872248
-0.063365415 -0.067159757 0.4207029
-0.062998734 -0.067580462 0.42333829
-0.11655162 -0.065164641 0.41287029
-0.11517946 -0.064811595 0.41063344
-0.1139928 -0.064559028 0.40903324
-0.11289888 -0.064356036 0.40774715
-0.11186817 -0.064186655 0.40667397
-0.11087956 -0.06403935 0.40574068
-0.10992672 -0.063910887 0.40492675
-0.10899963 -0.063795768 0.40419739
-0.10809586 -0.063692845 0.40354529
-0.10721285 -0.063600846 0.40296239
-0.10634454 -0.063516364 0.40242711
-0.10549229 -0.063440382 0.40194574
-0.10465297 -0.063371174 0.40150726
-0.10382561 -0.063308299 0.40110889
-0.10300849 -0.063250825 0.40074474
-0.10220151 -0.063198812 0.40041518
-0.10140419 -0.063152075 0.40011907
-0.10061447 -0.063109435 0.39984891
-0.099832848 -0.063071288 0.39960724
-0.099058911 -0.063037492 0.39939308
-0.098291166 -0.063007161 0.39920092
-0.097529545 -0.062980331 0.39903095
-0.096774414 -0.062957332 0.39888522
-0.096025258 -0.062937908 0.39876214
-0.095281415 -0.062921688 0.39865938
-0.094542354 -0.062908411 0.39857528
-0.093808129 -0.062898174 0.3985104
-0.093078859 -0.062891118 0.39846572
-0.092353858 -0.062886871 0.39843878
-0.091633447 -0.062885702 0.39843136
-0.090917014 -0.062887266 0.39844128
-0.090204418 -0.062891528 0.39846829
-0.089495488 -0.062898435 0.39851207
-0.088790223 -0.062908053 0.39857298
-0.088088498 -0.062920354 0.39865094
-0.087390803 -0.062935762 0.39874855
-0.086695939 -0.062953487 0.39886084
-0.086004496 -0.062974006 0.39899084
-0.085315995 -0.062997043 0.39913681
-0.084630392 -0.063022628 0.39929894
-0.083947986 -0.063051067 0.39947909
-0.083268292 -0.063082039 0.39967534
-0.082591861 -0.063116051 0.39989084
-0.081918284 -0.063152865 0.40012407
-0.081247315 -0.06319236 0.40037429
-0.080579184 -0.063234784 0.40064311
-0.07991378 -0.063280143 0.40093046
-0.079250626 -0.063328125 0.40123448
-0.078590453 -0.063379399 0.40155935
-0.077933244 -0.063434042 0.40190554
-0.077278756 -0.063491933 0.40227234
-0.076626599 -0.063552864 0.4026584
-0.075977087 -0.063617177 0.40306586
-0.075330883 -0.063685529 0.40349892
-0.074687362 -0.063757502 0.40395495
-0.074046738 -0.063833393 0.40443578
-0.073408894 -0.063913219 0.40494153
-0.072774507 -0.063997678 0.40547666
-0.072143771 -0.064087108 0.40604323
-0.071516074 -0.064181089 0.40663871
-0.070892394 -0.064280674 0.40726963
-0.070272714 -0.064385995 0.40793696
-0.06965708 -0.064497292 0.40864211
-0.069047026 -0.064616203 0.40939549
-0.068441868 -0.064742312 0.41019449
-0.067842796 -0.064876989 0.41104779
-0.067251287 -0.065021962 0.41196632
-0.066667832 -0.065178044 0.41295522
-0.066093765 -0.065346949 0.41402534
-0.065532677 -0.065532677 0.41520208
-0.064987898 -0.065739207 0.41651061
-0.064465053 -0.065973006 0.41799194
-0.063972868 -0.066244088 0.41970947
-0.063537523 -0.066581234 0.42184556
-0.063228212 -0.067060225 0.42488033
-0.11718425 -0.064769574 0.41511133
-0.11560507 -0.064307645 0.41215083
-0.11434342 -0.064017512 0.41029137
-0.11320919 -0.063795403 0.40886787
-0.11214648 -0.063610956 0.4076857
-0.11113792 -0.063454978 0.40668607
-0.1101666 -0.063318342 0.40581036
-0.10922632 -0.063197836 0.40503803
-0.10831058 -0.063089997 0.40434688
-0.10741581 -0.062992997 0.40372521
-0.10653954 -0.062905595 0.40316504
-0.10567926 -0.062826499 0.4026581
-0.10483277 -0.062754564 0.40219706
-0.10399875 -0.06268914 0.40177777
-0.1031758 -0.062629521 0.40139565
-0.10236434 -0.062576078 0.40105313
-0.10156113 -0.062526956 0.40073833
-0.10076737 -0.062482994 0.40045655
-0.09998174 -0.062443469 0.40020323
-0.099203326 -0.062407911 0.39997533
-0.098432302 -0.06237651 0.3997741
-0.097667895 -0.062348876 0.39959699
-0.09690965 -0.062324796 0.39944264
-0.096157171 -0.062304083 0.3993099
-0.09541066 -0.062286958 0.39920014
-0.094669506 -0.062273096 0.3991113
-0.093933135 -0.062262192 0.39904141
-0.093201362 -0.062254194 0.39899015
-0.092474438 -0.062249329 0.39895898
-0.091751866 -0.062247343 0.39894626
-0.091033861 -0.06224845 0.39895335
-0.09031979 -0.062252287 0.39897794
-0.089609504 -0.06225881 0.39901975
-0.088902853 -0.062267989 0.39907858
-0.088199712 -0.062279794 0.39915425
-0.087500751 -0.062294774 0.39925024
-0.086804852 -0.062312197 0.39936191
-0.086112358 -0.062332377 0.39949125
-0.085422903 -0.062355116 0.39963698
-0.08473672 -0.062380649 0.39980063
-0.084053397 -0.062408745 0.39998069
-0.083373241 -0.062439702 0.40017909
-0.082696185 -0.062473536 0.40039593
-0.082022063 -0.062510207 0.40063095
-0.081350595 -0.062549569 0.40088323
-0.080681816 -0.062591724 0.40115339
-0.080016047 -0.062637001 0.40144357
-0.079353109 -0.062685333 0.40175337
-0.078693017 -0.062736832 0.4020834
-0.078035772 -0.062791571 0.40243426
-0.077380955 -0.06284932 0.40280437
-0.076729104 -0.062910594 0.40319705
-0.076080374 -0.062975615 0.40361381
-0.075434402 -0.063044213 0.40405342
-0.074791394 -0.06311664 0.40451762
-0.074151523 -0.063193172 0.40500811
-0.073514998 -0.0632741 0.40552679
-0.072881386 -0.063359194 0.40607217
-0.072251327 -0.063449137 0.40664861
-0.071625404 -0.063544586 0.40726036
-0.071002521 -0.063644752 0.4079023
-0.070384733 -0.063751616 0.40858722
-0.069771536 -0.063864946 0.40931356
-0.069163509 -0.063985489 0.41008613
-0.068560898 -0.064113706 0.41090786
-0.06796547 -0.064251512 0.41179106
-0.067377463 -0.064399451 0.41273922
-0.066797711 -0.064558685 0.41375974
-0.066229999 -0.064733274 0.41487873
-0.065675683 -0.064925104 0.41610816
-0.065140001 -0.065140001 0.41748545
-0.064628877 -0.065384768 0.41905418
-0.064158171 -0.065676704 0.4209252
-0.063760497 -0.066051297 0.42332596
-0.063597761 -0.066681288 0.4273636
-0.11617509 -0.06387762 0.41418302
-0.11476927 -0.063513085 0.4118194
-0.11356685 -0.063257106 0.41015959
-0.11246339 -0.063053243 0.40883777
-0.11142378 -0.062882729 0.40773213
-0.11042946 -0.062735677 0.40677863
-0.10947092 -0.062607117 0.40594506
-0.10853991 -0.062492672 0.40520301
-0.1076335 -0.062390942 0.4045434
-0.10674535 -0.062298484 0.4039439
-0.10587522 -0.062215332 0.40340474
-0.10501999 -0.062139854 0.40291533
-0.10417847 -0.062071487 0.40247205
-0.10334943 -0.062009659 0.40207115
-0.10253076 -0.061953217 0.40170518
-0.10172274 -0.061902452 0.40137601
-0.10092381 -0.061856531 0.40107825
-0.10013328 -0.061815128 0.40080979
-0.099351272 -0.061778426 0.40057182
-0.098576099 -0.061745469 0.40035814
-0.097807921 -0.061716441 0.40016991
-0.097046867 -0.061691504 0.40000823
-0.096291728 -0.061669987 0.3998687
-0.09554214 -0.061651718 0.39975026
-0.094798207 -0.061636861 0.39965391
-0.094059512 -0.061625198 0.3995783
-0.093325928 -0.061616734 0.39952341
-0.092596874 -0.061611149 0.3994872
-0.091872536 -0.061608642 0.39947096
-0.091152221 -0.061608814 0.39947206
-0.090436809 -0.06161233 0.39949486
-0.089725129 -0.061618462 0.39953461
-0.089017183 -0.06162728 0.3995918
-0.088312805 -0.061638735 0.39966607
-0.087612033 -0.06165291 0.39975798
-0.086915374 -0.061670247 0.3998704
-0.08622171 -0.06169001 0.39999855
-0.085531533 -0.061712626 0.40014517
-0.084844358 -0.061737813 0.40030849
-0.084160224 -0.061765656 0.40048903
-0.083479434 -0.061796464 0.4006888
-0.082801923 -0.061830256 0.4009079
-0.082127072 -0.061866652 0.40114388
-0.081455223 -0.061905973 0.40139884
-0.080786228 -0.061948184 0.40167254
-0.080120169 -0.061993435 0.40196595
-0.079457164 -0.062041894 0.40228015
-0.078796864 -0.062093381 0.402614
-0.078139395 -0.062148076 0.40296865
-0.077484772 -0.062206082 0.40334475
-0.076833621 -0.062268004 0.40374625
-0.07618507 -0.062333237 0.40416923
-0.075539388 -0.062402103 0.40461576
-0.074897483 -0.062475462 0.4050914
-0.074258134 -0.062552422 0.40559042
-0.073622115 -0.062633738 0.40611768
-0.072990149 -0.06272018 0.40667817
-0.072361656 -0.06281139 0.40726957
-0.071737446 -0.062908225 0.40789744
-0.071117014 -0.063010409 0.40856004
-0.070501186 -0.06311886 0.40926322
-0.069890775 -0.063234508 0.41001308
-0.069285817 -0.063357621 0.41081133
-0.068686679 -0.063488767 0.41166171
-0.06809552 -0.063630238 0.412579
-0.067512438 -0.063782468 0.41356605
-0.066939831 -0.06394811 0.41464007
-0.066379309 -0.064129159 0.41581401
-0.065835074 -0.064330272 0.41711804
-0.065311939 -0.064556889 0.41858739
-0.06482143 -0.06482143 0.42030269
-0.064383365 -0.065145299 0.42240268
-0.064062104 -0.065596521 0.4253284
-0.11719629 -0.063685447 0.41782379
-0.1153142 -0.063068286 0.41377476
-0.11398903 -0.062749662 0.41168433
-0.11282192 -0.062514439 0.41014114
-0.11173999 -0.062323626 0.40888923
-0.11071549 -0.062162515 0.40783224
-0.10973366 -0.062023371 0.40691936
-0.10878341 -0.061900325 0.40611207
-0.10786037 -0.061791196 0.4053961
-0.10695943 -0.061693322 0.40475398
-0.10607871 -0.061605848 0.40418008
-0.10521397 -0.061526507 0.40365955
-0.10436377 -0.061454624 0.40318793
-0.10352736 -0.061389908 0.40276337
-0.10270214 -0.061330959 0.40237662
-0.10188846 -0.061278112 0.4020299
-0.10108404 -0.061230116 0.40171501
-0.10028911 -0.061187223 0.40143359
-0.099502541 -0.061148833 0.40118173
-0.098723322 -0.061114438 0.40095606
-0.097952083 -0.061084513 0.40075973
-0.097187147 -0.061058097 0.40058643
-0.096428588 -0.061035324 0.40043703
-0.095676914 -0.061016601 0.40031418
-0.094930425 -0.061000921 0.4002113
-0.094189197 -0.060988404 0.4001292
-0.093453139 -0.060979076 0.40006799
-0.092722207 -0.06097297 0.40002793
-0.091996066 -0.060969945 0.40000808
-0.091274202 -0.060969722 0.40000662
-0.090556465 -0.060972277 0.4000234
-0.089843392 -0.060978048 0.40006125
-0.089134164 -0.060986534 0.40011692
-0.088428505 -0.06099762 0.40018967
-0.087726459 -0.061011404 0.40028009
-0.087028474 -0.061028264 0.40039071
-0.086333737 -0.061047703 0.40051824
-0.085642561 -0.06107001 0.4006646
-0.084954448 -0.061094899 0.40082788
-0.084269807 -0.061122738 0.40101051
-0.083588377 -0.061153404 0.40121171
-0.08291018 -0.061186992 0.40143207
-0.082234919 -0.061223354 0.40167063
-0.081562407 -0.061262432 0.40192702
-0.080892943 -0.061304513 0.40220311
-0.080227017 -0.06135007 0.402502
-0.079563491 -0.061398309 0.40281847
-0.078903057 -0.061449848 0.40315661
-0.07824555 -0.061504643 0.40351611
-0.077591628 -0.061563309 0.40390101
-0.07694006 -0.061624974 0.40430558
-0.076292053 -0.061690703 0.40473679
-0.075647153 -0.061760236 0.40519297
-0.075005487 -0.061833791 0.40567556
-0.074366912 -0.061911374 0.40618455
-0.073732577 -0.061994057 0.40672702
-0.073101394 -0.062081087 0.407298
-0.072474852 -0.062173858 0.40790665
-0.071851775 -0.062271539 0.40854752
-0.071234144 -0.062376015 0.40923294
-0.070620276 -0.062486 0.40995455
-0.070013344 -0.062604524 0.41073215
-0.069412179 -0.062730797 0.41156057
-0.068817653 -0.062865853 0.41244668
-0.068231523 -0.063011624 0.413403
-0.06765569 -0.063170232 0.41444358
-0.067091003 -0.063342907 0.41557646
-0.066541262 -0.063533746 0.41682854
-0.066010892 -0.063747659 0.41823196
-0.065508246 -0.063993603 0.41984552
-0.065047242 -0.064286456 0.42176688
-0.064669192 -0.064669192 0.42427787
-0.064611301 -0.065385088 0.42897469
-0.11615095 -0.062774137 0.41677719
-0.11451533 -0.062293354 0.41358513
-0.11323743 -0.06200213 0.41165161
-0.11209345 -0.061780881 0.41018265
-0.11102697 -0.061599676 0.40897959
-0.11001437 -0.061446153 0.4079603
-0.10904123 -0.061312746 0.40707457
-0.10809969 -0.061195418 0.4062956
-0.10718445 -0.061091479 0.40560549
-0.10629112 -0.060998682 0.40498939
-0.10541568 -0.060914941 0.40443343
-0.10455643 -0.060839456 0.40393224
-0.10371204 -0.060771622 0.40348187
-0.10288024 -0.060710248 0.40307438
-0.10206015 -0.060654968 0.40270737
-0.10124976 -0.060604699 0.40237361
-0.10045019 -0.060560223 0.40207833
-0.099658445 -0.060519855 0.40181032
-0.098876148 -0.060484678 0.40157676
-0.098100722 -0.06045321 0.40136784
-0.097332835 -0.06042596 0.40118691
-0.096571282 -0.060402263 0.40102959
-0.095816083 -0.060382213 0.40089646
-0.095066875 -0.060365658 0.40078655
-0.094323374 -0.060352504 0.40069923
-0.093585275 -0.060342629 0.40063366
-0.092851557 -0.060335446 0.40058598
-0.09212371 -0.060332 0.40056309
-0.091400124 -0.060331311 0.4005585
-0.090680905 -0.060333509 0.4005731
-0.089965723 -0.060338456 0.40060595
-0.089254946 -0.060346462 0.40065911
-0.088548101 -0.060357276 0.40073091
-0.087845117 -0.060370922 0.40082151
-0.087145381 -0.060387045 0.40092856
-0.086449973 -0.060406469 0.40105751
-0.085757837 -0.060428519 0.4012039
-0.085068762 -0.060453121 0.40136725
-0.084383056 -0.060480561 0.40154943
-0.083700947 -0.060511075 0.40175202
-0.083022036 -0.060544454 0.40197363
-0.082346134 -0.060580637 0.40221387
-0.081673078 -0.060619574 0.40247238
-0.081003673 -0.060661942 0.40275368
-0.080337055 -0.060707185 0.40305406
-0.079673454 -0.060755555 0.40337521
-0.079012714 -0.060807019 0.40371689
-0.078355588 -0.060862243 0.40408355
-0.077701263 -0.060920712 0.40447173
-0.077050358 -0.060982984 0.40488517
-0.076402843 -0.061049163 0.40532455
-0.075758159 -0.061118901 0.40578756
-0.07511726 -0.061193086 0.4062801
-0.074479952 -0.061271682 0.40680194
-0.073846117 -0.061354734 0.40735334
-0.073216736 -0.061443191 0.40794063
-0.072591417 -0.061536882 0.40856269
-0.071970843 -0.061636567 0.40922451
-0.071354896 -0.061742317 0.40992662
-0.070744291 -0.061854959 0.41067448
-0.070140526 -0.061976019 0.41147825
-0.069543332 -0.062105544 0.4123382
-0.068954289 -0.06224522 0.41326556
-0.068374403 -0.06239631 0.4142687
-0.067806333 -0.062561646 0.41536641
-0.067252263 -0.062743731 0.41657531
-0.066716447 -0.062947161 0.41792595
-0.06620571 -0.063179165 0.41946632
-0.065732606 -0.063452862 0.42128345
-0.065324962 -0.063796893 0.42356759
-0.065090828 -0.06432052 0.42704412
-0.11527369 -0.061954916 0.41632405
-0.11374072 -0.061531864 0.41348124
-0.11249551 -0.061259933 0.41165391
-0.11137199 -0.061051086 0.41025051
-0.1103193 -0.060878545 0.40909106
-0.10931886 -0.0607327 0.40811101
-0.10835536 -0.060605537 0.40725651
-0.10742316 -0.060494274 0.40650883
-0.10651494 -0.060395069 0.40584221
-0.10562822 -0.060306769 0.40524885
-0.10475885 -0.060227215 0.40471426
-0.10390617 -0.060156204 0.40423709
-0.10306595 -0.060091455 0.40380198
-0.10223991 -0.060034107 0.40341663
-0.10142405 -0.059981968 0.40306625
-0.10061883 -0.059935402 0.40275335
-0.099822588 -0.059893556 0.40247214
-0.099035174 -0.059856426 0.40222263
-0.098256305 -0.059823949 0.40200439
-0.097484805 -0.05979551 0.4018133
-0.096719809 -0.05977067 0.40164638
-0.095961928 -0.059749879 0.40150666
-0.095209882 -0.059732437 0.40138945
-0.094463125 -0.059718065 0.40129289
-0.093722783 -0.059707563 0.40122232
-0.092987388 -0.059700072 0.40117198
-0.092256993 -0.059695702 0.4011426
-0.091531388 -0.059694383 0.40113375
-0.090810627 -0.059696227 0.40114614
-0.090093866 -0.059700757 0.40117657
-0.089381546 -0.059708323 0.40122741
-0.08867345 -0.059718855 0.4012982
-0.087968864 -0.059731942 0.40138614
-0.087268025 -0.059747815 0.4014928
-0.086571157 -0.059766699 0.4016197
-0.085877888 -0.059788406 0.40176556
-0.085188217 -0.059813 0.40193084
-0.08450155 -0.059840154 0.40211329
-0.083818667 -0.059870474 0.40231705
-0.083138809 -0.059903506 0.40253901
-0.082462296 -0.059939556 0.40278125
-0.081789248 -0.059978783 0.40304485
-0.081119187 -0.060020924 0.40332803
-0.080451876 -0.06006588 0.40363014
-0.079788066 -0.060114294 0.40395546
-0.079127774 -0.060166277 0.40430477
-0.078470357 -0.060221434 0.40467542
-0.077816367 -0.060280282 0.40507087
-0.077165462 -0.060342658 0.40549001
-0.076518096 -0.060409021 0.40593597
-0.075874455 -0.060479637 0.40641049
-0.075233892 -0.060554106 0.4069109
-0.0745975 -0.060633432 0.40744397
-0.073965333 -0.06071781 0.40801096
-0.073337041 -0.060807094 0.40861094
-0.072713509 -0.060902178 0.40924987
-0.072095148 -0.061003584 0.4099313
-0.071481623 -0.06111123 0.41065466
-0.070874691 -0.06122683 0.41143146
-0.070274316 -0.061350591 0.41226313
-0.069681846 -0.061483983 0.41315949
-0.069098614 -0.061628494 0.41413057
-0.06852597 -0.061785709 0.41518703
-0.067967035 -0.061958898 0.41635081
-0.067424975 -0.06215151 0.41764513
-0.066907465 -0.062371366 0.41912252
-0.066423811 -0.062628165 0.42084813
-0.065996394 -0.062944539 0.42297411
-0.065700419 -0.063395143 0.42600206
-0.11444027 -0.061159879 0.4160243
-0.1129815 -0.060778826 0.41343227
-0.11176405 -0.060523391 0.41169474
-0.11065913 -0.06032588 0.41035122
-0.10962145 -0.060162615 0.40924066
-0.10863271 -0.060024176 0.40829897
-0.10767876 -0.059903197 0.40747604
-0.10675496 -0.059797451 0.40675673
-0.10585473 -0.059703529 0.40611786
-0.10497402 -0.059619393 0.40554553
-0.10411202 -0.059544772 0.40503794
-0.10326424 -0.059477285 0.40457886
-0.10242961 -0.059416465 0.40416518
-0.10160811 -0.059362441 0.40379769
-0.10079671 -0.059313588 0.40346536
-0.099995993 -0.059270352 0.40317127
-0.099203922 -0.059231643 0.40290797
-0.098420255 -0.059197422 0.40267518
-0.097644992 -0.059167784 0.40247357
-0.096876539 -0.059141859 0.40229723
-0.096115284 -0.059119966 0.40214831
-0.095359959 -0.059101421 0.40202215
-0.094611391 -0.059086807 0.40192276
-0.093868047 -0.059075255 0.40184417
-0.093130045 -0.059066918 0.40178746
-0.092397414 -0.059061874 0.40175316
-0.091669746 -0.059059955 0.4017401
-0.090947099 -0.059061266 0.40174901
-0.09022864 -0.059065334 0.4017767
-0.089514181 -0.059072111 0.40182278
-0.088804513 -0.059082188 0.40189132
-0.088098697 -0.05909501 0.40197855
-0.087396756 -0.059110668 0.40208507
-0.086698629 -0.059129193 0.40221107
-0.086004294 -0.059150636 0.40235692
-0.085313521 -0.05917491 0.40252206
-0.084625788 -0.059201732 0.40270451
-0.083942279 -0.059232 0.40291038
-0.083261728 -0.059264898 0.40313417
-0.082584545 -0.059300799 0.40337837
-0.081910841 -0.059339855 0.40364406
-0.081240222 -0.059381865 0.4039298
-0.080573067 -0.059427191 0.40423813
-0.079909265 -0.059475847 0.40456909
-0.079248533 -0.059527699 0.4049218
-0.078591332 -0.059583195 0.40529931
-0.077937692 -0.05964246 0.40570244
-0.077286921 -0.059705064 0.40612829
-0.076640263 -0.05977207 0.40658408
-0.075996488 -0.059842642 0.40706414
-0.075357616 -0.059918493 0.40758008
-0.074721761 -0.059998263 0.40812269
-0.074091196 -0.060083907 0.40870526
-0.073464282 -0.06017426 0.40931988
-0.072842464 -0.060270671 0.40997568
-0.072226427 -0.060373887 0.41067779
-0.071616255 -0.060484193 0.41142812
-0.07101237 -0.060602181 0.4122307
-0.070416518 -0.060729589 0.41309735
-0.06982962 -0.060867533 0.41403568
-0.069252454 -0.061017029 0.41505259
-0.068688847 -0.061181869 0.41617388
-0.068141736 -0.061365213 0.41742101
-0.067616515 -0.061572582 0.41883159
-0.067122616 -0.061813485 0.42047027
-0.066679552 -0.062107243 0.42246848
-0.066341914 -0.062507123 0.42518857
-0.11363763 -0.060381714 0.41583326
-0.112239 -0.060034815 0.41344428
-0.11105011 -0.059796218 0.4118011
-0.10996224 -0.05960916 0.41051289
-0.10893771 -0.059454139 0.40944532
-0.10796019 -0.05932283 0.40854102
-0.10701621 -0.059208278 0.40775213
-0.10610034 -0.059107799 0.40706015
-0.10520662 -0.059018344 0.4064441
-0.10433252 -0.058938723 0.40589577
-0.10347587 -0.058867894 0.40540799
-0.10263341 -0.058804195 0.4049693
-0.10180369 -0.058746934 0.40457496
-0.10098589 -0.058695771 0.40422261
-0.10017959 -0.058650594 0.4039115
-0.099382333 -0.058610093 0.40363258
-0.098594286 -0.058574464 0.40338722
-0.097813822 -0.058542844 0.40316945
-0.097041704 -0.058515783 0.4029831
-0.096276641 -0.058492601 0.40282345
-0.095518112 -0.058473065 0.40268889
-0.094765939 -0.058457151 0.40257931
-0.094019853 -0.058444776 0.40249407
-0.093279235 -0.05843563 0.4024311
-0.092544109 -0.058429811 0.40239102
-0.091814205 -0.058427222 0.40237319
-0.091089062 -0.058427647 0.40237612
-0.090368956 -0.058431335 0.40240151
-0.089652956 -0.058437757 0.40244573
-0.088941172 -0.058447056 0.40250978
-0.088234037 -0.058459587 0.40259609
-0.087530889 -0.058474995 0.40270218
-0.086831003 -0.058492854 0.40282518
-0.086135626 -0.058514077 0.40297133
-0.085443616 -0.058537968 0.40313587
-0.084755301 -0.058564823 0.40332082
-0.084070995 -0.058594935 0.40352818
-0.08338967 -0.058627672 0.40375364
-0.082712039 -0.058663607 0.40400112
-0.082037926 -0.058702692 0.40427029
-0.081366993 -0.058744784 0.40456015
-0.080699772 -0.05879033 0.40487382
-0.080035761 -0.058839075 0.40520951
-0.079375342 -0.058891382 0.40556973
-0.078718215 -0.058947127 0.40595365
-0.078064546 -0.059006535 0.40636277
-0.077414766 -0.059070032 0.40680006
-0.076768428 -0.0591374 0.40726399
-0.076126136 -0.059209216 0.40775859
-0.075487792 -0.059285536 0.40828419
-0.074853927 -0.059366908 0.40884456
-0.074224532 -0.059453484 0.40944079
-0.073599279 -0.059545148 0.41007206
-0.072980717 -0.05964414 0.41075379
-0.072367288 -0.059749402 0.4114787
-0.071760073 -0.059862033 0.41225436
-0.07116019 -0.059983194 0.41308877
-0.070569411 -0.060114682 0.41399428
-0.069988213 -0.060257234 0.414976
-0.069420569 -0.060414657 0.41606015
-0.068867467 -0.060588319 0.41725612
-0.068334989 -0.060784161 0.41860482
-0.067832097 -0.06101099 0.42016694
-0.067374885 -0.061284501 0.42205054
-0.067004301 -0.061643954 0.42452601
-0.067038186 -0.062388137 0.42965099
-0.11287674 -0.059625916 0.41579342
-0.11152284 -0.059304789 0.41355407
-0.11035667 -0.05907983 0.41198537
-0.10928478 -0.058902647 0.41074979
-0.10827218 -0.058755212 0.40972167
-0.10730405 -0.058630049 0.40884888
-0.10636792 -0.058520757 0.40808675
-0.10545868 -0.058424842 0.40741789
-0.10457072 -0.058339454 0.40682244
-0.10370249 -0.058263946 0.4062959
-0.10285067 -0.058196642 0.40582657
-0.10201205 -0.058135901 0.40540299
-0.10118714 -0.058082148 0.40502816
-0.1003735 -0.058034133 0.40469334
-0.09956976 -0.057991177 0.40439379
-0.098776251 -0.057953596 0.40413171
-0.097991198 -0.057920448 0.40390056
-0.097214028 -0.057891503 0.40369871
-0.09644457 -0.057866745 0.40352607
-0.09568245 -0.057846043 0.40338171
-0.094926849 -0.057828996 0.40326285
-0.094177589 -0.057815589 0.40316933
-0.093434006 -0.057805475 0.40309882
-0.092695937 -0.057798643 0.40305117
-0.091963492 -0.057795241 0.40302745
-0.091236129 -0.057794999 0.40302578
-0.090513438 -0.057797737 0.40304485
-0.089795835 -0.057803795 0.40308711
-0.089082472 -0.057812706 0.40314925
-0.088373549 -0.057824668 0.40323266
-0.087668598 -0.057839446 0.40333572
-0.086967587 -0.057857096 0.4034588
-0.086271152 -0.057878118 0.40360537
-0.085578397 -0.057901982 0.40377179
-0.08488927 -0.05792873 0.40395832
-0.084203914 -0.05795854 0.40416619
-0.083521992 -0.057991251 0.4043943
-0.082843922 -0.058027241 0.40464526
-0.082169212 -0.058066245 0.40491727
-0.081498221 -0.058108598 0.40521261
-0.08083073 -0.058154233 0.40553084
-0.080166802 -0.058203291 0.40587294
-0.079506591 -0.058255982 0.40624037
-0.078849912 -0.05831226 0.40663281
-0.07819701 -0.058372416 0.40705231
-0.077547878 -0.058436554 0.40749955
-0.076902628 -0.058504868 0.40797594
-0.076261744 -0.058577862 0.40848497
-0.075624473 -0.058655079 0.40902343
-0.074992582 -0.05873803 0.40960187
-0.074365444 -0.058826394 0.41021806
-0.073742777 -0.058920108 0.41087157
-0.073127128 -0.059021387 0.41157782
-0.072517358 -0.05912954 0.412332
-0.07191471 -0.059245795 0.41314271
-0.071320444 -0.059371471 0.41401908
-0.070736393 -0.059508391 0.41497388
-0.070163682 -0.059657887 0.41601637
-0.069605857 -0.059823412 0.41717064
-0.069067352 -0.060009338 0.41846716
-0.068555728 -0.060222991 0.41995704
-0.068085484 -0.060478166 0.42173648
-0.0676907 -0.060806897 0.42402884
-0.067536399 -0.061361641 0.42789727
-0.11215658 -0.05889158 0.41590413
-0.11083635 -0.058590259 0.41377613
-0.10968626 -0.058375403 0.41225877
-0.10862646 -0.058205988 0.41106233
-0.10762377 -0.058065057 0.41006705
-0.10666132 -0.057944041 0.40921241
-0.10573146 -0.057839166 0.40847176
-0.10482755 -0.057747107 0.40782163
-0.10394534 -0.057665791 0.40724736
-0.10308056 -0.057593055 0.40673369
-0.10223228 -0.057528563 0.40627822
-0.10139825 -0.057471212 0.40587321
-0.10057651 -0.057420045 0.40551186
-0.099765927 -0.057374544 0.40519053
-0.098965809 -0.057334434 0.40490726
-0.098174907 -0.057299111 0.40465778
-0.097392529 -0.057268266 0.40443996
-0.096618824 -0.057242099 0.40425515
-0.095851853 -0.057219546 0.40409589
-0.095092356 -0.057201147 0.40396595
-0.094339333 -0.057186391 0.40386173
-0.09359242 -0.057175133 0.40378225
-0.092851691 -0.057167511 0.4037284
-0.092116266 -0.057163056 0.40369695
-0.091386378 -0.057161998 0.40368947
-0.090661749 -0.057164233 0.40370527
-0.089941487 -0.057169285 0.40374094
-0.089226477 -0.057177782 0.40380093
-0.088515535 -0.057189047 0.40388051
-0.087809429 -0.057203654 0.40398365
-0.087107323 -0.05722113 0.40410706
-0.086409345 -0.057241634 0.40425187
-0.085715301 -0.057265118 0.40441772
-0.08502534 -0.057291754 0.40460584
-0.084339276 -0.0573215 0.40481591
-0.08365681 -0.05735423 0.40504706
-0.082978442 -0.057390373 0.40530232
-0.082303435 -0.057429507 0.40557867
-0.081632406 -0.05747214 0.40587977
-0.080964729 -0.057517927 0.40620312
-0.080301106 -0.057567462 0.40655294
-0.079641581 -0.057620864 0.40693009
-0.078985684 -0.057677917 0.40733299
-0.078333318 -0.057738643 0.40776184
-0.077685356 -0.057803795 0.40822196
-0.077041492 -0.057873275 0.40871266
-0.076402113 -0.057947498 0.40923682
-0.075767353 -0.058026705 0.40979621
-0.075137585 -0.058111332 0.41039386
-0.074512877 -0.0582016 0.41103134
-0.073893741 -0.058298081 0.41171271
-0.07328172 -0.058402181 0.4124479
-0.072676882 -0.058514211 0.41323906
-0.072079852 -0.058634907 0.41409144
-0.071492754 -0.058766294 0.41501933
-0.070917159 -0.05891002 0.41603434
-0.070355974 -0.059068918 0.41715652
-0.069812857 -0.059246588 0.41841125
-0.069295473 -0.059450213 0.41984931
-0.068815514 -0.059690807 0.42154843
-0.068403691 -0.059996534 0.42370754
-0.0681732 -0.060470015 0.42705134
-0.11148401 -0.058181889 0.41619399
-0.11017752 -0.057889879 0.41410515
-0.10903791 -0.057682175 0.41261935
-0.10798345 -0.057516959 0.41143751
-0.10698695 -0.057380546 0.41046172
-0.10602914 -0.057263121 0.40962175
-0.10510436 -0.05716202 0.40889853
-0.10420385 -0.057072781 0.40826017
-0.10332523 -0.056994341 0.40769908
-0.10246434 -0.056924634 0.40720043
-0.10161924 -0.056862753 0.40675777
-0.10078785 -0.056807697 0.40636393
-0.09996897 -0.05675894 0.40601516
-0.099161349 -0.056715902 0.4057073
-0.098364025 -0.056678157 0.40543729
-0.097575821 -0.05664514 0.40520111
-0.096796647 -0.056616906 0.40499914
-0.096025355 -0.056592889 0.40482736
-0.09526138 -0.056572851 0.40468401
-0.0945049 -0.056556985 0.40457052
-0.093754314 -0.056544431 0.4044807
-0.093010105 -0.056535553 0.40441722
-0.092272148 -0.056530368 0.40438011
-0.091539741 -0.056528527 0.40436694
-0.09081234 -0.056529772 0.40437585
-0.090090178 -0.05653432 0.4044084
-0.089373343 -0.056542318 0.40446559
-0.088660851 -0.056553215 0.40454355
-0.087952897 -0.056567218 0.40464371
-0.087249115 -0.056584153 0.40476486
-0.086550273 -0.056604609 0.40491119
-0.08585494 -0.056627728 0.40507656
-0.085164249 -0.05665433 0.40526685
-0.084477134 -0.05668379 0.40547758
-0.083794467 -0.056716777 0.40571356
-0.083115317 -0.056752749 0.40597087
-0.082439959 -0.056791972 0.40625146
-0.081768848 -0.056834847 0.40655816
-0.081101723 -0.056881297 0.40689042
-0.08043848 -0.056931343 0.40724841
-0.079778753 -0.056984823 0.40763098
-0.079123668 -0.057042647 0.40804461
-0.078472413 -0.057104338 0.40848592
-0.077825956 -0.057170723 0.40896079
-0.077183992 -0.057241715 0.40946862
-0.076546229 -0.057317223 0.41000876
-0.075914212 -0.05739855 0.4105905
-0.075287327 -0.057485398 0.41121176
-0.07466621 -0.057578422 0.41187719
-0.074051812 -0.05767855 0.41259342
-0.073444843 -0.057786554 0.41336602
-0.07284601 -0.057903241 0.41420072
-0.072256371 -0.058029726 0.41510552
-0.071678452 -0.058168381 0.41609734
-0.071115039 -0.058321856 0.4171952
-0.070569031 -0.058493044 0.41841978
-0.070047833 -0.058688726 0.41981956
-0.069561794 -0.058918457 0.42146289
-0.069139883 -0.059208184 0.42353541
-0.068875566 -0.059640851 0.42663041
-0.11084533 -0.057489272 0.41661516
-0.10953842 -0.057199243 0.41451335
-0.10840125 -0.056994472 0.4130294
-0.10734963 -0.056832157 0.41185313
-0.10635678 -0.056698911 0.41088754
-0.10540272 -0.056584615 0.41005924
-0.10448032 -0.056485824 0.40934333
-0.10358354 -0.05639958 0.40871832
-0.10270792 -0.0563237 0.40816844
-0.10184985 -0.056256417 0.40768084
-0.1010085 -0.056197461 0.40725359
-0.10018083 -0.056145307 0.40687564
-0.099365339 -0.056099251 0.40654188
-0.098561175 -0.056058958 0.40624991
-0.09776739 -0.056024011 0.40599665
-0.096983038 -0.055993978 0.405779
-0.096206918 -0.055968285 0.4055928
-0.095439121 -0.055947073 0.40543908
-0.094678439 -0.055929735 0.40531343
-0.093924575 -0.055916186 0.40521526
-0.093177736 -0.055906642 0.40514609
-0.092436962 -0.055900615 0.4051024
-0.091701791 -0.055897903 0.40508276
-0.090972267 -0.055898622 0.40508798
-0.09024813 -0.05590269 0.40511745
-0.08952906 -0.055909988 0.40517032
-0.088814847 -0.055920459 0.40524623
-0.08810515 -0.055933975 0.40534416
-0.087400481 -0.055950936 0.40546709
-0.086699933 -0.05597084 0.40561134
-0.086003587 -0.055993821 0.40577787
-0.085311703 -0.056020129 0.40596852
-0.084624022 -0.056049678 0.40618265
-0.083940543 -0.05608255 0.40642086
-0.083260536 -0.056118336 0.4066802
-0.082584992 -0.056157794 0.40696615
-0.081913441 -0.056200705 0.40727711
-0.081246011 -0.056247238 0.40761432
-0.080582775 -0.056297556 0.40797898
-0.079923712 -0.056351744 0.40837166
-0.079268724 -0.056409836 0.40879264
-0.078618623 -0.056472532 0.40924701
-0.077973194 -0.056539804 0.40973452
-0.077332646 -0.056611937 0.41025725
-0.076696441 -0.056688674 0.41081333
-0.076066747 -0.05677177 0.41141552
-0.075443424 -0.0568613 0.41206434
-0.074825875 -0.05695701 0.41275793
-0.074216269 -0.057060748 0.4135097
-0.073615223 -0.057173245 0.41432494
-0.073023856 -0.057295643 0.41521195
-0.072444081 -0.057429768 0.41618392
-0.07187888 -0.05757837 0.41726083
-0.071331613 -0.057744641 0.41846576
-0.070807964 -0.057933785 0.41983646
-0.070320994 -0.058157358 0.42145666
-0.069895267 -0.058437027 0.42348337
-0.069617786 -0.058848184 0.42646295
-0.11023421 -0.056810122 0.41714635
-0.10891158 -0.056514256 0.41497386
-0.10777195 -0.056309912 0.4134734
-0.10672209 -0.056149948 0.41229883
-0.10573046 -0.056018595 0.41133431
-0.10478082 -0.055907782 0.41052064
-0.10386355 -0.055812798 0.40982318
-0.10297113 -0.055729896 0.40921444
-0.1021001 -0.055657454 0.40868253
-0.10124785 -0.055594273 0.40821859
-0.10041097 -0.055538669 0.4078103
-0.099587478 -0.0554897 0.40745074
-0.098776884 -0.055447247 0.407139
-0.097977109 -0.055410277 0.40686753
-0.09718781 -0.055378716 0.40663579
-0.09640687 -0.055351473 0.40643576
-0.095634855 -0.05532898 0.40627059
-0.094871283 -0.055311058 0.40613899
-0.094114609 -0.055296913 0.40603513
-0.093364336 -0.055286329 0.40595743
-0.092620835 -0.055279631 0.40590823
-0.091883056 -0.05527626 0.40588349
-0.091151111 -0.055276375 0.40588433
-0.090424538 -0.05527978 0.40590933
-0.089703701 -0.055286769 0.40596065
-0.088987902 -0.05529701 0.40603584
-0.088276766 -0.055310339 0.40613371
-0.087570183 -0.055326767 0.40625435
-0.086868502 -0.055346597 0.40639997
-0.086170934 -0.055369407 0.40656745
-0.085477367 -0.055395205 0.40675688
-0.084788658 -0.055424619 0.40697286
-0.084103368 -0.055456806 0.40720919
-0.083423339 -0.055493057 0.40747538
-0.082747027 -0.055532452 0.40776464
-0.082074814 -0.055575322 0.40807945
-0.081407309 -0.05562219 0.40842357
-0.080743559 -0.0556725 0.408793
-0.08008448 -0.05572699 0.4091931
-0.079430059 -0.055785764 0.40962467
-0.078779861 -0.055848632 0.4100863
-0.078134999 -0.055916518 0.41058478
-0.077495806 -0.055989794 0.41112283
-0.076861635 -0.056068152 0.41169819
-0.076234169 -0.056152973 0.41232103
-0.075612947 -0.056244116 0.41299027
-0.074999481 -0.056342896 0.4137156
-0.074394621 -0.056450192 0.41450346
-0.073800072 -0.056567572 0.41536534
-0.073216267 -0.056695674 0.41630599
-0.07264819 -0.05683874 0.41735649
-0.072098248 -0.056999136 0.41853425
-0.071573593 -0.057183135 0.41988531
-0.071085528 -0.05740061 0.42148221
-0.070659712 -0.057673603 0.42348674
-0.070386298 -0.058078308 0.42645842
-0.10963766 -0.056137498 0.41774037
-0.10829493 -0.055833723 0.41547987
-0.10715435 -0.055630654 0.41396877
-0.10610905 -0.055474557 0.4128072
-0.10512465 -0.055348314 0.41186777
-0.104181 -0.055241883 0.41107577
-0.10327042 -0.055151589 0.41040385
-0.10238454 -0.055073272 0.40982106
-0.10152045 -0.055005625 0.40931767
-0.10067366 -0.05494643 0.40887719
-0.099842757 -0.054895096 0.40849519
-0.099025197 -0.054850388 0.4081625
-0.098219313 -0.054811526 0.40787333
-0.097424693 -0.054778412 0.4076269
-0.096640244 -0.054750558 0.40741962
-0.095864005 -0.054726962 0.40724406
-0.095096216 -0.054707862 0.40710193
-0.094336122 -0.054692928 0.4069908
-0.093583196 -0.054681946 0.40690908
-0.092836693 -0.054674573 0.40685421
-0.092096962 -0.054671105 0.4068284
-0.09136273 -0.05467087 0.40682665
-0.09063454 -0.054674279 0.40685201
-0.089911245 -0.054680716 0.40689993
-0.089192852 -0.054690268 0.40697101
-0.088479578 -0.054703142 0.40706679
-0.087771744 -0.054719623 0.40718943
-0.087067813 -0.054738838 0.40733242
-0.086368635 -0.054761391 0.40750024
-0.085674509 -0.054787561 0.407695
-0.084984094 -0.054816581 0.40791094
-0.084298067 -0.054848962 0.40815189
-0.083616227 -0.054884661 0.40841755
-0.08293917 -0.054924164 0.40871149
-0.082265958 -0.054966938 0.40902981
-0.081597231 -0.055013515 0.40937641
-0.080932736 -0.055063829 0.40975079
-0.080273323 -0.055118546 0.41015798
-0.07961867 -0.055177588 0.41059732
-0.078968905 -0.055241156 0.41107038
-0.07832431 -0.055309586 0.41157958
-0.077684887 -0.055383004 0.41212592
-0.077052556 -0.055462953 0.41272083
-0.076426402 -0.055548947 0.41336074
-0.075807765 -0.055642154 0.41405433
-0.075198486 -0.055744153 0.41481334
-0.074598521 -0.055855177 0.41563952
-0.074010447 -0.055977445 0.41654935
-0.073437445 -0.056113739 0.41756359
-0.072882049 -0.056266453 0.41869998
-0.072352603 -0.056442607 0.42001081
-0.071860328 -0.056651793 0.42156744
-0.071432896 -0.05691712 0.42354184
-0.071167551 -0.057318732 0.42653039
-0.10908993 -0.055488653 0.41852993
-0.10771778 -0.055172522 0.41614547
-0.10657962 -0.054972645 0.41463786
-0.10554227 -0.054822311 0.41350397
-0.10456467 -0.054701094 0.41258967
-0.10362926 -0.054600362 0.41182989
-0.10272582 -0.054515146 0.41118714
-0.10184707 -0.054441892 0.41063461
-0.10098948 -0.054378949 0.41015986
-0.10014965 -0.054324716 0.40975079
-0.099322803 -0.054276776 0.4093892
-0.098510832 -0.0542363 0.4090839
-0.097709388 -0.054201055 0.40881807
-0.096918546 -0.054171205 0.40859291
-0.096137233 -0.054146256 0.40840474
-0.095365614 -0.05412643 0.40825519
-0.094600357 -0.054109931 0.40813076
-0.093843587 -0.054098066 0.40804127
-0.093092687 -0.054089427 0.40797609
-0.092349008 -0.054084878 0.40794179
-0.091611914 -0.054084145 0.40793625
-0.090880424 -0.05408673 0.40795577
-0.090154529 -0.054092716 0.40800092
-0.089433916 -0.054102 0.40807092
-0.088718362 -0.054114521 0.40816537
-0.088007867 -0.054130364 0.40828487
-0.087302811 -0.054149844 0.4084318
-0.086601555 -0.054172039 0.4085992
-0.085905768 -0.05419806 0.40879548
-0.085213661 -0.054226875 0.40901282
-0.084526889 -0.054259621 0.4092598
-0.083843976 -0.054295436 0.40952995
-0.083165631 -0.054334879 0.40982744
-0.08249189 -0.054378059 0.41015315
-0.081823051 -0.054425284 0.41050935
-0.081158668 -0.054476365 0.41089463
-0.080499522 -0.054531936 0.41131377
-0.079844736 -0.054591514 0.41176316
-0.079195619 -0.054656129 0.41225052
-0.078551635 -0.054725546 0.41277412
-0.07791464 -0.054801207 0.4133448
-0.07728292 -0.054882076 0.41395473
-0.076659232 -0.054970276 0.41462001
-0.076044105 -0.055066422 0.41534519
-0.07543847 -0.055171419 0.41613716
-0.074844331 -0.055287018 0.41700909
-0.074264713 -0.055415802 0.41798043
-0.073703855 -0.055561371 0.41907841
-0.073167644 -0.055728722 0.42034069
-0.072667681 -0.055927478 0.42183983
-0.072236203 -0.056183714 0.42377251
-0.071982406 -0.0565851 0.42680001
-0.10868365 -0.054909859 0.4198769
-0.10723363 -0.054557458 0.41718224
-0.1060901 -0.054357119 0.41565031
-0.10505544 -0.054210104 0.41452613
-0.10408106 -0.054092307 0.41362539
-0.10315122 -0.053996127 0.41288993
-0.10225099 -0.05391416 0.41226315
-0.10137512 -0.053843927 0.41172609
-0.10051809 -0.053782739 0.41125822
-0.09968105 -0.053731423 0.41086581
-0.098856702 -0.053686224 0.4105202
-0.098044321 -0.053646896 0.41021946
-0.097245082 -0.05361421 0.40996954
-0.096455224 -0.053586233 0.40975562
-0.095675319 -0.053563405 0.40958104
-0.094903365 -0.0535447 0.40943801
-0.094140612 -0.053530935 0.40933275
-0.093385123 -0.053521115 0.40925768
-0.092636451 -0.053515084 0.40921155
-0.091894113 -0.053512637 0.40919283
-0.09115845 -0.053514071 0.4092038
-0.090428665 -0.053519007 0.40924156
-0.089704983 -0.053527664 0.40930775
-0.088985965 -0.053539276 0.40939653
-0.088272981 -0.053554736 0.40951476
-0.087565981 -0.053574126 0.40966302
-0.086862668 -0.053596117 0.40983117
-0.086165033 -0.053622019 0.41002923
-0.085472122 -0.053651329 0.41025338
-0.084784292 -0.053684376 0.41050607
-0.084101528 -0.053721242 0.41078797
-0.083423123 -0.053761568 0.41109633
-0.082749464 -0.053805705 0.41143385
-0.082081228 -0.053854197 0.41180465
-0.081417345 -0.053906463 0.4122043
-0.080758721 -0.053963199 0.41263813
-0.080106623 -0.054025397 0.41311374
-0.079460427 -0.05409278 0.413629
-0.078819655 -0.054165166 0.41418251
-0.07818529 -0.054243386 0.41478062
-0.077558652 -0.054328524 0.41543165
-0.076940827 -0.054421559 0.41614306
-0.076331921 -0.054522805 0.41691723
-0.075735137 -0.054634798 0.41777363
-0.075151362 -0.054758526 0.41871974
-0.074586563 -0.054898743 0.41979191
-0.074046932 -0.055060539 0.42102912
-0.073544867 -0.055253915 0.42250779
-0.073111631 -0.055503592 0.42441699
-0.072896548 -0.055925924 0.42764643
-0.10692143 -0.054027438 0.41890737
-0.10572914 -0.053805221 0.41718438
-0.10467406 -0.053650141 0.41598198
-0.10368807 -0.053528499 0.41503879
-0.10274697 -0.053428423 0.41426286
-0.10184012 -0.053344823 0.41361466
-0.10095862 -0.053273365 0.41306061
-0.10009817 -0.053212039 0.41258511
-0.09925501 -0.053159051 0.41217425
-0.098427914 -0.05311393 0.41182441
-0.097614348 -0.053075481 0.41152629
-0.096812263 -0.053042736 0.41127238
-0.096020684 -0.053015284 0.41105953
-0.09523996 -0.052993439 0.41089016
-0.094467327 -0.052975796 0.41075337
-0.093703412 -0.052962799 0.41065258
-0.092948258 -0.052954584 0.41058889
-0.092199586 -0.052949965 0.41055307
-0.091458589 -0.052949708 0.4105511
-0.090724684 -0.052953593 0.4105812
-0.089996129 -0.052960683 0.41063619
-0.089274481 -0.052971996 0.41072389
-0.0885581 -0.052986648 0.4108375
-0.087848186 -0.053005446 0.41098326
-0.087143309 -0.053027634 0.41115528
-0.086444519 -0.053053934 0.41135922
-0.085750543 -0.053083669 0.41158977
-0.085062243 -0.053117469 0.41185185
-0.084379517 -0.053155378 0.41214576
-0.083701774 -0.053197127 0.41246948
-0.083029754 -0.053243294 0.41282743
-0.082362846 -0.053293608 0.41321754
-0.081701957 -0.053348769 0.41364524
-0.081047967 -0.053409491 0.41411605
-0.08039932 -0.053474896 0.41462317
-0.079757757 -0.053546291 0.41517675
-0.079123192 -0.053623773 0.41577753
-0.078497216 -0.053708624 0.41643542
-0.077880077 -0.053801209 0.4171533
-0.077272892 -0.053902555 0.4179391
-0.076678798 -0.054015115 0.41881183
-0.076098673 -0.054139853 0.419779
-0.075538225 -0.054281235 0.42087522
-0.075007148 -0.054446813 0.42215905
-0.074517779 -0.054646369 0.42370632
-0.074113436 -0.054913066 0.42577419
-0.10703379 -0.053707346 0.42233226
-0.105547 -0.05334096 0.41945115
-0.10441025 -0.053147458 0.41792953
-0.10337993 -0.053005707 0.41681486
-0.10241134 -0.052893769 0.41593462
-0.10148323 -0.052801233 0.41520697
-0.10058615 -0.052723598 0.41459647
-0.099712931 -0.052657392 0.41407585
-0.098860472 -0.052601233 0.41363424
-0.098025486 -0.05255359 0.4132596
-0.097206302 -0.052513748 0.41294631
-0.096399859 -0.052480232 0.41268274
-0.095605545 -0.052452847 0.41246739
-0.094822541 -0.052431289 0.41229787
-0.094048932 -0.052414622 0.4121668
-0.093285047 -0.052403152 0.41207662
-0.092529289 -0.052396104 0.41202119
-0.091782108 -0.052393831 0.41200334
-0.091041423 -0.052395269 0.41201463
-0.090309232 -0.052401654 0.41206485
-0.089582622 -0.052411411 0.41214156
-0.088862985 -0.052425444 0.41225192
-0.08815106 -0.052444298 0.41240019
-0.087444007 -0.052466407 0.41257402
-0.086743064 -0.052492585 0.41277987
-0.086049423 -0.052523673 0.41302434
-0.085360833 -0.052558418 0.41329756
-0.08467821 -0.052597478 0.41360471
-0.084002197 -0.052641377 0.41394991
-0.083332546 -0.052690089 0.41433296
-0.082669035 -0.052743591 0.41475371
-0.082012273 -0.052802425 0.41521633
-0.081362672 -0.052866988 0.41572404
-0.080721542 -0.052938312 0.41628489
-0.080088541 -0.053016357 0.41689861
-0.07946448 -0.053101856 0.41757095
-0.078851528 -0.05319649 0.41831508
-0.078250669 -0.053301182 0.41913834
-0.077665359 -0.05341861 0.42006177
-0.077098869 -0.053551432 0.42110622
-0.076558307 -0.053705085 0.42231447
-0.076055087 -0.053888276 0.42375502
-0.075618774 -0.054123081 0.42560142
-0.075392663 -0.054514695 0.42868093
-0.10435416 -0.052746281 0.42074284
-0.1031911 -0.052540526 0.41910157
-0.10215286 -0.05239575 0.41794673
-0.10118432 -0.052284837 0.41706201
-0.10025899 -0.052194756 0.41634345
-0.099367283 -0.05212095 0.41575474
-0.098501928 -0.052059956 0.41526818
-0.097656935 -0.052008867 0.41486067
-0.096829794 -0.05196657 0.41452327
-0.096018866 -0.051932383 0.41425058
-0.095220894 -0.051904719 0.41402993
-0.094435938 -0.051883776 0.41386285
-0.09366101 -0.051868051 0.41373742
-0.092895336 -0.051857233 0.41365114
-0.092140518 -0.051852357 0.41361225
-0.091393791 -0.051851988 0.4136093
-0.090655856 -0.051856641 0.4136464
-0.089925468 -0.051865727 0.41371888
-0.089201942 -0.051878951 0.41382438
-0.088486061 -0.051896885 0.41396743
-0.087777637 -0.051919539 0.41414812
-0.087075219 -0.051946159 0.41436046
-0.086380072 -0.05197762 0.41461143
-0.085692316 -0.052014112 0.41490251
-0.085010961 -0.052055169 0.41523001
-0.084336556 -0.052101251 0.41559759
-0.083669923 -0.052153002 0.41601041
-0.083012156 -0.052211266 0.41647515
-0.082361907 -0.052275367 0.41698647
-0.081720062 -0.052346028 0.41755012
-0.081088103 -0.052424401 0.41817528
-0.080469616 -0.052513033 0.41888228
-0.079862222 -0.052610662 0.41966102
-0.079272702 -0.052722037 0.42054942
-0.078702532 -0.052848559 0.42155868
-0.0781615 -0.052997306 0.4227452
-0.077663034 -0.053178139 0.42418763
-0.077243261 -0.053416979 0.4260928
-0.077115208 -0.053864393 0.42966169
-0.10336804 -0.052256171 0.4229185
-0.10206683 -0.051981993 0.42069954
-0.10100048 -0.051824216 0.41942263
-0.1000216 -0.051709283 0.41849244
-0.099095434 -0.051620055 0.4177703
-0.098209143 -0.051550392 0.41720653
-0.097348399 -0.051493168 0.4167434
-0.096511349 -0.051447686 0.41637528
-0.095693015 -0.051411543 0.41608277
