# .PCD v0.7 - Point Cloud Data file format
VERSION 0.7
FIELDS x y z
SIZE 4 4 4
TYPE F F F
COUNT 1 1 1
WIDTH 175
HEIGHT 1
VIEWPOINT 0 0 0 1 0 0 0
POINTS 175
DATA ascii
0.12880599 0.69800001 -0.14403977
0.1390111 0.69800001 -0.14403977
0.16817488 0.708 -0.14223137
0.15911748 0.708 -0.14352204
0.13645983 0.69800001 -0.13895002
0.12880599 0.69800001 -0.13258786
0.10988253 0.71600002 -0.13600703
0.16429313 0.708 -0.13965005
0.15995824 0.70600003 -0.13925555
0.11119107 0.71600002 -0.13600703
0.13518418 0.69800001 -0.12877056
0.12880599 0.69800001 -0.12877056
0.15995824 0.70600003 -0.12895943
0.16688097 0.708 -0.12287144
0.11249961 0.71600002 -0.12948079
0.16707517 0.69800001 -0.11222893
0.13881195 0.69700003 -0.1196918
0.12880599 0.69800001 -0.11986353
0.16556199 0.69700003 -0.10952692
0.16299921 0.708 -0.11899944
0.15995824 0.70600003 -0.11222821
0.12090698 0.70400006 -0.11961051
0.11218536 0.71400005 -0.11870632
0.13881195 0.69700003 -0.10952692
0.12880599 0.69800001 -0.10968407
0.16688097 0.708 -0.10996481
0.158668 0.70600003 -0.10965418
0.12090698 0.70400006 -0.10934354
0.11431279 0.71100003 -0.10654237
0.13753814 0.69700003 -0.099362046
0.12880599 0.69800001 -0.099504605
0.16382903 0.70600003 -0.099358045
0.15995824 0.70600003 -0.099358045
0.12090698 0.70400006 -0.099076577
0.11171401 0.71100003 -0.097469449
0.13135727 0.69800001 -0.089325137
0.12880599 0.69800001 -0.089325137
0.12090698 0.70400006 -0.088809609
0.11218536 0.71400005 -0.080959909
0.15049186 0.69800001 -0.079145677
0.14921622 0.69800001 -0.079145677
0.13881195 0.69700003 -0.079032287
0.12090698 0.70400006 -0.075975902
0.11641828 0.708 -0.077698246
0.11463434 0.71300006 -0.079546735
0.14921622 0.69800001 -0.06896621
0.13518418 0.69800001 -0.06896621
0.12090698 0.70400006 -0.065708935
0.11641828 0.708 -0.066082284
0.15111981 0.71300006 0.025735227
0.1133313 0.71300006 -0.069148518
0.14921622 0.69800001 -0.058786754
0.13881195 0.69700003 -0.059973139
0.15049186 0.69800001 -0.14403977
0.12073524 0.70300001 -0.05920786
0.14921622 0.69800001 -0.14531219
0.11512437 0.708 -0.059628971
0.14964376 0.70000005 -0.14190032
0.11301339 0.71100003 -0.050808717
0.15049186 0.69800001 -0.049879726
0.14921622 0.69800001 -0.047334857
0.16888748 0.71100003 -0.14413019
0.13881195 0.69700003 -0.04980826
0.15049186 0.69800001 -0.130043
0.12090698 0.70400006 -0.040041525
0.14794058 0.69800001 -0.1376776
0.11641828 0.708 -0.045431681
0.14964376 0.70000005 -0.13934816
0.15199532 0.71100003 0.048993405
0.11202824 0.71300006 -0.049651861
0.15176749 0.69800001 -0.03842783
0.15049186 0.69800001 -0.12877056
0.12090698 0.70400006 -0.038758151
0.14921622 0.69800001 -0.12877056
0.1177122 0.708 -0.038978368
0.12880599 0.69800001 -0.079145677
0.15199532 0.71100003 0.051585671
0.11202824 0.71300006 -0.039253641
0.1177122 0.708 -0.11899944
0.1582185 0.70400006 -0.02977456
0.12880599 0.69800001 -0.029520798
0.15176749 0.69800001 -0.11986353
0.12073524 0.70300001 -0.029732265
0.14921622 0.69800001 -0.11986353
0.11512437 0.708 -0.02865307
0.10988253 0.71600002 -0.013313879
0.11641828 0.708 -0.10996481
0.15927854 0.70300001 -0.019479884
0.15995824 0.70600003 -0.069756664
0.12653904 0.71400005 0.025771322
0.13008162 0.69800001 -0.015524038
0.12880599 0.69800001 -0.018068902
0.15049186 0.69800001 -0.10968407
0.12073524 0.70300001 -0.018198336
0.14921622 0.69800001 -0.10968407
0.11512437 0.708 -0.018327771
0.10942213 0.71300006 -0.0015600972
0.11641828 0.708 -0.098348849
0.15927854 0.70300001 -0.0041013118
0.11754594 0.70700002 -0.14203048
0.12951057 0.71600002 0.038895976
0.15995824 0.70600003 -0.059460528
0.12090698 0.70400006 -0.14399455
0.1614769 0.70700002 -0.058255911
0.13045368 0.71400005 0.038787328
0.14921622 0.69800001 -0.0091618728
0.16864994 0.71000004 -0.10768683
0.13135727 0.69800001 -0.0040721418
0.12880599 0.69800001 -0.0091618728
0.15049186 0.69800001 -0.099504605
0.12167288 0.70100003 -0.002811742
0.14921622 0.69800001 -0.099504605
0.11641828 0.708 -0.0080024693
0.11641828 0.708 -0.13965005
0.12969145 0.71700001 0.044178575
0.15995824 0.70600003 -0.047877379
0.12476679 0.70400006 -0.13886108
0.13212763 0.71600002 0.049337946
0.14921622 0.69800001 0.0035624553
0.13008162 0.69800001 0.004834888
0.11641828 0.708 -0.089314207
0.1588254 0.70100003 0.0048556686
0.14939652 0.71100003 0.0528818
0.14900243 0.69700003 -0.039643385
0.16124851 0.70600003 -0.089061908
0.13102041 0.71000004 0.008800935
0.14771555 0.70300001 0.0099957129
0.13453309 0.708 0.0087761441
0.15176749 0.69800001 -0.029520798
0.14939652 0.71100003 0.019182382
0.12219359 0.70400006 0.0061598197
0.14900243 0.69700003 -0.029478505
0.16299921 0.708 -0.072535597
0.13027097 0.71300006 0.012737455
0.14876615 0.708 0.016520118
0.14921622 0.69800001 -0.088052705
0.11641828 0.708 0.0049041561
0.12880599 0.69800001 0.006107321
0.13970874 0.708 0.016520118
0.13880584 0.71000004 0.02950987
0.16299921 0.708 -0.069954269
0.15176749 0.69800001 -0.01679647
0.14981675 0.71300006 0.028334782
0.14921622 0.69800001 -0.018068902
0.12880599 0.69800001 -0.06896621
0.11072518 0.71300006 -0.028855424
0.13064072 0.70100003 -0.13954723
0.1485137 0.71300006 0.046531666
0.15176749 0.69800001 0.0022900223
0.13970874 0.708 0.022973431
0.15304314 0.69800001 -0.0027997089
0.13557152 0.70000005 -0.14572856
0.14679773 0.71100003 0.039920487
0.12880599 0.69800001 -0.058786754
0.11088048 0.71400005 -0.011975087
0.11641828 0.708 -0.12803409
0.12742516 0.71900004 0.050855383
0.158668 0.70600003 -0.036294229
0.12090698 0.70400006 -0.12987748
0.13212763 0.71600002 0.050643194
0.13263291 0.69800001 -0.037155397
0.15950511 0.70400006 -0.088809609
0.12576036 0.71700001 0.0088877035
0.15979169 0.71100003 -0.14672245
0.12880599 0.69800001 -0.049879726
0.14964376 0.70000005 -0.094685405
0.11072518 0.71300006 -0.0093587609
0.14359049 0.708 0.028136082
0.12880599 0.69800001 -0.039700262
0.14964376 0.70000005 -0.089581087
0.11171401 0.71100003 0.0023326732
0.16628869 0.71100003 -0.12728047
0.13008162 0.69800001 -0.029520798
0.15995824 0.70600003 -0.077478759
0.1221691 0.71900004 0.010223211
