# .PCD v0.7 - Point Cloud Data file format
VERSION 0.7
FIELDS x y z
SIZE 4 4 4
TYPE F F F
COUNT 1 1 1
WIDTH 1342
HEIGHT 1
VIEWPOINT 0 0 0 1 0 0 0
POINTS 1342
DATA ascii
-0.02717624 0.015097911 0.47828692
-0.026440486 0.015170771 0.48059502
-0.025737371 0.015267932 0.48367301
-0.10143037 0.015835121 0.47452527
-0.099938206 0.015734952 0.47152352
-0.098732397 0.015678536 0.46983293
-0.097587906 0.015630962 0.46840733
-0.096463405 0.01558579 0.46705365
-0.09535493 0.015542433 0.46575439
-0.094267972 0.015501844 0.46453807
-0.093208365 0.015465065 0.46343592
-0.092170164 0.015431204 0.46242124
-0.091146827 0.015399235 0.46146324
-0.090134382 0.015368535 0.46054325
-0.0891302 0.015338685 0.45964876
-0.088143475 0.015311307 0.45882833
-0.087181732 0.015287792 0.45812365
-0.086244583 0.015268181 0.45753595
-0.085327074 0.015251699 0.45704207
-0.08442346 0.015237405 0.45661372
-0.083528623 0.01522443 0.45622489
-0.082641482 0.01521261 0.45587072
-0.081758969 0.015201416 0.45553526
-0.080880314 0.01519072 0.45521471
-0.0800054 0.015180512 0.45490885
-0.079134531 0.015170868 0.45461985
-0.078267619 0.01516179 0.45434779
-0.07740476 0.015153313 0.45409378
-0.076545909 0.015145448 0.45385808
-0.075690798 0.01513816 0.45363969
-0.074839853 0.015131555 0.45344177
-0.073993117 0.015125665 0.45326525
-0.073149972 0.015120385 0.45310703
-0.072309874 0.015115623 0.45296434
-0.071473785 0.0151116 0.45284379
-0.070640005 0.015107977 0.45273522
-0.06980928 0.015104932 0.45264396
-0.068980902 0.015102328 0.45256591
-0.068155222 0.015100259 0.45250392
-0.067331798 0.015098646 0.45245558
-0.066510528 0.015097482 0.45242071
-0.065692022 0.015096924 0.45240399
-0.064875454 0.015096804 0.45240039
-0.064061172 0.015097219 0.45241284
-0.063248709 0.015098079 0.45243859
-0.062438469 0.015099499 0.45248115
-0.061629932 0.015101374 0.45253733
-0.060822897 0.015103672 0.4526062
-0.060017571 0.015106464 0.45268986
-0.059213702 0.015109703 0.45278692
-0.058411241 0.015113398 0.45289764
-0.057609979 0.015117512 0.45302093
-0.05681036 0.015122182 0.45316088
-0.056011748 0.01512726 0.45331305
-0.055215061 0.015133017 0.45348555
-0.054419599 0.015139286 0.45367345
-0.053625174 0.015146041 0.45387587
-0.052831791 0.015153305 0.45409352
-0.052039687 0.015161168 0.45432916
-0.051248167 0.015169458 0.45457757
-0.050457295 0.01517821 0.45483986
-0.049666885 0.015187395 0.45511508
-0.048876703 0.015196958 0.45540166
-0.048086662 0.015206893 0.45569938
-0.047296677 0.015217192 0.45600799
-0.046507083 0.015227983 0.45633137
-0.045718189 0.015239397 0.45667341
-0.04493048 0.015251631 0.45704004
-0.044144791 0.015265021 0.45744127
-0.043362018 0.01527995 0.45788863
-0.042583063 0.015296829 0.45839447
-0.041808482 0.015315979 0.45896831
-0.041037362 0.015337196 0.45960414
-0.040268201 0.015360036 0.46028855
-0.039498899 0.015383782 0.46100014
-0.038727708 0.015407799 0.46171984
-0.037955049 0.015432272 0.46245325
-0.037181962 0.01545767 0.46321434
-0.036408387 0.015484026 0.46400413
-0.035634961 0.01551169 0.46483311
-0.034861837 0.015540819 0.46570602
-0.034088403 0.015571245 0.46661779
-0.0333138 0.015602665 0.46755934
-0.032537147 0.015634732 0.46852031
-0.031757914 0.015667237 0.46949437
-0.030978292 0.015701326 0.47051588
-0.030200535 0.015738307 0.47162408
-0.029430505 0.015781574 0.47292066
-0.028678348 0.015837297 0.47459045
-0.027946765 0.015908159 0.47671396
-0.027213639 0.015982613 0.47894511
-0.026482133 0.016062934 0.48135203
-0.025810247 0.016186086 0.48504254
-0.10186544 0.016762666 0.47656065
-0.10009309 0.016611192 0.47225428
-0.098848537 0.016545463 0.47038558
-0.097693838 0.016493764 0.46891579
-0.096567251 0.016445952 0.46755645
-0.095455147 0.016399782 0.46624389
-0.094362237 0.01635612 0.4650026
-0.093296558 0.016316438 0.46387443
-0.092253506 0.016280031 0.46283937
-0.091227725 0.016246034 0.46187282
-0.090214245 0.01621362 0.4609513
-0.089207992 0.016181916 0.46004996
-0.088216379 0.016152296 0.45920786
-0.087245584 0.01612596 0.45845917
-0.08630091 0.016103998 0.45783475
-0.085377596 0.016085634 0.4573127
-0.084469475 0.016069802 0.4568626
-0.083573245 0.016055943 0.45646858
-0.08268407 0.016043177 0.45610565
-0.081800573 0.016031267 0.45576707
-0.080921702 0.016020032 0.45544764
-0.080046654 0.016009331 0.45514339
-0.07917507 0.015999109 0.45485276
-0.078307457 0.015989482 0.45457909
-0.077444002 0.015980508 0.45432398
-0.07658463 0.015972195 0.45408764
-0.075729012 0.015964493 0.45386869
-0.074877322 0.015957462 0.45366877
-0.074028924 0.015950983 0.45348459
-0.073185161 0.015945369 0.453325
-0.072344445 0.015940301 0.45318091
-0.071507119 0.015935872 0.45305496
-0.070673138 0.015932094 0.45294759
-0.069841623 0.015928792 0.45285368
-0.069013029 0.015926084 0.45277667
-0.068186894 0.015923886 0.4527142
-0.067363001 0.015922163 0.45266524
-0.066541627 0.015921002 0.45263225
-0.065722652 0.015920393 0.45261493
-0.064905703 0.015920267 0.45261133
-0.064090922 0.015920674 0.45262292
-0.063277967 0.015921554 0.45264789
-0.062466994 0.01592296 0.45268786
-0.061658047 0.015924925 0.45274377
-0.060850564 0.01592733 0.45281211
-0.060044508 0.015930176 0.45289302
-0.059240386 0.015933622 0.45299098
-0.05843728 0.01593744 0.45309955
-0.057636198 0.015941927 0.4532271
-0.056835994 0.015946789 0.45336536
-0.056037754 0.015952354 0.45352355
-0.055240769 0.015958445 0.4536967
-0.054444805 0.015965018 0.45388359
-0.053650416 0.015972262 0.45408952
-0.052856907 0.015979994 0.45430937
-0.052064151 0.015988205 0.45454276
-0.051272176 0.01599692 0.45479053
-0.050480876 0.016006131 0.45505244
-0.049689971 0.016015776 0.45532662
-0.048899416 0.016025858 0.45561329
-0.048108827 0.016036276 0.45590943
-0.047318451 0.016047128 0.45621794
-0.0465286 0.016058544 0.45654252
-0.045739949 0.016070792 0.45689076
-0.044952776 0.016084021 0.45726684
-0.044167686 0.016098503 0.45767853
-0.043386202 0.016114876 0.45814401
-0.042608764 0.016133416 0.45867112
-0.041835617 0.016154347 0.45926622
-0.041065309 0.016177243 0.45991713
-0.040295985 0.016201477 0.46060613
-0.039525934 0.016226435 0.46131566
-0.038754042 0.016251694 0.46203378
-0.037981108 0.016277617 0.46277076
-0.037207425 0.016304377 0.46353152
-0.036434144 0.016332548 0.4643324
-0.035660844 0.016362034 0.46517071
-0.034887854 0.016393088 0.46605358
-0.034114163 0.016425338 0.46697044
-0.033339113 0.01645855 0.46791464
-0.03256179 0.016492335 0.46887517
-0.031782418 0.016526859 0.46985665
-0.031003278 0.016563395 0.47089538
-0.03022732 0.016603738 0.47204235
-0.029461605 0.016652212 0.47342044
-0.028716911 0.016715813 0.47522861
-0.027988737 0.016793244 0.47742993
-0.027255051 0.016872175 0.47967395
-0.026532141 0.016963173 0.482261
-0.025948549 0.01715243 0.4876416
-0.1023673 0.01770911 0.47890851
-0.10030313 0.017499695 0.47324529
-0.098980315 0.017417138 0.47101268
-0.097809471 0.017360123 0.46947083
-0.096679419 0.017309414 0.46809953
-0.095564179 0.01726049 0.46677646
-0.094465673 0.017213745 0.46551234
-0.09339308 0.017170925 0.46435434
-0.092343606 0.017131619 0.46329141
-0.091314994 0.017095501 0.46231464
-0.090300269 0.017061342 0.46139085
-0.089293741 0.017028108 0.46049213
-0.088297248 0.016996184 0.45962882
-0.087318979 0.016967194 0.45884484
-0.086364619 0.016942341 0.45817274
-0.085433945 0.016921699 0.45761451
-0.084520958 0.016904192 0.45714104
-0.083621107 0.016888993 0.45673001
-0.082729749 0.016875222 0.45635766
-0.081845582 0.016862657 0.45601785
-0.080966204 0.016850835 0.4556981
-0.080090746 0.016839592 0.45539409
-0.079218917 0.016828889 0.45510465
-0.078350969 0.016818793 0.45483163
-0.077486724 0.01680929 0.45457461
-0.076626115 0.016800379 0.45433363
-0.075769871 0.016792241 0.45411357
-0.074917428 0.01678478 0.45391178
-0.074068524 0.016777953 0.45372716
-0.073223159 0.016771786 0.45356038
-0.072381847 0.016766418 0.45341522
-0.071543291 0.016761571 0.45328414
-0.070708647 0.01675754 0.45317516
-0.069876246 0.016753955 0.45307818
-0.069047384 0.01675114 0.4530021
-0.068220712 0.016748797 0.45293871
-0.067396171 0.016746927 0.45288816
-0.066574648 0.01674577 0.45285684
-0.065755129 0.016745094 0.45283857
-0.064937755 0.016744955 0.45283481
-0.064122468 0.016745359 0.45284572
-0.063309051 0.016746264 0.45287022
-0.062497437 0.01674768 0.45290849
-0.061687995 0.016749721 0.45296368
-0.060880154 0.016752258 0.45303228
-0.060073707 0.016755251 0.45311326
-0.059269093 0.016758848 0.4532105
-0.058465984 0.016762974 0.45332211
-0.057664342 0.016767645 0.45344844
-0.056864265 0.016772913 0.45359087
-0.056065828 0.016778825 0.45375073
-0.055268306 0.01678519 0.45392287
-0.054472517 0.016792281 0.45411462
-0.053677607 0.016799862 0.45431966
-0.052883498 0.016807934 0.45453796
-0.052090466 0.016816607 0.4547725
-0.051298197 0.016825808 0.45502135
-0.050506461 0.016835487 0.45528308
-0.049714938 0.016845558 0.45555541
-0.048923738 0.016856078 0.4558399
-0.048132673 0.016867006 0.45613542
-0.047342032 0.016878463 0.45644528
-0.046552286 0.016890652 0.45677492
-0.045763634 0.016903684 0.45712733
-0.04497692 0.016917923 0.45751241
-0.044193309 0.016933884 0.45794404
-0.043412954 0.016951725 0.45842648
-0.042637449 0.016972188 0.4589799
-0.041865338 0.01699484 0.45959246
-0.041095503 0.01701935 0.4602553
-0.040325996 0.017045008 0.46094915
-0.039554771 0.017071005 0.46165222
-0.038782559 0.017097687 0.46237376
-0.038009182 0.017125016 0.46311283
-0.037235312 0.017153347 0.46387896
-0.036462042 0.017183261 0.46468794
-0.035689034 0.01721471 0.46553841
-0.03491582 0.017247573 0.46642715
-0.034141779 0.01728164 0.46734843
-0.033366282 0.017316677 0.46829593
-0.032588258 0.01735219 0.46925631
-0.031808835 0.01738883 0.47024715
-0.031030426 0.017428048 0.47130772
-0.030257247 0.017472494 0.47250971
-0.0294978 0.017527677 0.47400203
-0.028761333 0.017600218 0.47596374
-0.028034033 0.017683005 0.47820255
-0.027301077 0.017767368 0.48048398
-0.026596066 0.017876044 0.48342294
-0.10063022 0.018413188 0.47478852
-0.099136502 0.018295577 0.47175589
-0.097936429 0.018230591 0.4700802
-0.096798442 0.018176125 0.46867582
-0.095681399 0.01812467 0.46734902
-0.09457913 0.018075123 0.46607143
-0.093498677 0.018028893 0.46487936
-0.092442676 0.017986584 0.46378842
-0.091409475 0.017947979 0.46279299
-0.09039171 0.017911721 0.46185806
-0.089384943 0.01787699 0.4609625
-0.088386051 0.017843194 0.46009108
-0.087401263 0.017811632 0.45927724
-0.086437404 0.017783772 0.45855886
-0.085497655 0.017760381 0.45795575
-0.084578395 0.017740835 0.4574517
-0.083673716 0.017723989 0.45701736
-0.08277972 0.017709095 0.4566333
-0.081893675 0.017695619 0.4562858
-0.081013232 0.017683093 0.45596281
-0.080137491 0.017671345 0.4556599
-0.079265393 0.017660165 0.45537165
-0.078396849 0.017649552 0.45509797
-0.077532262 0.017639615 0.45484173
-0.07667122 0.017630281 0.45460105
-0.075813919 0.017621612 0.45437756
-0.074960597 0.017613692 0.45417333
-0.074111059 0.017606495 0.45398772
-0.073264733 0.017599907 0.45381787
-0.072422229 0.017594101 0.45366818
-0.071583048 0.017588979 0.45353606
-0.070747025 0.017584521 0.45342115
-0.06991408 0.017580735 0.45332348
-0.069084302 0.017577663 0.4532443
-0.068256766 0.017575094 0.45317808
-0.067431949 0.017573174 0.45312858
-0.066609763 0.0175719 0.4530957
-0.065789759 0.017571177 0.45307708
-0.064971827 0.017570997 0.45307243
-0.064156011 0.017571392 0.45308259
-0.063342139 0.017572334 0.45310691
-0.062530078 0.017573811 0.453145
-0.061719872 0.017575858 0.45319775
-0.060911804 0.017578574 0.45326781
-0.060105197 0.017581793 0.45335078
-0.059299912 0.017585492 0.45344615
-0.058496911 0.017589981 0.4535619
-0.057694867 0.017594889 0.45368847
-0.056894861 0.017600568 0.45383492
-0.056095768 0.017606702 0.45399305
-0.055298347 0.017613547 0.4541696
-0.054502033 0.017620958 0.45436066
-0.053706571 0.017628875 0.45456481
-0.052912332 0.017637445 0.45478576
-0.052118853 0.017646542 0.45502034
-0.051325891 0.017656107 0.45526698
-0.050533392 0.017666146 0.45552585
-0.049741358 0.017676681 0.45579749
-0.04894948 0.017687626 0.45607975
-0.048158035 0.017699106 0.45637575
-0.047367301 0.017711252 0.45668891
-0.046577673 0.017724248 0.45702401
-0.045789562 0.017738299 0.45738634
-0.045003816 0.0177538 0.45778602
-0.044221379 0.017771209 0.45823491
-0.043443222 0.017791033 0.45874611
-0.042669054 0.017813295 0.45932013
-0.041897986 0.017837755 0.45995086
-0.041128188 0.01786376 0.46062136
-0.040358 0.01789066 0.46131501
-0.039586008 0.017917877 0.46201679
-0.038812879 0.017945739 0.46273524
-0.038039479 0.017974699 0.46348199
-0.037265532 0.018004695 0.46425542
-0.036492351 0.018036449 0.46507424
-0.035719473 0.018069852 0.4659355
-0.034946151 0.018104633 0.46683234
-0.034171578 0.018140467 0.46775636
-0.03339532 0.0181772 0.46870351
-0.032616641 0.018214488 0.46966499
-0.031837489 0.018253494 0.47067076
-0.03106045 0.01829588 0.47176373
-0.030291017 0.018345263 0.47303706
-0.029540353 0.018409206 0.47468582
-0.028811414 0.018490909 0.47679254
-0.028082514 0.018577663 0.47902957
-0.027353942 0.018670151 0.48141438
-0.026686996 0.018812144 0.48507571
-0.10117967 0.019374831 0.47738093
-0.099331819 0.019184256 0.47268534
-0.098077282 0.019105965 0.47075629
-0.096926697 0.019046731 0.46929681
-0.095806964 0.018992569 0.46796232
-0.094701044 0.01894021 0.46667221
-0.093614392 0.018890796 0.4654547
-0.092549972 0.018845016 0.46432674
-0.091510735 0.018803576 0.46330565
-0.090489723 0.01876515 0.46235886
-0.089481875 0.018728765 0.46146238
-0.088481985 0.018693376 0.46059045
-0.087492518 0.018659541 0.45975676
-0.086519912 0.018628689 0.45899659
-0.08557006 0.018602187 0.4583436
-0.084642462 0.018580053 0.45779824
-0.083731703 0.018561214 0.45733407
-0.082834408 0.018545017 0.45693496
-0.081945673 0.018530428 0.45657551
-0.081063583 0.018517062 0.45624617
-0.080186926 0.018504675 0.45594099
-0.079314545 0.018493028 0.455654
-0.078445688 0.018481968 0.45538148
-0.077580385 0.01847152 0.45512408
-0.076718934 0.018461775 0.45488396
-0.075861059 0.018452691 0.45466012
-0.075006627 0.018444253 0.45445222
-0.074156344 0.018436661 0.45426515
-0.073309474 0.018429754 0.45409501
-0.072465815 0.018423511 0.45394117
-0.071625784 0.018418059 0.45380682
-0.070788532 0.018413203 0.45368716
-0.069954962 0.0184092 0.45358855
-0.069124065 0.018405817 0.45350519
-0.068295598 0.018403005 0.4534359
-0.06747032 0.018400995 0.4533864
-0.066647388 0.018399585 0.45335165
-0.065826751 0.01839878 0.45333183
-0.065008305 0.018398577 0.45332682
-0.06419193 0.018398961 0.45333627
-0.063377619 0.018399954 0.45336074
-0.062565148 0.018401513 0.45339915
-0.061754331 0.018403608 0.45345077
-0.060945831 0.01840646 0.45352101
-0.060139097 0.018409928 0.45360649
-0.059333652 0.018413892 0.45370415
-0.0585302 0.018418595 0.45382002
-0.057728063 0.01842385 0.45394951
-0.056927525 0.018429775 0.45409548
-0.056128237 0.018436281 0.45425582
-0.055330396 0.018443465 0.45443282
-0.054533388 0.018451147 0.45462206
-0.053737752 0.018459532 0.45482871
-0.052942894 0.018468453 0.45504847
-0.052148707 0.018477887 0.45528096
-0.05135509 0.018487833 0.45552599
-0.050562147 0.018498346 0.45578504
-0.049769383 0.018509274 0.4560543
-0.048977021 0.018520722 0.45633638
-0.048185315 0.018532813 0.45663428
-0.047394559 0.018545698 0.45695174
-0.046605173 0.018559583 0.45729384
-0.045818042 0.018574882 0.45767081
-0.045033634 0.018591868 0.45808932
-0.044252902 0.018611034 0.45856157
-0.043476615 0.018632835 0.45909873
-0.04270386 0.018657025 0.45969477
-0.041933347 0.018683173 0.46033904
-0.041163124 0.018710511 0.46101263
-0.040391888 0.018738504 0.46170238
-0.039619274 0.018767025 0.46240509
-0.038845617 0.018796267 0.46312556
-0.038071916 0.018826772 0.4638772
-0.037298109 0.018858595 0.4646613
-0.036525022 0.018892253 0.46549058
-0.035752162 0.018927615 0.46636188
-0.034978613 0.018964307 0.46726596
-0.034203418 0.019001899 0.46819219
-0.033426318 0.019040309 0.46913856
-0.032647394 0.019079646 0.47010782
-0.031868994 0.019121397 0.47113654
-0.031094346 0.019167747 0.47227857
-0.030331116 0.019223947 0.47366327
-0.029590104 0.019297894 0.47548527
-0.028865915 0.019387554 0.47769445
-0.028135374 0.019478336 0.47993124
-0.02741879 0.019584849 0.48255566
-0.02694248 0.019875599 0.48971951
-0.10181966 0.020363932 0.4804005
-0.099622227 0.020095471 0.4740673
-0.098240912 0.01998841 0.47154167
-0.097065896 0.019921822 0.46997079
-0.095940717 0.019864378 0.46861565
-0.094832569 0.01980947 0.46732032
-0.09374021 0.019756906 0.46608028
-0.092668027 0.01970768 0.46491903
-0.0916209 0.019662933 0.4638634
-0.090594821 0.01962192 0.46289587
-0.08958479 0.019583652 0.4619931
-0.088584468 0.019546807 0.46112391
-0.087592557 0.019511139 0.46028247
-0.086613178 0.019477604 0.45949137
-0.085653111 0.019447809 0.45878845
-0.084715031 0.01942247 0.45819071
-0.083796449 0.019401148 0.45768771
-0.082894169 0.019383214 0.45726463
-0.082001939 0.019367291 0.456889
-0.08111731 0.019352861 0.45654857
-0.080239505 0.019339778 0.45623994
-0.079366244 0.019327531 0.45595104
-0.078497007 0.019316018 0.45567942
-0.077631347 0.019305149 0.45542303
-0.076769412 0.019294987 0.45518327
-0.075911015 0.019285502 0.45495951
-0.075056084 0.019276699 0.45475188
-0.074204646 0.01926861 0.45456102
-0.073357046 0.019261347 0.45438969
-0.072512314 0.019254683 0.45423245
-0.071671627 0.019248951 0.45409727
-0.07083334 0.01924374 0.45397431
-0.069999039 0.019239502 0.45387435
-0.069167152 0.019235834 0.45378783
-0.068337925 0.019232828 0.45371693
-0.067511849 0.019230649 0.45366549
-0.066688083 0.019229079 0.45362848
-0.065866649 0.019228153 0.45360661
-0.065047584 0.019227901 0.4536007
-0.064230621 0.019228274 0.4536095
-0.063415803 0.019229308 0.45363387
-0.062602989 0.019230984 0.45367342
-0.061791863 0.019233229 0.45372638
-0.060982682 0.019236147 0.45379522
-0.060175586 0.019239813 0.45388171
-0.059369933 0.019244047 0.45398158
-0.058565885 0.019248927 0.4540967
-0.057763554 0.019254517 0.45422858
-0.056962386 0.019260662 0.45437354
-0.056162883 0.019267559 0.45453623
-0.0553643 0.019274978 0.45471126
-0.054566968 0.019283064 0.45490202
-0.05377071 0.019291781 0.45510766
-0.052975196 0.01930104 0.45532608
-0.052180368 0.019310845 0.45555738
-0.051386181 0.019321203 0.45580176
-0.050592382 0.019332048 0.45605758
-0.049799111 0.019343456 0.45632672
-0.049006362 0.019355454 0.45660973
-0.048214633 0.019368272 0.45691213
-0.047424108 0.019382026 0.45723662
-0.046635378 0.019397017 0.45759022
-0.045849223 0.019413635 0.45798227
-0.04506658 0.019432379 0.45842445
-0.044288039 0.019453624 0.45892566
-0.043513451 0.019477449 0.45948771
-0.042741727 0.019503508 0.46010244
-0.041971363 0.019531228 0.46075639
-0.041200496 0.019559832 0.46143118
-0.040428087 0.019588867 0.46211615
-0.039654605 0.019618595 0.46281743
-0.038880654 0.019649364 0.4635433
-0.03810681 0.019681539 0.46430236
-0.037333455 0.019715419 0.4651016
-0.036560375 0.019751009 0.46594116
-0.035787307 0.019788275 0.46682033
-0.035013255 0.019826783 0.46772876
-0.034237176 0.019866016 0.4686543
-0.033459291 0.019906161 0.46960133
-0.032680586 0.01994789 0.47058576
-0.031903554 0.019992894 0.47164741
-0.031132635 0.020044299 0.47286013
-0.030378232 0.020109534 0.47439906
-0.029647378 0.02019459 0.47640562
-0.028922876 0.020289183 0.4786371
-0.028194714 0.020386947 0.48094344
-0.027506037 0.020520378 0.48409116
-0.10015303 0.021062225 0.4765932
-0.098444559 0.020882178 0.47251913
-0.097221203 0.02080279 0.47072273
-0.096082762 0.020740332 0.46930945
-0.094971344 0.020682648 0.4680042
-0.093875773 0.020627413 0.46675432
-0.092796572 0.020574804 0.46556392
-0.091741093 0.020526545 0.46447191
-0.090708345 0.020482531 0.46347594
-0.089693829 0.020441851 0.46255544
-0.088692218 0.020403374 0.46168479
-0.087699652 0.02036627 0.46084523
-0.086715639 0.020330461 0.46003494
-0.085746795 0.020297552 0.45929027
-0.084798016 0.020268792 0.45863953
-0.083869763 0.020244425 0.45808813
-0.082960278 0.020224147 0.45762929
-0.08206328 0.020206537 0.45723081
-0.081175469 0.020190852 0.45687589
-0.080295585 0.020176839 0.45655879
-0.079421103 0.020163907 0.45626616
-0.078551009 0.020151829 0.45599288
-0.07768508 0.020140575 0.45573825
-0.07682249 0.020129958 0.45549798
-0.075963654 0.020120103 0.45527497
-0.075108103 0.020110913 0.45506704
-0.074255891 0.020102423 0.45487493
-0.073407479 0.020094786 0.45470211
-0.072562151 0.020087827 0.45454463
-0.071720459 0.020081729 0.45440665
-0.070881471 0.020076256 0.45428282
-0.070046157 0.020071706 0.45417985
-0.069213219 0.020067738 0.45409009
-0.068383314 0.020064564 0.45401827
-0.067556381 0.020062197 0.45396471
-0.066731848 0.020060495 0.45392618
-0.065909736 0.020059485 0.45390332
-0.065089874 0.020059144 0.45389563
-0.064272366 0.02005953 0.45390433
-0.063456975 0.020060593 0.45392841
-0.062643543 0.020062312 0.4539673
-0.061832082 0.020064715 0.45402169
-0.061022263 0.020067723 0.45408976
-0.060214669 0.020071557 0.45417649
-0.059408706 0.020076046 0.45427805
-0.058603987 0.020081086 0.45439214
-0.057801295 0.020086976 0.45452538
-0.056999486 0.020093344 0.45466951
-0.056199465 0.020100538 0.45483229
-0.055400334 0.02010827 0.45500723
-0.05460244 0.020116689 0.45519772
-0.053805437 0.020125698 0.4554016
-0.053009234 0.020135291 0.45561865
-0.05221374 0.020145457 0.45584872
-0.051418819 0.020156177 0.45609125
-0.050624393 0.020167442 0.45634615
-0.049830645 0.020179354 0.45661569
-0.049037829 0.020192046 0.45690292
-0.048246235 0.020205688 0.45721158
-0.047456324 0.020220522 0.45754725
-0.046668489 0.020236777 0.4579151
-0.045883972 0.020255087 0.45832938
-0.045103766 0.020276004 0.4588027
-0.04432695 0.020299258 0.45932886
-0.043553926 0.020325165 0.4599151
-0.042782884 0.020353023 0.46054548
-0.042011797 0.020381961 0.4612003
-0.041239798 0.020411616 0.46187133
-0.04046632 0.020441748 0.46255314
-0.039692391 0.020472918 0.46325845
-0.038918268 0.020505324 0.4639917
-0.038144391 0.020539287 0.46476024
-0.037371282 0.020575199 0.46557286
-0.036598109 0.020612728 0.46642202
-0.035824791 0.020651938 0.4673093
-0.035050023 0.020692181 0.46821991
-0.03427311 0.020733116 0.46914616
-0.033494629 0.020775151 0.4700973
-0.032716442 0.020819554 0.47110209
-0.031941704 0.020868579 0.47221142
-0.03117669 0.020926818 0.47352925
-0.03043358 0.021003457 0.47526342
-0.029710863 0.021099018 0.47742575
-0.028984267 0.021197449 0.47965303
-0.028264916 0.021307398 0.48214093
-0.027659273 0.021512769 0.48678803
-0.10083512 0.022071207 0.47983903
-0.098739125 0.021799546 0.47393301
-0.097398229 0.021691307 0.47157985
-0.096235767 0.021621251 0.4700568
-0.095118992 0.021560306 0.46873179
-0.094020404 0.021502424 0.46747342
-0.092935108 0.021446563 0.46625897
-0.091871679 0.021394774 0.46513307
-0.090830125 0.021347173 0.46409819
-0.089810632 0.021303916 0.46315777
-0.088805847 0.021263372 0.46227631
-0.08781217 0.021224743 0.46143648
-0.086826861 0.021187415 0.46062496
-0.085851133 0.021151729 0.45984912
-0.084892496 0.021119596 0.45915055
-0.083954185 0.021091938 0.45854923
-0.083034359 0.02106842 0.45803794
-0.082131259 0.021048715 0.45760956
-0.081239 0.021031417 0.45723349
-0.080355786 0.021016128 0.4569011
-0.079479106 0.02100225 0.45659938
-0.078608193 0.020989621 0.45632485
-0.077741295 0.02097781 0.45606804
-0.076878294 0.020966807 0.45582885
-0.076018959 0.020956578 0.45560646
-0.075162843 0.020947021 0.45539868
-0.074310109 0.020938206 0.45520705
-0.073460922 0.020930206 0.45503312
-0.072614722 0.020922886 0.45487398
-0.071772166 0.02091646 0.45473427
-0.07093247 0.020910729 0.45460966
-0.070096187 0.020905882 0.45450428
-0.069262534 0.020901712 0.45441362
-0.06843181 0.020898337 0.45434025
-0.067604028 0.02089579 0.45428491
-0.066778652 0.020893933 0.45424452
-0.065955788 0.020892829 0.4542205
-0.065135255 0.020892441 0.45421207
-0.064317048 0.020892799 0.45421985
-0.063500948 0.020893861 0.45424294
-0.062687017 0.020895671 0.45428231
-0.06187487 0.020898135 0.45433587
-0.061064597 0.020901306 0.4544048
-0.060256388 0.020905279 0.45449117
-0.059449762 0.020909917 0.45459202
-0.058644593 0.020915205 0.45470697
-0.057841156 0.020921269 0.45483881
-0.057038993 0.020927977 0.45498464
-0.05623813 0.020935362 0.45514521
-0.055438336 0.020943372 0.45531934
-0.054639839 0.020952119 0.45550951
-0.053841975 0.02096138 0.45571083
-0.053045023 0.020971289 0.45592627
-0.052248679 0.020981753 0.45615378
-0.051453073 0.020992855 0.45639512
-0.050658185 0.021004613 0.45665076
-0.049864251 0.021017164 0.45692363
-0.049071468 0.021030629 0.45721635
-0.048280325 0.021045269 0.45753464
-0.047491387 0.021061398 0.4578853
-0.04670516 0.02107932 0.45827493
-0.04592292 0.02109972 0.45871845
-0.045144837 0.021122813 0.4592205
-0.044369791 0.021148218 0.4597728
-0.04359787 0.021176109 0.46037915
-0.042826634 0.021205422 0.46101642
-0.042054329 0.021235354 0.46166718
-0.04128122 0.021266084 0.46233526
-0.040507086 0.021297541 0.46301913
-0.039732724 0.0213302 0.46372917
-0.038958363 0.021364264 0.46446976
-0.038184725 0.02140023 0.46525165
-0.037411898 0.021438278 0.46607888
-0.036638543 0.021477766 0.46693736
-0.035864636 0.021518782 0.46782905
-0.03508899 0.021560704 0.46874046
-0.034310922 0.021603173 0.46966374
-0.03353272 0.021647705 0.4706319
-0.032755807 0.021695403 0.4716689
-0.031984989 0.021749791 0.47285131
-0.031229094 0.021817587 0.47432521
-0.03049867 0.021907495 0.47627988
-0.029777687 0.022009594 0.47849956
-0.029051719 0.022113996 0.48076928
-0.028358091 0.022250194 0.48373032
-0.099296652 0.02278235 0.47660908
-0.09761934 0.022593122 0.47265044
-0.096406773 0.022509072 0.47089207
-0.095273964 0.022442311 0.46949545
-0.094173104 0.022381948 0.46823266
-0.09308441 0.022323411 0.46700802
-0.092013329 0.022268066 0.46585023
-0.090962932 0.022216754 0.46477675
-0.089935876 0.02217024 0.46380368
-0.08892642 0.022127232 0.46290395
-0.087930217 0.022086738 0.46205682
-0.086944707 0.022048181 0.46125019
-0.085966356 0.02201071 0.4604663
-0.08499977 0.021975549 0.45973074
-0.084050141 0.021944126 0.45907336
-0.083119266 0.021917021 0.45850632
-0.082207233 0.021894388 0.45803285
-0.081309028 0.021875016 0.45762759
-0.080421038 0.021858025 0.45727214
-0.079541601 0.021843029 0.45695841
-0.078668624 0.021829514 0.45667568
-0.077800333 0.021817025 0.4564144
-0.076936573 0.021805551 0.45617437
-0.076076634 0.021794926 0.45595211
-0.07522019 0.021785084 0.45574617
-0.074366838 0.021775926 0.45555457
-0.073516943 0.021767585 0.45538011
-0.072670184 0.021759998 0.45522138
-0.071826823 0.021753265 0.45508054
-0.070986293 0.021747246 0.45495462
-0.070149168 0.021742141 0.45484781
-0.069314644 0.021737728 0.45475549
-0.068483196 0.021734187 0.45468143
-0.067654461 0.021731433 0.45462379
-0.066828363 0.021729467 0.45458269
-0.066004686 0.021728249 0.45455721
-0.065183409 0.021727804 0.45454788
-0.064364433 0.021728121 0.4545545
-0.063547611 0.021729184 0.45457676
-0.062733039 0.021731053 0.45461583
-0.061920244 0.021733597 0.45466906
-0.061109357 0.021736886 0.45473787
-0.060300458 0.02174098 0.45482355
-0.059493218 0.021745797 0.45492429
-0.058687355 0.021751259 0.45503855
-0.057883181 0.021757508 0.45516929
-0.057080302 0.021764431 0.45531413
-0.056278795 0.021772088 0.45547432
-0.05547823 0.021780342 0.45564699
-0.054678839 0.021789312 0.45583463
-0.0538802 0.021798858 0.45603436
-0.053082377 0.02180904 0.45624733
-0.052285455 0.021819914 0.45647484
-0.051489241 0.02183144 0.45671594
-0.050694168 0.021843828 0.45697513
-0.049900219 0.021857122 0.45725322
-0.049107976 0.021871619 0.45755652
-0.04831779 0.021887546 0.45788971
-0.047530282 0.02190526 0.4582603
-0.046746343 0.021925276 0.45867902
-0.045966584 0.02194801 0.45915461
-0.045190312 0.021973271 0.45968309
-0.044416826 0.022000857 0.46026018
-0.04364476 0.022030212 0.46087429
-0.042872466 0.02206059 0.46150979
-0.042099196 0.022091659 0.46215975
-0.041324954 0.02212346 0.46282506
-0.040550232 0.022156311 0.4635123
-0.039775606 0.022190602 0.46422967
-0.039001491 0.022226658 0.46498394
-0.038227998 0.022264659 0.46577895
-0.037455156 0.022304757 0.46661779
-0.036681335 0.022346102 0.46748272
-0.035906609 0.022388827 0.46837655
-0.035129849 0.022432314 0.46928629
-0.034351222 0.022476725 0.47021538
-0.033573758 0.022524167 0.47120789
-0.032799531 0.0225763 0.47229853
-0.032035146 0.02263817 0.47359285
-0.031292517 0.022719225 0.47528851
-0.03057202 0.022821367 0.47742534
-0.029848479 0.022927092 0.47963712
-0.029131053 0.023043968 0.48208216
-0.028518384 0.023253452 0.48646459
-0.10005974 0.023823747 0.48027179
-0.097955391 0.023526402 0.4742775
-0.096602745 0.023405951 0.47184926
-0.095443822 0.023330711 0.47033247
-0.094333611 0.023266139 0.46903071
-0.093243234 0.023205329 0.46780485
-0.092165813 0.023146667 0.46662223
-0.091106713 0.023091564 0.46551141
-0.090070546 0.023041302 0.46449816
-0.089054346 0.022995254 0.46356985
-0.088054769 0.022952665 0.4627113
-0.087067321 0.022912454 0.46190065
-0.086088598 0.022873782 0.46112105
-0.085117765 0.022836475 0.46036896
-0.084159426 0.022801815 0.45967025
-0.08321809 0.022771118 0.45905143
-0.082293928 0.022744553 0.45851588
-0.081387535 0.022722408 0.45806947
-0.080493458 0.022703283 0.45768392
-0.079609506 0.022686645 0.45734853
-0.078733169 0.022671854 0.45705032
-0.077863067 0.022658564 0.4567824
-0.076997943 0.022646455 0.45653829
-0.076136962 0.022635315 0.4563137
-0.075279772 0.022625068 0.45610714
-0.074425958 0.022615623 0.45591673
-0.073575549 0.022607012 0.45574313
-0.072728135 0.022599138 0.45558441
-0.071883895 0.022592081 0.45544216
-0.071042754 0.022585846 0.45531645
-0.070204802 0.022580493 0.45520854
-0.069369435 0.022575852 0.45511496
-0.068537124 0.022572108 0.4550395
-0.067707606 0.022569202 0.45498094
-0.066880748 0.022567123 0.45493901
-0.066056274 0.022565808 0.45491251
-0.065234222 0.022565296 0.45490217
-0.064414494 0.022565586 0.45490804
-0.063597016 0.022566684 0.45493016
-0.062781557 0.022568533 0.45496744
-0.061968081 0.022571156 0.45502031
-0.061156511 0.022574551 0.45508876
-0.060346786 0.022578729 0.45517299
-0.05953883 0.022583695 0.45527309
-0.058732297 0.022589345 0.455387
-0.057927262 0.022595741 0.45551592
-0.05712356 0.022602849 0.45565921
-0.0563212 0.022610702 0.45581752
-0.055519808 0.02261918 0.45598847
-0.054719575 0.022628395 0.45617422
-0.053920038 0.022638183 0.45637155
-0.05312157 0.022648731 0.45658419
-0.052324191 0.022660082 0.45681301
-0.051527809 0.022672236 0.45705804
-0.050732728 0.022685366 0.45732272
-0.04993936 0.022699708 0.45761186
-0.049148049 0.022715485 0.45792988
-0.048359398 0.022733049 0.45828399
-0.047573924 0.022752747 0.45868108
-0.046792414 0.022775069 0.45913106
-0.046014871 0.022800162 0.45963693
-0.045239795 0.022827419 0.46018642
-0.044467203 0.022856975 0.46078223
-0.043694526 0.022887608 0.46139979
-0.042920697 0.022918819 0.46202898
-0.042146277 0.022950944 0.46267658
-0.041371129 0.022983961 0.46334219
-0.040596154 0.023018438 0.46403724
-0.039821446 0.023054522 0.46476465
-0.039047606 0.02309267 0.4655337
-0.038274202 0.02313276 0.46634191
-0.037500974 0.023174759 0.46718857
-0.036726501 0.023217903 0.46805835
-0.035950907 0.023262352 0.46895438
-0.035172984 0.023307398 0.46986249
-0.034394659 0.023354398 0.47080997
-0.033618908 0.023405569 0.47184154
-0.032848842 0.023463458 0.47300857
-0.032094993 0.023536326 0.47447756
-0.031367313 0.023632908 0.47642457
-0.030649165 0.023742311 0.47863007
-0.029926406 0.023854382 0.48088935
-0.02923796 0.02400131 0.48385131
-0.098616421 0.024546446 0.47747809
-0.096856967 0.024320913 0.47309101
-0.095632181 0.02422682 0.4712607
-0.094503462 0.024155594 0.46987522
-0.093409613 0.024092073 0.46863958
-0.092328213 0.02403063 0.46744442
-0.091263488 0.023972437 0.46631244
-0.090217419 0.023918105 0.46525559
-0.089192256 0.023868348 0.46428773
-0.08818686 0.023822989 0.4634054
-0.087195754 0.023780661 0.46258199
-0.086215779 0.023740577 0.4618023
-0.085244305 0.023702076 0.46105337
-0.084280193 0.023664882 0.46032989
-0.083329871 0.023630859 0.45966807
-0.082395419 0.023600699 0.45908138
-0.081476986 0.023574559 0.45857292
-0.080574825 0.023552641 0.45814657
-0.079684705 0.023533825 0.45778054
-0.078804083 0.023517448 0.45746201
-0.077930667 0.023502899 0.45717898
-0.077063009 0.023489794 0.45692405
-0.076200508 0.023477994 0.45669451
-0.075342029 0.023467189 0.45648435
-0.074487269 0.023457317 0.4562923
-0.073636398 0.023448462 0.45612007
-0.072788306 0.023440301 0.45596135
-0.071943536 0.023433037 0.45582002
-0.071101636 0.02342655 0.45569384
-0.070262954 0.023420986 0.4555856
-0.069427021 0.023416216 0.45549279
-0.068593606 0.02341219 0.4554145
-0.067763425 0.023409184 0.45535603
-0.066935644 0.023406943 0.45531243
-0.066110432 0.023405556 0.45528546
-0.065287575 0.02340498 0.45527425
-0.064467005 0.023405218 0.4552789
-0.063648678 0.023406288 0.45529971
-0.06283243 0.02340816 0.45533612
-0.06201816 0.023410829 0.45538801
-0.061205789 0.023414295 0.45545545
-0.0603953 0.023418587 0.45553893
-0.059586529 0.02342367 0.45563781
-0.058779161 0.023429457 0.45575038
-0.057973295 0.023436012 0.4558779
-0.057168677 0.02344327 0.45601907
-0.056365408 0.0234513 0.4561753
-0.0555631 0.023459977 0.45634404
-0.054762162 0.023469498 0.45652926
-0.053961884 0.0234796 0.45672575
-0.053162884 0.023490576 0.45693928
-0.052365351 0.023502558 0.45717236
-0.051569112 0.023515515 0.45742437
-0.050774626 0.023529705 0.4577004
-0.049982179 0.023545325 0.45800424
-0.049192257 0.023562679 0.45834181
-0.048405848 0.023582337 0.4587242
-0.047622927 0.023604408 0.45915353
-0.046844035 0.023629293 0.45963758
-0.046067867 0.023656473 0.46016631
-0.045293842 0.023685772 0.46073622
-0.044520617 0.023716591 0.46133572
-0.043746419 0.023748057 0.4619478
-0.042971019 0.023780078 0.46257067
-0.042195812 0.023813479 0.46322039
-0.041420199 0.023847993 0.46389177
-0.040644981 0.023884164 0.46459535
-0.039870448 0.023922268 0.46533656
-0.039096918 0.023962628 0.46612164
-0.038323317 0.024004715 0.46694031
-0.037549555 0.024048593 0.46779382
-0.036774065 0.024093354 0.46866453
-0.035997204 0.024139302 0.4695583
-0.035218686 0.024186326 0.47047302
-0.034441601 0.024236683 0.47145256
-0.033668749 0.024292642 0.47254109
-0.032906868 0.02435963 0.47384414
-0.032168433 0.024448007 0.47556326
-0.031451635 0.024558125 0.47770527
-0.030730357 0.02467085 0.47989801
-0.030018788 0.024798129 0.48237383
-0.029452743 0.025056811 0.48740572
-0.099643826 0.025672428 0.48245254
-0.097287811 0.025286259 0.47519541
-0.095856622 0.025135737 0.47236672
-0.09468928 0.025052322 0.47079912
-0.093583658 0.024983874 0.46951279
-0.092500128 0.024920125 0.4683148
-0.091430657 0.024859026 0.4671666
-0.090376519 0.024800997 0.46607608
-0.08934132 0.024747126 0.46506369
-0.088328086 0.024698375 0.46414754
-0.087331392 0.02465336 0.46330157
-0.086348347 0.024611365 0.46251237
-0.085375391 0.024571454 0.46176234
-0.084411114 0.024533279 0.46104494
-0.083454721 0.024496658 0.46035674
-0.082510337 0.024462864 0.45972165
-0.081581928 0.024433166 0.45916355
-0.080668084 0.024407268 0.45867684
-0.079769172 0.024385393 0.45826578
-0.078882374 0.024366807 0.4579165
-0.078004338 0.024350559 0.45761117
-0.077133223 0.02433615 0.45734036
-0.076267853 0.024323262 0.45709816
-0.07540746 0.024311693 0.45688078
-0.074551694 0.024301382 0.45668697
-0.073699616 0.024292052 0.45651165
-0.072850637 0.024283547 0.45635182
-0.072005421 0.024276113 0.45621213
-0.071162775 0.024269387 0.45608571
-0.070323244 0.024263574 0.45597649
-0.06948664 0.024258651 0.45588395
-0.068652794 0.024254579 0.45580745
-0.067821592 0.024251357 0.45574689
-0.066992968 0.024248989 0.45570239
-0.066166893 0.024247494 0.45567429
-0.065343149 0.02424683 0.4556618
-0.064521857 0.024247067 0.45566627
-0.063702606 0.024248088 0.45568544
-0.062885463 0.02424995 0.45572045
-0.062070437 0.024252689 0.45577189
-0.061257102 0.024256168 0.45583728
-0.06044586 0.024260584 0.45592028
-0.05963615 0.024265744 0.45601726
-0.058827762 0.024271594 0.4561272
-0.058021083 0.024278326 0.45625371
-0.057215407 0.024285676 0.45639184
-0.056411374 0.02429395 0.45654732
-0.055608183 0.024302837 0.4567143
-0.054806687 0.02431274 0.45690045
-0.054006211 0.024323409 0.45710093
-0.053207017 0.024334991 0.4573186
-0.052409619 0.024347775 0.45755884
-0.051614054 0.024361834 0.45782304
-0.050820526 0.024377324 0.45811415
-0.05002974 0.024394667 0.45844004
-0.04924212 0.024414161 0.4588064
-0.048458174 0.024436174 0.45922008
-0.047678012 0.024460895 0.45968464
-0.046900719 0.024487985 0.46019375
-0.046125293 0.024517048 0.46073991
-0.045350865 0.024547715 0.46131623
-0.044576176 0.024579385 0.46191141
-0.043800317 0.024611605 0.4625169
-0.043024037 0.024644837 0.46314141
-0.042248182 0.024679631 0.46379527
-0.041472174 0.02471574 0.46447387
-0.04069734 0.024754053 0.46519387
-0.039922815 0.024794171 0.46594778
-0.039149519 0.024836792 0.46674874
-0.038375407 0.024880758 0.46757498
-0.037600596 0.024926238 0.46842968
-0.036823865 0.024972506 0.46929917
-0.036046006 0.025020169 0.47019488
-0.035267755 0.02506985 0.47112852
-0.03449316 0.025124647 0.47215828
-0.033725984 0.025187761 0.47334439
-0.03297833 0.02526911 0.47487316
-0.03225543 0.025374271 0.47684941
-0.031539969 0.025491208 0.47904694
-0.030821163 0.025611952 0.48131606
-0.030152129 0.025782255 0.4845165
-0.098091193 0.026359307 0.47911948
-0.09617959 0.026075354 0.47395822
-0.094903737 0.025960214 0.47186539
-0.093770288 0.025882298 0.47044912
-0.092679575 0.025814859 0.46922332
-0.091607086 0.0257513 0.46806806
-0.09054704 0.02569009 0.46695548
-0.089504585 0.025632769 0.46591356
-0.088480756 0.025579743 0.46494976
-0.087476388 0.025531387 0.4640708
-0.086487748 0.025486728 0.46325907
-0.085512176 0.025445087 0.46250218
-0.084546775 0.025405681 0.46178591
-0.083589181 0.025367862 0.46109849
-0.082639195 0.025331611 0.46043959
-0.08170107 0.025298301 0.45983413
-0.080777071 0.025268726 0.45929655
-0.079867564 0.025243115 0.45883104
-0.078970991 0.025221102 0.45843092
-0.078085735 0.025202274 0.4580887
-0.077209979 0.025186144 0.4577955
-0.076341078 0.025171923 0.457537
-0.07547836 0.025159452 0.45731035
-0.074620232 0.025148254 0.4571068
-0.073766015 0.02513814 0.45692295
-0.072916187 0.025129309 0.45676243
-0.072069518 0.025121376 0.45661825
-0.071226254 0.025114458 0.45649251
-0.070385762 0.025108373 0.45638189
-0.06954845 0.025103288 0.45628947
-0.068713732 0.025099028 0.45621204
-0.067881659 0.025095642 0.4561505
-0.06705229 0.02509319 0.45610592
-0.066225469 0.025091639 0.45607772
-0.06540098 0.025090942 0.45606506
-0.064578593 0.025091045 0.45606694
-0.063758515 0.02509206 0.45608538
-0.062940598 0.025093965 0.45612001
-0.062124528 0.025096664 0.45616907
-0.061310388 0.025100227 0.45623383
-0.060498152 0.025104675 0.45631468
-0.059687376 0.025109861 0.45640895
-0.058878075 0.025115823 0.45651731
-0.058070585 0.025122736 0.45664296
-0.057264153 0.025130311 0.45678067
-0.056459572 0.025138933 0.45693737
-0.055655971 0.025148254 0.4571068
-0.054854006 0.025158603 0.45729491
-0.054053683 0.025170034 0.45750269
-0.053254824 0.025182514 0.45772952
-0.052458044 0.025196383 0.45798162
-0.051663317 0.025211699 0.45826
-0.050871648 0.025229027 0.45857498
-0.050083295 0.025248604 0.45893079
-0.049298611 0.025270717 0.45933273
-0.048517201 0.025295293 0.45977944
-0.047738492 0.025322158 0.46026775
-0.046961967 0.02535115 0.46079475
-0.046186421 0.025381727 0.4613505
-0.045410413 0.025413167 0.46192199
-0.04463391 0.0254455 0.46250969
-0.043856863 0.025478749 0.46311402
-0.043080132 0.025513478 0.46374527
-0.042303726 0.025549775 0.46440503
-0.041527662 0.025587751 0.46509531
-0.040753108 0.025628243 0.46583131
-0.039979115 0.0256708 0.46660486
-0.039204884 0.025715031 0.46740881
-0.038430184 0.025760893 0.46824241
-0.037653949 0.025807763 0.46909434
-0.036876027 0.025855606 0.46996397
-0.036098145 0.025905728 0.47087502
-0.035321537 0.025959201 0.47184697
-0.034551524 0.026020283 0.47295722
-0.033795901 0.026095567 0.47432563
-0.033065341 0.026194619 0.47612604
-0.03235212 0.026313057 0.47827882
-0.031633653 0.0264336 0.48046985
-0.030935179 0.026578112 0.48309657
-0.096840724 0.027115403 0.47721621
-0.095180131 0.026889455 0.47323963
-0.093978778 0.02679033 0.47149512
-0.092869624 0.026715919 0.47018552
-0.091791712 0.026649205 0.4690114
-0.090728581 0.026585585 0.46789169
-0.089679301 0.026524864 0.46682304
-0.08864636 0.026467869 0.46581998
-0.087631807 0.026415329 0.46489531
-0.08663626 0.026367558 0.46405455
-0.085655868 0.02632351 0.46327934
-0.084687896 0.02628245 0.46255669
-0.08372885 0.02624337 0.46186891
-0.082777604 0.026205976 0.46121079
-0.081834301 0.02617036 0.46058398
-0.08090169 0.026137469 0.4600051
-0.079981424 0.026107926 0.45948517
-0.079074614 0.026082203 0.45903245
-0.078180417 0.02606014 0.45864415
-0.077297233 0.026041312 0.45831281
-0.076422654 0.026025012 0.45802593
-0.075555272 0.026010832 0.45777637
-0.074693672 0.02599835 0.45755669
-0.073837496 0.025987498 0.45736572
-0.072985426 0.025977863 0.45719612
-0.072137088 0.025969351 0.45704633
-0.071292534 0.025962021 0.45691732
-0.070450984 0.025955625 0.45680475
-0.069612525 0.025950231 0.45670983
-0.068776995 0.025945812 0.45663205
-0.067943953 0.025942236 0.45656911
-0.067113765 0.025939675 0.45652404
-0.066285901 0.025937961 0.45649388
-0.065460384 0.025937133 0.45647931
-0.064637177 0.025937211 0.45648068
-0.063816234 0.025938211 0.4564983
-0.062997364 0.02594009 0.45653135
-0.06218053 0.025942869 0.45658028
-0.061365642 0.025946546 0.45664498
-0.060552351 0.025951007 0.45672348
-0.059740603 0.025956262 0.45681596
-0.058930792 0.025962517 0.45692605
-0.058122437 0.0259696 0.45705071
-0.057315808 0.025977669 0.45719272
-0.056510508 0.025986584 0.45734963
-0.05570703 0.025996614 0.45752615
-0.054905068 0.026007663 0.45772061
-0.054105144 0.02602003 0.45793825
-0.053307485 0.02603389 0.45818216
-0.052512113 0.026049316 0.45845366
-0.051719468 0.026066611 0.45875806
-0.050930273 0.026086237 0.45910347
-0.050144583 0.026108336 0.45949239
-0.049361747 0.02613269 0.459921
-0.048582014 0.026159545 0.46039364
-0.047804251 0.026188415 0.46090174
-0.047027078 0.026218636 0.46143362
-0.046249852 0.026249915 0.4619841
-0.045472153 0.02628207 0.46255001
-0.044694349 0.026315363 0.46313596
-0.043916512 0.026349906 0.4637439
-0.043139216 0.026386123 0.46438128
-0.042362452 0.026424102 0.46504971
-0.041587222 0.026464596 0.46576238
-0.040812477 0.026507072 0.46650994
-0.040038254 0.026551683 0.46729505
-0.039263386 0.026597777 0.4681063
-0.038487352 0.02664509 0.46893898
-0.03770978 0.026693439 0.46978989
-0.036931351 0.026743393 0.47066903
-0.036154535 0.026796889 0.47161055
-0.035381686 0.026855977 0.47265047
-0.034620479 0.026927039 0.47390109
-0.033882372 0.027020119 0.47553927
-0.033168025 0.027137475 0.47760466
-0.032452423 0.027260035 0.47976166
-0.031742405 0.027394131 0.48212168
-0.031133447 0.027625453 0.48619282
-0.095674828 0.027887283 0.47569931
-0.094235472 0.027716316 0.47278297
-0.093078226 0.027625958 0.47124165
-0.091984347 0.027552914 0.46999568
-0.090918526 0.027486997 0.46887127
-0.089864559 0.027423458 0.46778741
-0.088824205 0.027362907 0.46675456
-0.087801181 0.027306588 0.46579385
-0.086795896 0.027254751 0.46490961
-0.085808367 0.027207531 0.46410415
-0.08483503 0.027163927 0.46336034
-0.083873302 0.027123207 0.46266577
-0.082920998 0.027084747 0.46200973
-0.081976362 0.027048038 0.46138352
-0.081039138 0.027013047 0.46078664
-0.080111474 0.026980547 0.46023229
-0.079195313 0.026951283 0.4597331
-0.078290693 0.02692537 0.45929107
-0.077397667 0.026902933 0.45890832
-0.076515183 0.026883712 0.45858046
-0.075641908 0.026867345 0.45830128
-0.074775845 0.026853204 0.45806006
-0.073915467 0.026840813 0.4578487
-0.073060147 0.026829997 0.45766419
-0.072209917 0.026820827 0.45750779
-0.071362905 0.026812652 0.45736834
-0.070519969 0.026805837 0.45725209
-0.069679961 0.026799984 0.45715225
-0.068842918 0.026795149 0.45706975
-0.068008982 0.026791416 0.4570061
-0.067177817 0.0267887 0.45695975
-0.06634894 0.02678684 0.45692801
-0.065522514 0.026785934 0.45691258
-0.064698391 0.026785957 0.45691296
-0.063876502 0.026786922 0.45692942
-0.063056692 0.026788792 0.45696133
-0.062239036 0.026791638 0.45700988
-0.061423078 0.026795302 0.45707238
-0.060608905 0.026799856 0.45715004
-0.059797078 0.026805587 0.45724782
-0.058986578 0.026812082 0.4573586
-0.058177855 0.026819579 0.45748648
-0.057371072 0.026828198 0.45763353
-0.056565683 0.026837733 0.45779616
-0.055762503 0.026848612 0.45798174
-0.054961495 0.02686088 0.45819101
-0.054162569 0.026874557 0.4584243
-0.053366046 0.026889868 0.45868549
-0.05257282 0.026907349 0.45898366
-0.051782969 0.026927143 0.45932132
-0.050996371 0.026949301 0.45969927
-0.050212614 0.026973719 0.46011579
-0.049431529 0.027000414 0.46057117
-0.048652072 0.027028929 0.46105757
-0.047873504 0.027058939 0.46156946
-0.04709461 0.027089819 0.46209624
-0.046315543 0.027121715 0.46264032
-0.045536362 0.027154712 0.46320316
-0.044757757 0.027189292 0.46379304
-0.043979537 0.027225427 0.46440941
-0.043201897 0.027263334 0.46505603
-0.042425945 0.027303826 0.46574673
-0.041650362 0.027346198 0.46646953
-0.040875666 0.02739091 0.46723223
-0.040100478 0.027437169 0.4680213
-0.039324384 0.027484784 0.46883351
-0.038546953 0.027533539 0.46966517
-0.037768479 0.027583722 0.47052118
-0.036990833 0.02763683 0.47142708
-0.036216404 0.027694896 0.47241759
-0.035451066 0.027762882 0.47357729
-0.034706514 0.027850905 0.47507879
-0.033988159 0.027964942 0.47702402
-0.033276457 0.028090516 0.47916606
-0.032562274 0.028220639 0.48138568
-0.031898305 0.0284026 0.48448956
-0.096580647 0.029017504 0.48020306
-0.09464214 0.028692413 0.47482321
-0.093325369 0.028551597 0.4724929
-0.092195325 0.028465837 0.47107369
-0.091115683 0.028394191 0.469888
-0.09005928 0.028328506 0.46880102
-0.089014903 0.028265396 0.46775663
-0.087984256 0.028205479 0.46676508
-0.086969577 0.028149573 0.46583989
-0.085971862 0.028098121 0.46498844
-0.084991358 0.028051335 0.46421418
-0.084024034 0.02800801 0.46349722
-0.083068818 0.027967894 0.46283334
-0.082122773 0.027930081 0.46220759
-0.081184626 0.027894206 0.46161389
-0.080253661 0.027860079 0.46104914
-0.079330876 0.02782811 0.46052009
-0.078417972 0.027798964 0.46003777
-0.077515446 0.027772913 0.45960665
-0.076623291 0.027750056 0.4592284
-0.075741626 0.027730541 0.45890546
-0.07486853 0.027713766 0.45862785
-0.074003235 0.027699536 0.45839235
-0.073143773 0.02768719 0.45818806
-0.072289392 0.027676512 0.45801133
-0.071440026 0.027667524 0.45786262
-0.070594408 0.027659796 0.4577347
-0.069752544 0.027653376 0.45762846
-0.068914048 0.027648151 0.457542
-0.06807825 0.027643897 0.45747158
-0.067245491 0.027640784 0.45742008
-0.066415712 0.027638838 0.45738786
-0.065588072 0.027637741 0.45736971
-0.064763159 0.027637782 0.4573704
-0.063940197 0.027638666 0.45738503
-0.063119575 0.027640598 0.45741701
-0.062300839 0.027643418 0.45746368
-0.061484616 0.027647445 0.45753032
-0.060670078 0.027652349 0.45761147
-0.059857417 0.027658254 0.45770919
-0.059046678 0.027665228 0.45782459
-0.058238104 0.027673425 0.45796025
-0.05743131 0.027682718 0.45811403
-0.056626752 0.027693374 0.4582904
-0.055824533 0.027705509 0.45849121
-0.055024341 0.027719028 0.45871493
-0.054227725 0.02773479 0.45897576
-0.053433992 0.027752537 0.45926946
-0.052643165 0.027772378 0.4595978
-0.051855315 0.027794449 0.45996305
-0.051070213 0.027818734 0.46036494
-0.050287612 0.027845206 0.460803
-0.049506404 0.027873354 0.46126881
-0.048725907 0.02790287 0.46175727
-0.047945254 0.02793332 0.4622612
-0.047164589 0.027964845 0.46278289
-0.046383873 0.027997473 0.46332285
-0.045604005 0.02803182 0.46389124
-0.04482485 0.028067898 0.46448827
-0.044046331 0.028105754 0.46511474
-0.043269109 0.028145926 0.46577954
-0.042493369 0.02818867 0.4664869
-0.041717805 0.028233264 0.46722487
-0.040941894 0.028279452 0.46798924
-0.04016576 0.02832743 0.4687832
-0.039387785 0.028376147 0.46958941
-0.038609233 0.028426578 0.470424
-0.037830718 0.028479304 0.47129652
-0.037056163 0.028537504 0.47225967
-0.036288183 0.028603625 0.47335389
-0.035537459 0.028686864 0.47473139
-0.034814693 0.02879734 0.47655961
-0.034106068 0.0289254 0.47867885
