# .PCD v0.7 - Point Cloud Data file format
VERSION 0.7
FIELDS x y z
SIZE 4 4 4
TYPE F F F
COUNT 1 1 1
WIDTH 84
HEIGHT 1
VIEWPOINT 0 0 0 1 0 0 0
POINTS 84
DATA ascii
0.091204591 0.052431624 0.48852414
0.10036239 0.051276851 0.48593163
0.086022697 0.051613618 0.48912305
0.10898318 0.047707498 0.48528829
0.096495509 0.049762256 0.47977975
0.10779554 0.046321776 0.47999984
0.099294752 0.049864177 0.48076239
0.10123982 0.04024177 0.46967036
0.081299052 0.049658339 0.48725176
0.099598542 0.041110888 0.46992093
0.086130232 0.048908122 0.47989056
0.070920788 0.042374056 0.49455673
0.11154429 0.045930002 0.48500568
0.11035638 0.044575319 0.47984052
0.078353867 0.045453902 0.47997823
0.087745033 0.04111724 0.46999353
0.07636375 0.047230758 0.48941898
0.069119096 0.040062662 0.48813289
0.080463484 0.039593145 0.47203773
0.11739194 0.039712518 0.48386666
0.10991406 0.039774351 0.4741981
0.10893637 0.035181787 0.46998009
0.099300228 0.039297536 0.46851343
0.070236228 0.039698739 0.48369879
0.0843134 0.039402746 0.46976775
0.12206051 0.031936981 0.48507696
0.11983559 0.032446459 0.4796735
0.11058248 0.03262395 0.46977022
0.068824589 0.035061583 0.47993916
0.079197846 0.035151985 0.46958199
0.068413496 0.039282586 0.489384
0.11312152 0.026691593 0.46975741
0.10930013 0.029962583 0.46790811
0.099328883 0.029756755 0.46469381
0.080432035 0.02989882 0.46691236
0.12156419 0.026389381 0.47966611
0.063173361 0.025180988 0.48982123
0.07502801 0.029248206 0.4699913
0.11924428 0.029703449 0.47730663
0.12373551 0.023173081 0.48478323
0.11315671 0.016528508 0.46990356
0.063411228 0.025634326 0.49863955
0.070606776 0.029526468 0.47446272
0.10963105 0.010582147 0.46932477
0.066229463 0.0281367 0.47995386
0.099480934 0.01049377 0.46540517
0.070522077 0.037640616 0.47970822
0.06665314 0.036234256 0.49599126
0.12164454 0.016883051 0.47998315
0.080563463 0.010544956 0.4676753
0.11961287 0.011659016 0.478782
0.064959042 0.011047455 0.48996148
0.076696336 0.011440891 0.46982458
0.1227876 0.014419897 0.4844934
0.11552703 0.0038941698 0.47974676
0.069376573 0.0030932231 0.48995125
0.079241812 0.0080513079 0.4698427
0.069651164 0.0073544704 0.47966957
0.065341704 0.010364546 0.49964568
0.070031174 0.010740978 0.47636899
0.10975058 0.0097461911 0.4698365
0.087139167 -0.0084904833 0.49547127
0.099931002 -0.0056238226 0.47965384
0.070143096 0.0022057577 0.48913357
0.089431651 0.0021192336 0.46994656
0.099124111 -0.0083704805 0.48846838
0.075670451 0.00043240256 0.47943303
0.066880435 0.00673293 0.49768266
0.10966024 0.00043004015 0.47681364
0.099114411 0.00042538374 0.47165078
0.071636461 0.00045054377 0.49954736
0.080143966 0.00042857736 0.47519177
0.11613011 0.0013146806 0.48589078
0.10862391 -0.0021638228 0.47983438
0.11000851 -0.0004314059 0.47832796
0.067093 0.012552884 0.47993806
0.097899914 0.0021190457 0.46990493
0.10518206 -0.0066013844 0.48795912
0.07461594 -0.0022075721 0.48953593
0.079155192 -0.0021627101 0.47958764
0.11436053 -0.00043816297 0.48581994
0.087803155 -0.0056228624 0.47957194
0.076923274 -0.0040485933 0.49877113
0.088522457 -0.0083677946 0.48831165
