# .PCD v0.7 - Point Cloud Data file format
VERSION 0.7
FIELDS x y z
SIZE 4 4 4
TYPE F F F
COUNT 1 1 1
WIDTH 62
HEIGHT 1
VIEWPOINT 0 0 0 1 0 0 0
POINTS 62
DATA ascii
0.038294658 0.065326184 0.49952698
0.038434524 0.060523331 0.48982611
0.021647273 0.063174695 0.4898316
0.016348951 0.061419033 0.48992303
0.042756267 0.062559165 0.49901757
0.028135946 0.051510423 0.47994098
0.028463064 0.059991378 0.48552093
0.041087735 0.058759879 0.48985657
0.039275199 0.059574742 0.48929197
0.01104571 0.057879519 0.48988405
0.03956566 0.049130984 0.4820773
0.020250786 0.067052603 0.4989638
0.036797281 0.046321284 0.47999474
0.013075511 0.064475797 0.4999198
0.020343745 0.049777251 0.47992429
0.0094407769 0.061589833 0.49845749
0.019474072 0.048901558 0.47982618
0.050891694 0.053593908 0.49935353
0.010050857 0.049380295 0.48452356
0.049044471 0.048160788 0.48989922
0.014285609 0.039393652 0.47998151
0.0040562227 0.056336429 0.49971107
0.039508004 0.030824926 0.48137483
0.0083962921 0.055238765 0.48997465
0.038508609 0.039373972 0.47974175
0.049912807 0.033127971 0.48974863
0.037555192 0.017231205 0.48988116
0.00044940074 0.030109851 0.49828002
0.026955346 0.0145824 0.48995337
-0.001352399 0.037416372 0.49983108
0.049037039 0.056235135 0.49881259
0.0039770342 0.047282521 0.48995537
0.035058718 0.029864833 0.47989991
0.02813869 0.026407078 0.4799878
0.011930302 0.019883836 0.48992243
0.050036997 0.022989972 0.49981344
0.049997877 0.031414598 0.49058336
0.0083952406 0.023418304 0.48991331
0.010177504 0.02079751 0.49062893
0.00045038154 0.029274799 0.49936748
0.040185682 0.018988838 0.4896318
0.054548822 0.034712885 0.49984998
0.011043957 0.020762639 0.48980632
0.031602073 0.0506499 0.47999024
0.0094574951 0.016663207 0.49934018
0.011106292 0.059973978 0.49257091
0.020311184 0.030682854 0.47915617
0.00045000881 0.049050961 0.49895421
0.019476699 0.028998639 0.47989088
0.04901354 0.022033609 0.49857357
0.041928314 0.014877789 0.49987811
-0.00045032988 0.046383977 0.4993102
0.020532141 0.020532141 0.48436868
0.049113303 0.049113303 0.49058679
0.0030929293 0.034905918 0.48990473
0.017557684 0.01215532 0.49916288
0.04637713 0.025176156 0.48972723
0.036508042 0.012169347 0.49973893
0.039096061 0.020646235 0.48706025
0.053628899 0.047319617 0.49967957
0.010041676 0.030125029 0.48408103
0.026601087 0.010369916 0.49990451
