# .PCD v0.7 - Point Cloud Data file format
VERSION 0.7
FIELDS x y z
SIZE 4 4 4
TYPE F F F
COUNT 1 1 1
WIDTH 1371
HEIGHT 1
VIEWPOINT 0 0 0 1 0 0 0
POINTS 1371
DATA ascii
0.0022182895 0.033274341 0.49191254
0.0030964434 0.033176176 0.49046132
0.0039710249 0.033091873 0.48921499
0.0048423018 0.033015694 0.48808879
0.0057110996 0.03294865 0.48709768
0.0065772017 0.032886006 0.48617157
0.0074411957 0.032828804 0.4853259
0.0083039626 0.0327788 0.48458669
0.0091645047 0.032730374 0.48387077
0.010024297 0.032687925 0.48324323
0.010882366 0.032647096 0.48263961
0.011740265 0.032611847 0.48211852
0.012596445 0.032577015 0.48160356
0.013452797 0.03254709 0.48116118
0.014308008 0.032518201 0.48073408
0.015163381 0.032492958 0.48036093
0.016018311 0.032469548 0.48001483
0.016872937 0.032447957 0.47969562
0.017728122 0.03242949 0.47942266
0.01858254 0.032411404 0.47915527
0.019438067 0.032396778 0.47893903
0.020293813 0.032383744 0.47874635
0.021149509 0.032371696 0.47856823
0.022005931 0.032361664 0.4784199
0.02286361 0.032354165 0.47830907
0.023721799 0.032347906 0.47821656
0.024580725 0.032343056 0.47814485
0.025440583 0.032339722 0.47809556
0.026301533 0.032337949 0.47806934
0.027163783 0.032337837 0.47806767
0.028027672 0.032339621 0.47809407
0.028893245 0.032343186 0.47814673
0.029760512 0.032348383 0.47822356
0.030629622 0.032355234 0.47832486
0.031500567 0.032363597 0.47844851
0.032373343 0.032373343 0.47859257
0.033248372 0.032384779 0.47876164
0.034127552 0.032399572 0.47898036
0.035008781 0.032415539 0.47921637
0.035891917 0.032432456 0.47946647
0.036780708 0.032453563 0.47977853
0.037672322 0.032476138 0.48011228
0.038567506 0.032500707 0.48047549
0.039468873 0.032529291 0.48089805
0.04037267 0.032558605 0.48133141
0.041285638 0.032593925 0.48185357
0.04220153 0.032630049 0.4823876
0.043127265 0.032672171 0.48301029
0.044059359 0.032717343 0.48367813
0.045000527 0.032767374 0.48441777
0.045952845 0.032823462 0.48524693
0.046916042 0.032885075 0.4861578
0.047895424 0.032955568 0.4871999
0.048891243 0.033034623 0.48836863
0.049912807 0.033127971 0.48974863
0.050965045 0.033238072 0.49137634
0.052060563 0.033372156 0.49335858
0.053232383 0.033549823 0.49598509
-0.00044879978 0.034557581 0.49761367
0.00044653376 0.0343831 0.49510118
0.0013344248 0.034250237 0.49318805
0.0022167796 0.034138408 0.49157771
0.0030946853 0.034041539 0.49018288
0.0039687925 0.033955224 0.48893997
0.0048395414 0.033876788 0.48781055
0.0057079038 0.033808354 0.48682511
0.0065740538 0.033746809 0.48593891
0.0074377493 0.033688631 0.48510113
0.008299971 0.033636723 0.48435372
0.0091604367 0.033588268 0.48365599
0.010019851 0.033544719 0.48302889
0.010878063 0.033504434 0.48244879
0.011735058 0.033466648 0.48190469
0.012591602 0.033432875 0.4814184
0.013447413 0.033401642 0.48096862
0.014302483 0.033372462 0.48054844
0.015157672 0.033346877 0.48018005
0.016011942 0.033322148 0.47982398
0.016866971 0.033301458 0.47952601
0.017721277 0.033281423 0.47923756
0.018576154 0.033264276 0.47899064
0.019431245 0.033249021 0.47877094
0.020286217 0.033234868 0.47856715
0.021142222 0.033223491 0.47840336
0.021998875 0.033213988 0.47826651
0.02285582 0.033205625 0.47814611
0.023713218 0.033198506 0.47804356
0.024572026 0.033193789 0.47797567
0.025432069 0.033191007 0.47793558
0.026293136 0.033189695 0.47791672
0.027155288 0.033189796 0.47791815
0.028018838 0.033191547 0.47794336
0.028883794 0.033194806 0.47799033
0.029750189 0.033199485 0.47805768
0.030618314 0.033205777 0.47814828
0.031489354 0.033214796 0.47827816
0.032362517 0.033225518 0.47843254
0.033237562 0.033237562 0.47860599
0.034114398 0.033250742 0.47879574
0.03499588 0.033267688 0.47903976
0.035879612 0.033285905 0.47930208
0.036766067 0.033305731 0.47958755
0.037657972 0.033329472 0.47992942
0.038552463 0.033354379 0.48028809
0.039452668 0.033383027 0.48070061
0.040357243 0.033414062 0.4811475
0.041267205 0.033448156 0.48163843
0.042183876 0.033486169 0.48218581
0.043107752 0.03352825 0.48279175
0.044036992 0.033572756 0.48343262
0.044979397 0.033625375 0.48419032
0.045928933 0.033681218 0.48499441
0.046890389 0.033743553 0.485892
0.047868125 0.033815097 0.48692223
0.048862927 0.033895906 0.48808581
0.049878314 0.03398788 0.48941019
0.050921716 0.03409541 0.4909586
0.05201254 0.034230474 0.49290347
0.053179633 0.03441035 0.49549359
0.054548822 0.034712885 0.49984998
-0.00044842198 0.035425339 0.4971948
0.00044624603 0.035253435 0.49478218
0.0013335921 0.035117928 0.49288028
0.0022153284 0.035002191 0.49125591
0.0030929293 0.034905918 0.48990473
0.0039669015 0.034820579 0.48870701
0.0048375851 0.034742657 0.48761338
0.0057053221 0.034670804 0.4866049
0.0065710684 0.034607626 0.48571822
0.0074347286 0.03454962 0.48490411
0.0082966164 0.034496456 0.48415795
0.0091571799 0.034448437 0.483484
0.010015788 0.034402058 0.48283306
0.010873998 0.034361832 0.48226848
0.011730702 0.034323163 0.48172578
0.012587352 0.03428968 0.48125586
0.013442328 0.034256257 0.48078674
0.01429798 0.034228496 0.48039714
0.015152404 0.034201141 0.48001319
0.01600709 0.0341773 0.47967857
0.016861534 0.034155414 0.47937143
0.017715648 0.034135029 0.4790853
0.018570626 0.034118127 0.4788481
0.01942507 0.034101788 0.4786188
0.020280315 0.034088191 0.47842792
0.021136167 0.034076679 0.47826636
0.021992067 0.034066144 0.47811851
0.022848779 0.034057613 0.47799879
0.023706818 0.034051612 0.47791454
0.024565522 0.034046952 0.47784916
0.025425004 0.034043647 0.47780278
0.026285525 0.034041911 0.4777784
0.027147336 0.034041896 0.47777823
0.028010651 0.034043714 0.47780374
0.02887547 0.034047198 0.47785258
0.029742103 0.034052555 0.47792777
0.030610332 0.034059383 0.47802365
0.031480178 0.03406759 0.4781388
0.032351959 0.034077395 0.47827643
0.033227533 0.034090586 0.47846153
0.034104913 0.034104913 0.47866264
0.034984022 0.034120221 0.47887748
0.035868537 0.034139931 0.47915414
0.036754966 0.034160499 0.47944278
0.037645198 0.034183573 0.47976661
0.038540352 0.034209978 0.4801372
0.039438266 0.034237616 0.48052511
0.040343434 0.034270227 0.48098284
0.041251961 0.034304261 0.48146051
0.042168278 0.034343239 0.48200753
0.043090288 0.034385178 0.48259616
0.04402139 0.034432571 0.48326135
0.04495997 0.034483861 0.48398116
0.045907483 0.034539916 0.48476791
0.046870809 0.034605552 0.4856891
0.04784584 0.03467726 0.48669553
0.048835427 0.034756742 0.48781109
0.049846712 0.034848586 0.4891001
0.050890721 0.034959715 0.49065977
0.051974323 0.035093773 0.49254128
0.053128988 0.035270505 0.49502173
0.054458838 0.035555772 0.49902543
-0.00044804486 0.036291633 0.49677664
0.00044600721 0.036126584 0.49451739
0.0013330091 0.035991244 0.49266478
0.0022145426 0.035875589 0.49108166
0.0030915972 0.035774197 0.48969373
0.0039651385 0.035686243 0.48848981
0.0048356354 0.035607863 0.48741686
0.0057033775 0.035536427 0.48643905
0.0065688388 0.03547173 0.48555344
0.0074323909 0.035413157 0.48475164
0.0082937209 0.035357442 0.483989
0.0091540618 0.035308525 0.4833194
0.01001289 0.035262786 0.48269331
0.01087082 0.035221457 0.48212758
0.011727458 0.035182375 0.4815926
0.012583453 0.035146885 0.48110682
0.013438896 0.035114534 0.48066399
0.014293969 0.035085194 0.48026237
0.015148112 0.035057057 0.4798772
0.016002934 0.03503345 0.47955406
0.016856613 0.035009891 0.47923154
0.017711416 0.034990843 0.47897086
0.018565597 0.034972403 0.4787184
0.019420229 0.034956414 0.47849953
0.020275535 0.034942944 0.47831517
0.021130614 0.034930199 0.47814071
0.021986712 0.03492007 0.47800207
0.022843771 0.034912176 0.47789401
0.023701202 0.034905408 0.47780132
0.024559157 0.034899853 0.47772533
0.025418494 0.034896579 0.47768047
0.026279209 0.034895342 0.47766358
0.027141046 0.034895629 0.47766751
0.02800408 0.034897391 0.47769162
0.028868416 0.034900624 0.47773585
0.029734099 0.034905247 0.47779915
0.030602641 0.034912873 0.47790354
0.031472933 0.034922019 0.47802874
0.032344814 0.034932397 0.47817081
0.033218317 0.034943946 0.47832885
0.034096282 0.03495948 0.47854149
0.034976155 0.034976155 0.47876975
0.035858423 0.034994364 0.47901902
0.036745418 0.035016224 0.47931823
0.037634715 0.035039216 0.479633
0.038529381 0.035066068 0.48000053
0.039427668 0.035094958 0.480396
0.040331516 0.03512745 0.48084077
0.041239999 0.035162523 0.48132089
0.042155899 0.035202347 0.481866
0.043076057 0.035244044 0.48243678
0.04400678 0.035292566 0.48310095
0.044944409 0.03534463 0.48381364
0.045893088 0.03540324 0.48461589
0.04685279 0.035468001 0.48550236
0.047824733 0.035539482 0.48648083
0.048815336 0.035622001 0.48761043
0.049828202 0.035717558 0.48891845
0.050867185 0.035828192 0.49043283
0.051942527 0.035960212 0.49223998
0.053089537 0.036136575 0.49465415
0.054396145 0.036413949 0.49845096
-0.001352399 0.037416372 0.49983108
-0.00044788537 0.037174486 0.49659979
0.00044582135 0.037003171 0.4943113
0.0013324264 0.0368638 0.49244946
0.0022137575 0.036748376 0.49090755
0.0030906908 0.036646765 0.48955017
0.003963972 0.036556628 0.4883461
0.0048343153 0.036477104 0.48728377
0.0057017906 0.036403742 0.48630372
0.006566687 0.036335666 0.48539436
0.0074302889 0.036277294 0.48461455
0.0082917782 0.036221977 0.48387563
0.0091518592 0.036171634 0.48320308
0.010010562 0.036125071 0.48258108
0.010867903 0.036081437 0.48199821
0.011724762 0.036042783 0.48148185
0.012580512 0.036006294 0.48099437
0.013435994 0.035973791 0.48056018
0.014290445 0.035942633 0.48014396
0.015145159 0.035915662 0.47978368
0.015999338 0.035890408 0.47944629
0.016853301 0.035867285 0.47913739
0.017707746 0.035847388 0.47887164
0.01856141 0.035827838 0.47861046
0.019416582 0.035812806 0.47840968
0.020271268 0.035798196 0.47821447
0.021126514 0.035785727 0.47804794
0.021982787 0.035775907 0.47791675
0.022839161 0.035766985 0.47779757
0.023696247 0.035759792 0.47770146
0.024554936 0.035755433 0.47764325
0.025414366 0.035752416 0.4776029
0.026274687 0.035750803 0.47758138
0.027136194 0.035750858 0.47758213
0.027999096 0.035752691 0.47760659
0.028863521 0.035756301 0.47765484
0.029729482 0.03576155 0.47772494
0.030596886 0.035768192 0.47781366
0.031466112 0.035776537 0.47792515
0.032338653 0.035788108 0.47807974
0.033212725 0.035800729 0.47824833
0.03408866 0.035814669 0.47843453
0.034969233 0.03583267 0.47867501
0.035851281 0.035851281 0.47892365
0.036737449 0.035873041 0.47921428
0.037627324 0.035897333 0.4795388
0.038520548 0.03592366 0.4798905
0.039419267 0.035953838 0.48029363
0.040321901 0.035986211 0.48072612
0.041230716 0.036022626 0.48121256
0.042144876 0.03606211 0.48174
0.043066602 0.036106344 0.48233092
0.043995827 0.036154989 0.48298073
0.044931199 0.036206696 0.48367146
0.045880429 0.036267389 0.48448223
0.04683971 0.036333609 0.48536685
0.047810555 0.036406204 0.48633662
0.0488008 0.03649069 0.48746523
0.04980978 0.036585946 0.48873773
0.050847881 0.036698904 0.49024671
0.051925216 0.036835838 0.49207595
0.053061675 0.037009403 0.49439454
0.054339711 0.037274346 0.4979338
-0.0013516484 0.038296703 0.49955365
-0.00044775128 0.038058858 0.49645114
0.00044571894 0.037886109 0.49419776
0.0013321784 0.037745051 0.49235776
0.0022132609 0.037625436 0.49079743
0.0030899325 0.03752061 0.48943004
0.0039628912 0.037427306 0.48821297
0.0048331516 0.037347082 0.48716649
0.0057006753 0.037273645 0.48620859
0.0065656207 0.037205186 0.48531556
0.0074288724 0.037144363 0.48452216
0.0082902135 0.037087798 0.48378432
0.0091498243 0.037035003 0.48309565
0.010008676 0.036988586 0.48249018
0.010865856 0.036943913 0.48190743
0.011722793 0.036905091 0.48140103
0.012578112 0.036866881 0.48090261
0.013433581 0.036834013 0.48047388
0.014287869 0.036802087 0.48005742
0.015142743 0.036775231 0.47970712
0.015996397 0.036748476 0.47935814
0.016850851 0.036726214 0.47906774
0.017704731 0.036704928 0.47879007
0.018558962 0.036686324 0.47854736
0.019413577 0.036670092 0.47833565
0.020267894 0.036654703 0.4781349
0.0211237 0.036643155 0.47798425
0.021979352 0.036632251 0.47784206
0.022835672 0.036623247 0.47772461
0.02369345 0.036617152 0.47764507
0.024551554 0.036611967 0.47757745
0.025410362 0.036608148 0.47752765
0.026270259 0.036606099 0.47750092
0.027131908 0.036606543 0.4775067
0.027994582 0.036608301 0.47752962
0.028858729 0.036611822 0.47757554
0.029725049 0.036617812 0.47765371
0.030592928 0.036625337 0.47775185
0.031462237 0.036634114 0.47786632
0.032333136 0.036644224 0.4779982
0.033207968 0.036658145 0.47817981
0.034084175 0.036672845 0.47837156
0.034963485 0.036690075 0.47859633
0.03584623 0.036709994 0.47885615
0.036730938 0.036730938 0.47912934
0.037621405 0.036756545 0.47946337
0.038513649 0.036782701 0.47980455
0.039412595 0.036813963 0.48021236
0.040314276 0.036846381 0.4806352
0.041223984 0.036884617 0.48113397
0.04213652 0.036923755 0.48164451
0.043058515 0.036969431 0.48224032
0.043987073 0.037018824 0.48288462
0.044924051 0.037073247 0.48359451
0.045871828 0.037134338 0.48439139
0.046828572 0.037200268 0.48525143
0.047799703 0.037274998 0.48622623
0.048790444 0.03736205 0.48736176
0.04980059 0.037460621 0.48864755
0.050836675 0.037574936 0.49013868
0.051910121 0.037712481 0.49193287
0.053039785 0.037885562 0.49419057
0.054322045 0.038160115 0.49777195
-0.0013516144 0.039196815 0.49954107
-0.00044766915 0.038947217 0.49636009
0.00044561678 0.03876866 0.49408448
0.0013319431 0.038626347 0.4922708
0.002212961 0.038505521 0.49073091
0.0030896207 0.03839957 0.48938066
0.003962554 0.03830469 0.48817143
0.0048324997 0.038220681 0.48710078
0.0056998548 0.038145181 0.48613861
0.0065646558 0.038075004 0.48524421
0.0074276906 0.0380123 0.4844451
0.0082891732 0.03795569 0.48372364
0.0091486722 0.037901644 0.48303485
0.010007545 0.037854631 0.48243567
0.010864629 0.037808914 0.48185304
0.011721252 0.037768479 0.48133776
0.012576705 0.037730116 0.48084882
0.013432097 0.037696529 0.4804208
0.014286503 0.037664417 0.48001155
0.015140971 0.037636127 0.479651
0.015994595 0.037608914 0.47930419
0.016849067 0.037586384 0.47901702
0.017702492 0.037563827 0.47872955
0.018557169 0.037545897 0.47850108
0.019411327 0.037528567 0.47828019
0.020266227 0.037514079 0.47809556
0.02112156 0.037501544 0.47793582
0.021976829 0.037489884 0.47778723
0.022833921 0.037482098 0.47768795
0.023691066 0.03747496 0.477597
0.024548592 0.037468906 0.47751984
0.025408275 0.03746644 0.47748843
0.026268672 0.037465155 0.47747207
0.027130082 0.037465353 0.47747457
0.027992781 0.03746726 0.47749889
0.028856829 0.037470806 0.4775441
0.029722152 0.037475757 0.47760716
0.0305895 0.03748291 0.47769833
0.031459447 0.037492767 0.47782394
0.032330651 0.037503555 0.47796145
0.033204332 0.037516583 0.47812748
0.034081154 0.037532412 0.47832918
0.034959245 0.037548818 0.4785383
0.035842557 0.03756991 0.47880709
0.036727451 0.037591625 0.47908384
0.037617207 0.037617207 0.47940984
0.038510188 0.037644792 0.47976142
0.039408311 0.037676077 0.48016015
0.040310096 0.037709445 0.48058537
0.041219048 0.037747972 0.48107639
0.042131979 0.037788477 0.4815926
0.043053892 0.037835237 0.48218855
0.043980639 0.037884314 0.48281398
0.044918135 0.037940562 0.48353082
0.045865767 0.038003065 0.48432741
0.04682282 0.038070891 0.48519179
0.047795516 0.038148712 0.48618361
0.048784409 0.038236428 0.4873015
0.049792353 0.038335707 0.48856673
0.050826695 0.0384515 0.49004245
0.051902555 0.038594209 0.49186119
0.053038612 0.038776129 0.49417967
0.054316442 0.039053969 0.4977206
-0.0013517025 0.040100507 0.49957365
-0.00044770676 0.039845899 0.49640176
0.00044564335 0.039662261 0.49411395
0.0013319099 0.039513327 0.49225855
0.0022127952 0.039387755 0.49069417
0.0030893085 0.039278351 0.48933122
0.0039622672 0.039182417 0.48813608
0.0048321495 0.039096482 0.48706546
0.0056995712 0.039020143 0.48611444
0.0065644695 0.038949184 0.48523045
0.0074273194 0.038884204 0.4844209
0.0082887011 0.038826022 0.48369607
0.0091480939 0.038770489 0.48300427
0.010006723 0.038721666 0.48239601
0.010863916 0.038675539 0.48182136
0.011720486 0.038634196 0.48130628
0.012576137 0.038595729 0.48082709
0.013431218 0.038560592 0.48038933
0.01428574 0.038528208 0.47998589
0.015139911 0.038498633 0.47961745
0.015993882 0.03847177 0.47928277
0.01684802 0.038448047 0.47898725
0.017701717 0.038425677 0.47870857
0.018556101 0.038406815 0.47847357
0.019409936 0.038388539 0.47824591
0.020265274 0.038374666 0.47807309
0.021120213 0.038361203 0.47790533
0.021976154 0.038350541 0.47777253
0.022832759 0.038341805 0.47766367
0.02368933 0.038333643 0.47756198
0.024548104 0.038329497 0.47751033
0.02540729 0.038326252 0.47746992
0.026267176 0.038324241 0.47744489
0.027128257 0.038324047 0.47744244
0.027990984 0.038326114 0.47746822
0.028855421 0.038330335 0.47752079
0.029721279 0.038336143 0.47759312
0.030588254 0.038343024 0.47767887
0.031457569 0.038352378 0.47779539
0.032329425 0.03836425 0.4779433
0.033202257 0.038376637 0.47809762
0.034079477 0.038393337 0.47830567
0.034958079 0.038410727 0.47852233
0.035840545 0.038431425 0.47878018
0.036725961 0.038454242 0.4790644
0.037614856 0.038479567 0.47937992
0.03850846 0.03850846 0.47973987
0.039405987 0.038539924 0.48013183
0.04030849 0.038574792 0.48056626
0.041216176 0.038613051 0.48104286
0.042129904 0.038655274 0.48156887
0.043051615 0.038702969 0.48216307
0.043978397 0.038753241 0.48278937
0.044916652 0.038811475 0.48351485
0.045863077 0.038874418 0.484299
0.046818737 0.038942687 0.4851495
0.047792453 0.039023194 0.48615247
0.048782181 0.039113641 0.48727924
0.049791928 0.039216653 0.48856255
0.050828554 0.039336883 0.49006039
0.051903468 0.039482124 0.49186984
0.053038336 0.039667327 0.4941771
0.05431604 0.03995147 0.49771693
-0.0013520677 0.041012723 0.49970865
-0.00044774593 0.040744878 0.49644521
0.00044568293 0.040557146 0.49415782
0.0013320377 0.040405147 0.49230582
0.0022130138 0.040276852 0.49074265
0.0030896184 0.040165041 0.4893803
0.0039625042 0.040065322 0.48816532
0.0048322496 0.039975882 0.48707557
0.005699581 0.039897069 0.48611528
0.0065644043 0.039824054 0.48522565
0.0074271159 0.039756913 0.4844076
0.0082886303 0.039698176 0.48369193
0.0091481693 0.039642069 0.4830083
0.010006783 0.039592054 0.4823989
0.01086406 0.039545182 0.4818278
0.01172044 0.039502226 0.48130441
0.012576112 0.039462972 0.48082614
0.013430987 0.039426446 0.4803811
0.014285609 0.039393652 0.47998151
0.015139685 0.039363179 0.47961026
0.015993867 0.039336268 0.47928235
0.016847773 0.039311472 0.47898021
0.017701736 0.039289217 0.47870907
0.018555917 0.039269499 0.47846884
0.019410053 0.039251443 0.4782488
0.020265181 0.03923684 0.47807088
0.021119675 0.039222252 0.47789314
0.021976227 0.03921248 0.47777411
0.022832423 0.039202839 0.47765663
0.02368976 0.039195783 0.47757065
0.024548141 0.039190892 0.47751105
0.025406703 0.039186612 0.47745889
0.026267117 0.039185371 0.47744378
0.027128704 0.039185908 0.47745031
0.02799131 0.039187834 0.4774738
0.028854925 0.039191019 0.4775126
0.029721001 0.039197262 0.47758868
0.030588662 0.039205186 0.47768521
0.031457052 0.039213587 0.47778755
0.032329373 0.039226308 0.47794256
0.033202738 0.0392396 0.47810453
0.034079179 0.039255764 0.47830147
0.034958359 0.039274205 0.47852618
0.035840191 0.039294668 0.4787755
0.036726113 0.039318547 0.47906643
0.03761455 0.039343957 0.47937602
0.038508609 0.039373972 0.47974175
0.039405759 0.039405759 0.48012906
0.040308934 0.039442074 0.48057151
0.041216563 0.039481129 0.48104736
0.042130291 0.039524294 0.48157331
0.043051325 0.039572429 0.48215979
0.043978538 0.039624229 0.48279092
0.044917524 0.039684415 0.48352426
0.045864463 0.039749201 0.48431361
0.046821602 0.039820239 0.48517919
0.047795627 0.039902773 0.48618478
0.04878493 0.039994854 0.48730671
0.049794164 0.040099725 0.48858449
0.05083029 0.040222228 0.49007711
0.051907692 0.040372647 0.49190986
0.053050034 0.040567674 0.49428609
0.054349937 0.040874746 0.49802753
-0.0004479381 0.041658245 0.4966583
0.00044579437 0.041458875 0.49428138
0.0013322459 0.041299623 0.49238274
0.0022132334 0.041166142 0.49079132
0.0030899318 0.04105195 0.48942992
0.0039629135 0.040950105 0.48821571
0.0048327455 0.040858667 0.48712558
0.0057001747 0.040778171 0.48616588
0.0065650977 0.040703606 0.48527688
0.0074278577 0.040634751 0.484456
0.0082893185 0.040574033 0.48373207
0.0091488352 0.040516268 0.48304343
0.01000737 0.040464584 0.48242724
0.010864634 0.040416438 0.48185322
0.011720935 0.040372111 0.48132473
0.012576674 0.040332094 0.48084763
0.013431479 0.040294439 0.48039871
0.014286306 0.040261406 0.48000491
0.015140334 0.040230032 0.47963083
0.015994616 0.040202685 0.47930479
0.016848408 0.040176973 0.47899824
0.017702533 0.040154528 0.47873065
0.018556634 0.040134117 0.47848731
0.019410966 0.040115997 0.47827128
0.020265929 0.040100668 0.47808853
0.02112083 0.040086474 0.47791931
0.021977151 0.04007598 0.4777942
0.022833062 0.04006556 0.47766998
0.023690958 0.040059257 0.47759482
0.024548972 0.040053584 0.4775272
0.025408 0.040049896 0.47748324
0.026268573 0.040048808 0.47747025
0.027129782 0.040048726 0.4774693
0.027992601 0.040050954 0.47749582
0.028856797 0.040054958 0.47754356
0.029721705 0.040059689 0.47759998
0.03059005 0.040068656 0.47770691
0.031458929 0.040077813 0.47781608
0.032330681 0.040090047 0.4779619
0.033204455 0.04010408 0.47812924
0.03408055 0.040120143 0.47832072
0.034960184 0.04013947 0.47855115
0.03584167 0.040159944 0.47879523
0.036727972 0.040184721 0.47909066
0.03761629 0.040210519 0.47939819
0.038510721 0.040241543 0.47976807
0.039407782 0.040273886 0.48015368
0.040311448 0.040311448 0.48060149
0.041219272 0.040351499 0.48107898
0.04213373 0.040396258 0.48161262
0.043055061 0.040445667 0.48220167
0.043982279 0.040498536 0.48283198
0.044921163 0.040559884 0.48356342
0.045867942 0.040625893 0.48435038
0.046825591 0.040698878 0.48522052
0.047800716 0.040784098 0.48623654
0.048791789 0.040879607 0.4873752
0.049803674 0.040988863 0.4886778
0.050844077 0.041117385 0.49021006
0.051925704 0.041274279 0.49208057
0.053071108 0.041475739 0.49448243
0.054383874 0.041799176 0.49833852
-0.00044815903 0.04257511 0.49690324
0.00044598503 0.042368576 0.49449277
0.0013327501 0.04220375 0.49256906
0.0022139712 0.042065453 0.49095494
0.0030907451 0.041945826 0.48955876
0.0039637671 0.041839764 0.48832086
0.0048336601 0.041745245 0.48721775
0.0057010879 0.041661795 0.48624378
0.0065660081 0.041584715 0.48534417
0.0074287746 0.041513741 0.48451579
0.008290248 0.041451242 0.48378634
0.0091498205 0.041392047 0.48309547
0.010008465 0.041339308 0.48247996
0.010865846 0.041290212 0.48190695
0.011722231 0.041244887 0.48137796
0.012578077 0.041204046 0.48090127
0.013432954 0.041165505 0.48045146
0.014287806 0.041131563 0.4800553
0.015141829 0.04109925 0.47967818
0.01599616 0.041071221 0.47935107
0.016849944 0.041044738 0.47904196
0.017704176 0.041021869 0.47877505
0.018558275 0.041000839 0.4785296
0.019412765 0.040982503 0.47831562
0.020267706 0.040966641 0.47813049
0.021122757 0.040952284 0.47796291
0.02197904 0.040941346 0.47783527
0.02283494 0.040930554 0.47770929
0.023693053 0.040924363 0.47763705
0.024550924 0.040918209 0.4775652
0.025410432 0.040915102 0.47752896
0.026270719 0.040913414 0.47750926
0.027131697 0.040912878 0.47750297
0.027994506 0.040915046 0.4775283
0.028859435 0.040920094 0.47758722
0.029724604 0.040925179 0.47764656
0.030592781 0.040934 0.47774953
0.031461991 0.04094369 0.4778626
0.03233362 0.040955916 0.47800532
0.033207726 0.040970571 0.47817636
0.034083743 0.04098678 0.47836551
0.034963604 0.041006695 0.47859797
0.035845127 0.041027553 0.47884139
0.036731813 0.041053202 0.47914076
0.037620332 0.041079674 0.47944972
0.038514961 0.041111473 0.47982085
0.039412163 0.041144568 0.48020709
0.040316153 0.041183166 0.48065761
0.041224349 0.041224349 0.48113823
0.042139277 0.041270427 0.48167601
0.043061294 0.041321442 0.48227143
0.043989066 0.041375853 0.48290649
0.044929046 0.04143941 0.48364827
0.045877244 0.041507982 0.48444858
0.046835497 0.04158292 0.48532319
0.04781165 0.041670702 0.48634773
0.048803974 0.041769169 0.48749694
0.049817335 0.04188183 0.48881185
0.050859474 0.042014349 0.4903585
0.051943444 0.042176303 0.49224868
0.053099144 0.042390075 0.49474367
0.054488003 0.042779837 0.49929267
-0.0004484696 0.043501548 0.49724758
0.00044619836 0.043281242 0.49472931
0.001333251 0.043108452 0.49275422
0.0022147233 0.042965632 0.49112174
0.0030916922 0.042842019 0.48970878
0.0039648758 0.042732552 0.48845747
0.0048350287 0.04263616 0.48735568
0.0057025841 0.04255005 0.4863714
0.0065676109 0.042470552 0.48546267
0.0074305898 0.042398073 0.48463419
0.0082921488 0.042333599 0.48389724
0.0091517502 0.04227237 0.48319733
0.010010486 0.042218138 0.48257744
0.010867857 0.042167287 0.48199618
0.011724336 0.042120762 0.48146439
0.012580177 0.042078521 0.48098156
0.01343515 0.042039018 0.48052999
0.014290011 0.042003974 0.48012942
0.01514414 0.041970901 0.47975138
0.015998509 0.041942038 0.47942144
0.016852409 0.041914966 0.479112
0.017706668 0.041891385 0.47884247
0.018560885 0.041869901 0.4785969
0.019415393 0.041850958 0.47838038
0.020270444 0.041834746 0.47819504
0.021125525 0.041819919 0.47802556
0.021981983 0.04180887 0.47789925
0.022837987 0.041797828 0.47777304
0.023696193 0.041791469 0.47770038
0.024554254 0.041785311 0.47762999
0.025413726 0.041781887 0.47759086
0.026274301 0.041780446 0.47757438
0.027135396 0.041779898 0.47756809
0.0279986 0.041782528 0.47759816
0.028863303 0.04178717 0.47765124
0.02972847 0.041792199 0.4777087
0.030596994 0.041801527 0.47781533
0.031466238 0.041811302 0.47792706
0.032338198 0.041824069 0.478073
0.033212397 0.041838992 0.47824359
0.034088802 0.041855868 0.4784365
0.034968805 0.041876223 0.47866917
0.035850801 0.041897923 0.47891721
0.03673758 0.041924063 0.47921598
0.037626527 0.041951418 0.47952867
0.038521294 0.041983884 0.47989976
0.039419021 0.042018078 0.48029065
0.040323142 0.042057469 0.4807409
0.041231912 0.042099953 0.4812265
0.042147025 0.042147025 0.48176458
0.043069787 0.042199694 0.48236659
0.0439981 0.042255599 0.48300564
0.04493887 0.042321071 0.48375404
0.045888402 0.042392142 0.48456642
0.046848245 0.042469904 0.48545527
0.047825389 0.042560209 0.48648751
0.048820388 0.042662863 0.48766088
0.049837574 0.042780928 0.48901045
0.05088545 0.042920772 0.49060893
0.051978145 0.043092992 0.49257752
0.053154819 0.043327875 0.49526238
-0.00044898791 0.044449802 0.49782225
0.00044654965 0.044208415 0.4951188
0.0013341164 0.044025842 0.49307406
0.002215897 0.043874759 0.49138197
0.0030930638 0.043744761 0.48992604
0.003966379 0.043630168 0.48864266
0.0048367823 0.043531038 0.48753244
0.0057044425 0.043441523 0.48652989
0.0065695299 0.043358896 0.48560449
0.007432729 0.043284714 0.4847737
0.0082943412 0.043217883 0.48402518
0.0091539957 0.043154553 0.48331591
0.010012944 0.043099191 0.48269591
0.010870349 0.043046579 0.48210666
0.01172704 0.042999148 0.48157543
0.012582898 0.04295541 0.4810856
0.013438087 0.04291518 0.48063505
0.014292957 0.042878874 0.48022839
0.015147307 0.042845238 0.47985172
0.016001653 0.042815231 0.47951564
0.016855773 0.042787731 0.47920763
0.017709987 0.04276314 0.47893223
0.018564422 0.04274134 0.47868809
0.019418893 0.042721566 0.47846663
0.02027428 0.042705394 0.47828552
0.021129243 0.042689692 0.47810966
0.021985967 0.042678643 0.47798589
0.022842361 0.042667806 0.47786453
0.023700321 0.042660579 0.47778359
0.02455887 0.042654879 0.47771975
0.025417779 0.042650171 0.477667
0.02627896 0.042649459 0.47765905
0.027140837 0.042649888 0.47766384
0.028003937 0.042652149 0.47768918
0.028868157 0.042655934 0.47773156
0.029734269 0.042662211 0.47780186
0.03060266 0.042671315 0.47790381
0.031471707 0.042680807 0.47801015
0.032344472 0.042694703 0.47816578
0.033218563 0.042709578 0.47833237
0.034095645 0.042727452 0.47853255
0.034975663 0.04274803 0.47876301
0.035858467 0.042770945 0.47901964
0.036745261 0.042797424 0.4793162
0.037635043 0.042826083 0.47963718
0.038529761 0.042858947 0.48000523
0.039428372 0.042894606 0.48040459
0.040332686 0.042934798 0.48085472
0.04124264 0.042979173 0.48135173
0.042158023 0.043027259 0.48189029
0.043082174 0.043082174 0.48250529
0.044012081 0.043140557 0.48315915
0.044953097 0.043207347 0.48390719
0.045904569 0.043281451 0.48473713
0.046866756 0.043362699 0.48564708
0.047844347 0.04345496 0.48668036
0.048841976 0.04356176 0.4878765
0.04986256 0.0436849 0.48925561
0.050915077 0.04383124 0.49089459
0.052013699 0.044011593 0.49291447
0.053210605 0.044267647 0.49578217
-0.0004495325 0.04540278 0.49842608
0.00044690527 0.045137431 0.49551311
0.0013350197 0.044945665 0.49340791
0.0022172057 0.044787556 0.49167222
0.0030946883 0.044651929 0.49018332
0.0039683981 0.044534247 0.48889142
0.0048390306 0.044431102 0.48775908
0.0057068518 0.044337846 0.48673537
0.0065720654 0.044251908 0.48579192
0.0074355747 0.044176061 0.4849593
0.008297231 0.044106334 0.48419386
0.0091570327 0.044040967 0.48347625
0.010016126 0.043983858 0.4828493
0.010873507 0.043928966 0.48224673
0.011730456 0.043880597 0.48171571
0.01258626 0.043834906 0.48121414
0.013441763 0.043794129 0.48076651
0.014296633 0.043756362 0.4803519
0.015151331 0.043722413 0.47997922
0.016005622 0.043691024 0.47963461
0.016860085 0.043663293 0.47933021
0.017714161 0.043637324 0.47904512
0.018568974 0.043615494 0.47880548
0.019423299 0.043594517 0.47857517
0.020279035 0.043578353 0.47839773
0.021134254 0.043562442 0.47822306
0.021990908 0.043550622 0.4780933
0.022847878 0.043540295 0.47797993
0.023705263 0.043531481 0.47788319
0.02456449 0.043526553 0.47782907
0.025423987 0.043522418 0.47778368
0.026284197 0.043519735 0.47775424
0.027146311 0.043520279 0.4777602
0.028009491 0.04352244 0.47778392
0.028874643 0.043527447 0.4778389
0.029741518 0.043534685 0.47791836
0.030609436 0.043543 0.47800964
0.031479355 0.043553628 0.47812629
0.032352295 0.043567758 0.47828144
0.033226032 0.043582201 0.47843996
0.034104422 0.043601856 0.47865573
0.034984015 0.043622043 0.47887737
0.035868015 0.043646619 0.47914717
0.036754716 0.043673251 0.47943953
0.037645642 0.04370356 0.47977224
0.038540304 0.043736752 0.4801366
0.039440397 0.043774508 0.48055109
0.040344708 0.043815222 0.48099804
0.041256107 0.043861754 0.48150888
0.042171519 0.043910548 0.48204455
0.043097246 0.043967895 0.48267409
0.04402905 0.04402905 0.48334542
0.044970218 0.04409701 0.48409149
0.045923829 0.044174351 0.48494053
0.046888813 0.044259533 0.48587564
0.047868084 0.04435483 0.48692179
0.048868209 0.044465668 0.48813856
0.049893849 0.044595387 0.4895626
0.050953489 0.044750456 0.49126494
0.052070536 0.044949781 0.49345309
0.053298097 0.0452362 0.49659738
-0.00045032988 0.046383977 0.4993102
0.00044749412 0.046091896 0.49616602
0.0013362301 0.045877233 0.49385524
0.0022188192 0.045707677 0.49202999
0.0030967374 0.045566279 0.4905079
0.0039708442 0.045444105 0.48919275
0.0048416918 0.045335844 0.48802733
0.0057096421 0.045237936 0.48697338
0.0065751094 0.045149084 0.48601693
0.0074389558 0.045071319 0.48517981
0.0083006769 0.044998407 0.48439494
0.0091609005 0.044932034 0.48368046
0.010020041 0.044872358 0.48303804
0.010877477 0.044815205 0.48242283
0.011734788 0.044766042 0.4818936
0.01259056 0.044718198 0.48137856
0.013446382 0.044676688 0.48093173
0.01430105 0.044636611 0.48050028
0.015156182 0.044602476 0.48013285
0.016010379 0.044569436 0.47977719
0.016865293 0.044541672 0.4794783
0.017719157 0.044513978 0.47918019
0.018574473 0.044492342 0.47894728
0.019429067 0.044470973 0.47871727
0.020284684 0.044453669 0.478531
0.021140549 0.044438299 0.47836551
0.021996707 0.044424724 0.47821939
0.022854326 0.044415012 0.47811484
0.023711946 0.044406008 0.47801793
0.024570767 0.044399805 0.47795117
0.025431061 0.044396598 0.47791663
0.02629211 0.044394873 0.47789806
0.027154287 0.044395104 0.47790056
0.028017906 0.044397604 0.47792748
0.028883049 0.044402301 0.47797802
0.029749511 0.04440869 0.4780468
0.0306175 0.044416934 0.47813556
0.031488847 0.04442947 0.47827047
0.03236134 0.044442907 0.47841513
0.033236343 0.044459004 0.47858843
0.03411464 0.04447858 0.47879913
0.034994334 0.044498969 0.47901863
0.035879459 0.044525109 0.47930002
0.036765929 0.044551656 0.4795858
0.037658285 0.04458395 0.47993341
0.038552914 0.044617414 0.48029366
0.039454721 0.044657543 0.48072562
0.040358882 0.044698548 0.48116705
0.041271888 0.044747412 0.48169306
0.042188801 0.044798419 0.48224211
0.043114487 0.044856489 0.48286721
0.044048231 0.044920474 0.483556
0.044990048 0.044990048 0.48430496
0.04594649 0.045071319 0.48517981
0.046915002 0.045161173 0.48614705
0.04789855 0.045261931 0.4872317
0.048901659 0.045377214 0.48847267
0.049932212 0.045513432 0.48993903
0.051002834 0.045680802 0.4917407
0.052137259 0.045898613 0.4940854
0.053417042 0.046234921 0.49770564
0.00044811959 0.047052559 0.49685952
0.0013377756 0.046822146 0.49442646
0.0022209876 0.046640739 0.49251086
0.0030993682 0.04649052 0.4909246
0.0039737872 0.04636085 0.4895553
0.0048448769 0.046246551 0.48834836
0.0057130037 0.046143491 0.48726007
0.0065789437 0.046052605 0.48630035
0.0074428604 0.045970608 0.48543447
0.0083046062 0.045893874 0.48462421
0.0091652116 0.045826059 0.48390809
0.010024345 0.045763314 0.48324552
0.010882334 0.045705803 0.48263821
0.011739685 0.04565433 0.48209471
0.012595725 0.045605212 0.48157603
0.013451796 0.045562536 0.48112535
0.014306585 0.045520954 0.48068628
0.015161849 0.045485545 0.48031238
0.016016286 0.045451622 0.47995418
0.016871331 0.045422819 0.47964999
0.017725747 0.045395203 0.4793584
0.018580774 0.045371659 0.47910976
0.019436 0.045350667 0.47888812
0.020291215 0.045331437 0.47868505
0.0211477 0.045316499 0.47852731
0.022003997 0.045302346 0.47837785
0.022861501 0.045291651 0.47826493
0.023720009 0.045283653 0.47818047
0.024578819 0.045276772 0.47810781
0.025438448 0.045271814 0.47805545
0.02630014 0.045270734 0.47804403
0.027162801 0.045271337 0.47805041
0.028026642 0.045273807 0.47807649
0.028891711 0.045278054 0.47812134
0.029758949 0.045285359 0.47819847
0.03062845 0.045295596 0.47830656
0.031499326 0.045307249 0.47842965
0.032371771 0.045320477 0.47856933
0.033248402 0.045338731 0.47876206
0.034126204 0.045357611 0.47896144
0.035007857 0.045380555 0.47920373
0.035892576 0.045406271 0.47947526
0.036780398 0.045434609 0.4797745
0.037672918 0.045467313 0.48011985
0.038568869 0.045502599 0.48049247
0.039471116 0.045543592 0.48092535
0.040377203 0.045587167 0.48138547
0.041289825 0.045636121 0.48190242
0.042209379 0.045690563 0.48247731
0.043135647 0.045749929 0.4831042
0.044072647 0.045818098 0.48382401
0.045017608 0.045891736 0.48460162
0.045974012 0.045974012 0.48547044
0.046946209 0.046068709 0.4864704
0.047934279 0.046175223 0.48759514
0.048943367 0.046297781 0.48888931
0.049981926 0.046443384 0.49042684
0.05106435 0.046623971 0.49233377
0.05221729 0.046861671 0.49484381
0.053628899 0.047319617 0.49967957
0.00044891096 0.048033472 0.49773696
0.0013395422 0.047777005 0.49507937
0.0022233916 0.047580581 0.49304396
0.0031022381 0.047419924 0.49137917
0.0039770342 0.047282521 0.48995537
0.0048483866 0.047161579 0.48870215
0.0057169702 0.047055062 0.48759839
0.0065833856 0.046961483 0.48662868
0.0074474383 0.046875052 0.48573306
0.008309558 0.046795934 0.4849132
0.009170549 0.04672613 0.4841899
0.010029661 0.046659723 0.48350176
0.010888111 0.046601113 0.48289442
0.011745252 0.046545997 0.48232329
0.012601816 0.046496358 0.4818089
0.013457858 0.046451315 0.48134217
0.014313324 0.046409871 0.48091272
0.015168421 0.04637203 0.48052061
0.016023327 0.046337727 0.48016512
0.016878163 0.046306755 0.47984418
0.017733291 0.046279564 0.47956243
0.018587872 0.046253543 0.47929281
0.019443834 0.046233118 0.47908112
0.020299332 0.046213374 0.47887653
0.021155691 0.04619712 0.47870812
0.022012807 0.046183731 0.47856939
0.02287 0.046171512 0.47844276
0.023728603 0.046162922 0.47835374
0.024588315 0.046157014 0.47829252
0.025448766 0.046152845 0.47824934
0.026310196 0.046150673 0.47822681
0.027172958 0.046150897 0.47822917
0.028037276 0.046153672 0.47825789
0.028903285 0.046158977 0.47831288
0.029770885 0.046166442 0.47839025
0.030640064 0.046175871 0.47848794
0.031510767 0.046187013 0.47860339
0.032385491 0.0462033 0.47877216
0.033261605 0.046220671 0.47895217
0.034140017 0.046240278 0.47915533
0.035022955 0.046264891 0.47941038
0.035907298 0.046290133 0.47967196
0.036797281 0.046321284 0.47999474
0.037689537 0.046353798 0.48033166
0.038587827 0.046392109 0.48072866
0.039489519 0.046432734 0.48114961
0.040397815 0.046479207 0.48163119
0.041311029 0.046529263 0.4821499
0.04223343 0.046587393 0.48275223
0.043160986 0.046648744 0.48338798
0.044098988 0.046718728 0.48411319
0.045046896 0.046796288 0.4849169
0.046005465 0.046881758 0.48580256
0.046980489 0.046980489 0.48682562
0.047974583 0.047094315 0.48800513
0.048991419 0.047225963 0.4893693
0.050039783 0.047382802 0.49099451
0.051136155 0.04757886 0.49302611
0.052332126 0.047859296 0.49593207
0.00045000881 0.049050961 0.49895421
0.0013416831 0.048747819 0.49587062
0.002226291 0.048533142 0.49368688
0.0031057012 0.048360206 0.49192774
0.0039809071 0.048213206 0.49043244
0.0048526973 0.04808582 0.48913664
0.005721814 0.047975209 0.48801151
0.0065883324 0.047875218 0.48699436
0.0074524283 0.047783218 0.48605853
0.0083150985 0.047702409 0.48523653
0.0091761621 0.047628652 0.48448625
0.010035689 0.047560439 0.48379239
0.010894574 0.047500342 0.48318109
0.011751723 0.047442142 0.48258904
0.012608914 0.047392122 0.48208025
0.013464561 0.047343135 0.48158193
0.014320786 0.047301989 0.48116341
0.015175718 0.047261521 0.48075175
0.016031349 0.047227491 0.48040557
0.016886009 0.047194231 0.48006725
0.017741652 0.047166832 0.47978854
0.018596796 0.047140718 0.47952291
0.019452428 0.047118105 0.4792929
0.020308787 0.047099102 0.4790996
0.02116482 0.047080923 0.47891468
0.022022281 0.047067229 0.47877538
0.022880429 0.047055978 0.47866094
0.023738945 0.047046274 0.47856221
0.024598116 0.047038503 0.47848317
0.025459355 0.047035079 0.47844836
0.026321476 0.047033459 0.47843185
0.027184783 0.047033988 0.47843724
0.028049462 0.047036789 0.47846574
0.028915597 0.047041792 0.47851664
0.02978312 0.047048699 0.47858688
0.030653367 0.047059394 0.47869569
0.031525876 0.047072884 0.4788329
0.03240012 0.047088176 0.47898844
0.033276219 0.047105297 0.47916263
0.034156851 0.047127809 0.4793916
0.035039406 0.047151793 0.47963557
0.035925694 0.047179524 0.47991768
0.036815852 0.047210917 0.48023701
0.037709258 0.047244933 0.48058301
0.038608711 0.047284827 0.4809888
0.039511058 0.047326434 0.48141205
0.040421762 0.04737604 0.48191667
0.041336782 0.047428519 0.48245049
0.042259436 0.047487404 0.48304948
0.043190125 0.047552764 0.48371431
0.044128783 0.04762413 0.48444027
0.045081727 0.047707845 0.48529184
0.046045832 0.04779996 0.48622882
0.04702368 0.047902629 0.48727319
0.048020255 0.048020255 0.48846969
0.049044471 0.048160788 0.48989922
0.050102528 0.048328985 0.49161017
0.05122561 0.048552968 0.49388856
0.052478727 0.048890438 0.49732137
0.0013443518 0.049741015 0.49685693
0.0022295839 0.049496766 0.49441713
0.0031094926 0.049307667 0.49252826
0.003985323 0.049152318 0.49097651
0.0048577171 0.049018778 0.48964259
0.0057271444 0.048900999 0.48846611
0.0065939007 0.048794866 0.48740596
0.007458719 0.048701044 0.48646879
0.0083217714 0.048616666 0.48562592
0.0091827568 0.048537429 0.48483446
0.010042899 0.048467904 0.48413998
0.010901514 0.048402719 0.48348886
0.011759446 0.048344389 0.48290619
0.012616703 0.048291519 0.48237807
0.013473042 0.048242185 0.48188528
0.014329035 0.048197661 0.48144054
0.015184665 0.048157081 0.4810352
0.016040158 0.048120473 0.4806695
0.016895495 0.048087176 0.48033693
0.017750748 0.048056901 0.4800345
0.018606728 0.048031323 0.47977901
0.019462384 0.048007213 0.47953817
0.020318892 0.047987171 0.47933796
0.021175908 0.047969915 0.47916561
0.022032982 0.047954138 0.47900802
0.022891305 0.047942169 0.47888845
0.023750804 0.047933441 0.47880128
0.024610916 0.047926523 0.47873217
0.025471864 0.047921643 0.47868344
0.026334058 0.047919352 0.47866055
0.027197601 0.047919583 0.47866285
0.028062871 0.047922749 0.47869447
0.028929869 0.04792859 0.47875282
0.029798655 0.047936969 0.47883651
0.030669227 0.047947668 0.47894338
0.031541552 0.047960442 0.47907099
0.032416284 0.047976103 0.47922742
0.033294749 0.047996324 0.47942942
0.03417496 0.048017982 0.47964576
0.035058226 0.048042752 0.47989318
0.035946302 0.048072763 0.48019296
0.036835931 0.048103392 0.48049891
0.037732549 0.048141524 0.48087981
0.038631178 0.048180457 0.4812687
0.039537549 0.04822712 0.48173481
0.040447444 0.048275981 0.48222286
0.041365422 0.048332229 0.48278472
0.042288996 0.048392564 0.48338741
0.04322391 0.048463173 0.48409271
0.044166464 0.048539381 0.48485395
0.045118559 0.048622914 0.48568833
0.046086971 0.048720509 0.48666322
0.047072493 0.048832212 0.48777899
0.048078492 0.048960667 0.4890621
0.049113303 0.049113303 0.49058679
0.050190832 0.0493025 0.49247664
0.051340044 0.049554303 0.49499187
0.0013479099 0.050771274 0.49817199
0.0022339784 0.050487909 0.49539158
0.0031145716 0.050278082 0.49333274
0.003990849 0.050107326 0.49165726
0.0048635555 0.049961977 0.4902311
0.0057331463 0.04983427 0.48897803
0.0066003944 0.04972297 0.48788592
0.0074655763 0.049624126 0.48691607
0.0083285728 0.049533091 0.48602283
0.0091903303 0.04945273 0.48523429
0.010050857 0.049380295 0.48452356
0.010909607 0.049311422 0.4838478
0.011768146 0.049251869 0.48326346
0.012624928 0.049193684 0.48269254
0.013482315 0.049145214 0.48221692
0.014338169 0.04909737 0.48174748
0.015194483 0.049056474 0.48134622
0.016049849 0.049017109 0.48095995
0.016906003 0.048984058 0.48063567
0.017761596 0.048952691 0.4803279
0.018617494 0.048925046 0.48005661
0.019474072 0.048901558 0.47982618
0.020330202 0.048878994 0.47960478
0.021187682 0.048861388 0.47943202
0.022045832 0.048846647 0.47928739
0.02290424 0.048833568 0.47915903
0.023763154 0.048822481 0.47905025
0.02462399 0.048815981 0.47898647
0.025485883 0.048811942 0.47894686
0.026348827 0.048810121 0.47892898
0.027213015 0.048810642 0.47893411
0.028078752 0.048813831 0.47896537
0.028945941 0.048819274 0.47901878
0.029814918 0.048827328 0.47909781
0.030685512 0.048837505 0.47919768
0.031559706 0.048852693 0.47934669
0.032435924 0.048870124 0.47951773
0.033314053 0.048889454 0.47970742
0.034195259 0.048912209 0.47993067
0.035080578 0.048939575 0.48019919
0.035968091 0.048968609 0.48048407
0.03686101 0.04900346 0.48082602
0.037757266 0.049041044 0.48119482
0.038658604 0.049083393 0.48161036
0.03956566 0.049130984 0.4820773
0.040477674 0.049182549 0.48258328
0.041397754 0.049241539 0.48316211
0.042325318 0.049306814 0.48380256
0.043259006 0.049376439 0.48448575
0.04420685 0.049459148 0.48529729
0.045165379 0.049550366 0.48619232
0.046136491 0.049651653 0.48718616
0.047128413 0.049771126 0.48835844
0.048142929 0.049909644 0.48971757
0.049188957 0.050075244 0.49134246
0.050282318 0.050282318 0.49337432
0.051490821 0.050595328 0.49644557
0.0013523177 0.051838845 0.49980104
0.0022388725 0.051494066 0.49647686
0.0031196822 0.051251922 0.49414226
0.003996396 0.051065061 0.49234065
0.0048696357 0.050909828 0.49084398
0.0057401168 0.050777953 0.48957253
0.0066079791 0.050661173 0.48844659
0.0074734106 0.050555427 0.48742703
0.0083369017 0.050460197 0.48650888
0.0091991173 0.050376117 0.48569825
0.010059339 0.050296694 0.48493248
0.010918987 0.05022734 0.48426381
0.011777556 0.050163664 0.48364988
0.012635369 0.050105773 0.48309171
0.013492309 0.050052118 0.4825744
0.014349015 0.050004143 0.48211187
0.015205265 0.049960159 0.48168778
0.016061403 0.049920578 0.48130617
0.016917098 0.049883753 0.48095113
0.017773667 0.049852971 0.48065436
0.018629801 0.049823884 0.48037392
0.019486276 0.049798261 0.48012689
0.020343745 0.049777251 0.47992429
0.021201083 0.049757645 0.47973526
0.022059083 0.049741067 0.47957546
0.022918569 0.049728971 0.47945881
0.023778621 0.049718935 0.47936204
0.024639443 0.049711157 0.47928706
0.025501264 0.049705852 0.47923592
0.026364351 0.049703285 0.47921115
0.027229011 0.049703751 0.47921565
0.028095443 0.04970732 0.47925007
0.028963629 0.04971369 0.4793115
0.029833755 0.049722925 0.47940052
0.030705867 0.049734857 0.47951555
0.031580035 0.049749367 0.47965547
0.032456044 0.049765937 0.47981521
0.033335835 0.049787287 0.48002106
0.034218948 0.049812391 0.48026311
0.035104088 0.049839139 0.48052099
0.03599387 0.049871024 0.4808284
0.03688778 0.049906995 0.48117521
0.037784964 0.049945641 0.48154783
0.038689066 0.049991492 0.48198989
0.039595962 0.050038852 0.48244652
0.040512688 0.050096333 0.48300073
0.041433122 0.050155886 0.48357487
0.042363551 0.050224826 0.48423958
0.043303352 0.050301872 0.4849824
0.04425193 0.050385859 0.48579216
0.045216035 0.050483923 0.48673764
0.04619363 0.050593022 0.48778951
0.047192883 0.050721325 0.48902652
0.048218843 0.05087309 0.49048978
0.049285367 0.051061414 0.49230549
0.05041841 0.05131077 0.49470964
0.051743262 0.051743262 0.49887946
0.0022455507 0.05254589 0.49795783
0.0031270431 0.052266292 0.49530819
0.0040041641 0.052054133 0.49329764
0.0048777582 0.051881608 0.49166268
0.0057483427 0.051735085 0.49027413
0.0066161943 0.051606312 0.48905382
0.0074819122 0.05149316 0.4879815
0.0083460193 0.051393908 0.48704091
0.0092084203 0.051304057 0.48618945
0.010069596 0.051223595 0.48542693
0.01092953 0.051150203 0.48473141
0.011787971 0.05108121 0.4840776
0.012646375 0.051021583 0.48351255
0.013503614 0.050965253 0.48297873
0.014360856 0.050915763 0.48250973
0.015217222 0.050868999 0.48206657
0.01607397 0.050828498 0.48168275
0.01693023 0.05079069 0.48132446
0.017786551 0.050756741 0.48100275
0.018643605 0.050727945 0.48072985
0.019500498 0.050701298 0.4804773
0.020357756 0.050677817 0.4802548
0.021216156 0.050658986 0.48007634
0.022074768 0.050642114 0.47991645
0.022933902 0.050627671 0.47977957
0.023794256 0.050616872 0.47967723
0.024656074 0.050609834 0.47961056
0.02551881 0.0506051 0.47956568
0.026382854 0.050603177 0.47954747
0.027248297 0.050603978 0.47955507
0.02811531 0.050607558 0.47958899
0.028983973 0.050613806 0.47964817
0.029854424 0.05062272 0.47973266
0.03072671 0.050634157 0.47984105
0.031602073 0.0506499 0.47999024
0.032480415 0.05066945 0.4801755
0.033360928 0.050691281 0.48038238
0.034243487 0.050715037 0.48060751
0.035131328 0.050745253 0.48089385
0.0360226 0.050778843 0.4812122
0.036916334 0.050814245 0.48154768
0.037817661 0.050858237 0.48196456
0.03872091 0.050902769 0.48238659
0.039633382 0.050957207 0.48290247
0.040548649 0.051012818 0.48342946
0.041475147 0.051079918 0.48406535
0.042406872 0.051150557 0.48473477
0.043350462 0.051232368 0.48551005
0.044305023 0.051323637 0.486375
0.045272838 0.051426426 0.48734909
0.046259731 0.051546559 0.48848754
0.047268916 0.051686574 0.4898144
0.048307952 0.051853489 0.49139619
0.049392454 0.052062318 0.49337518
0.050584588 0.052375194 0.49634022
0.0022546775 0.053661324 0.4999817
0.0031352183 0.053298712 0.4966031
0.0040120934 0.053048786 0.49427447
0.004885952 0.05285712 0.49248862
0.0057569696 0.052698411 0.49100989
0.006625792 0.052564614 0.48976326
0.0074922601 0.052445821 0.4886564
0.0083564771 0.052337933 0.4876512
0.0092192171 0.052242231 0.48675948
0.010080622 0.052156258 0.48595846
0.010940434 0.052076466 0.48521501
0.011800372 0.052009046 0.48458683
0.012658348 0.051942877 0.48397031
0.013516379 0.051885456 0.48343527
0.014373451 0.051831536 0.4829329
0.015231032 0.051785506 0.48250404
0.016087405 0.051740572 0.48208535
0.016944699 0.051703058 0.48173583
0.017801521 0.051667832 0.48140761
0.018658239 0.051635589 0.48110721
0.01951625 0.051609635 0.48086539
0.020374009 0.051585257 0.48063824
0.021232091 0.05156365 0.48043692
0.022091717 0.051547337 0.48028493
0.022951996 0.051533729 0.48015812
0.023812907 0.051522471 0.48005325
0.024674747 0.051513944 0.47997379
0.025537722 0.051508285 0.47992107
0.026402136 0.051505808 0.47989798
0.027268138 0.051506482 0.47990426
0.028135946 0.051510423 0.47994098
0.029005708 0.051517602 0.48000786
0.029877525 0.051527902 0.48010385
0.030751474 0.051541202 0.48022777
0.031627588 0.051557302 0.48037776
0.032505836 0.051575925 0.48055127
0.033387173 0.051598359 0.48076031
0.03427311 0.051626582 0.48102328
0.035161451 0.051656947 0.4813062
0.036052801 0.051690161 0.48161566
