# .PCD v0.7 - Point Cloud Data file format
VERSION 0.7
FIELDS x y z
SIZE 4 4 4
TYPE F F F
COUNT 1 1 1
WIDTH 1379
HEIGHT 1
VIEWPOINT 0 0 0 1 0 0 0
POINTS 1379
DATA ascii
-0.12604868 0.027219817 0.46431372
-0.12525637 0.027229646 0.46448138
-0.12446813 0.027240502 0.46466655
-0.12368485 0.027252592 0.46487281
-0.12290649 0.027265945 0.46510059
-0.12213264 0.027280487 0.46534863
-0.1213625 0.027296064 0.46561435
-0.12059565 0.027312603 0.46589646
-0.11983112 0.027329903 0.46619156
-0.119069 0.027348002 0.46650031
-0.11830868 0.027366776 0.46682054
-0.11755195 0.027386654 0.46715963
-0.11680079 0.027408129 0.46752593
-0.1160588 0.027432082 0.46793452
-0.11533029 0.027459592 0.46840379
-0.11461769 0.027491329 0.46894515
-0.11391791 0.027526632 0.46954736
-0.11322594 0.027564369 0.47019106
-0.11253477 0.027602868 0.47084779
-0.11184412 0.027642084 0.47151673
-0.11115602 0.027682535 0.47220674
-0.11047228 0.027724704 0.47292605
-0.10979483 0.027769119 0.47368369
-0.10912281 0.027815619 0.47447687
-0.10845382 0.027863629 0.47529581
-0.10778455 0.027912335 0.47612664
-0.10711686 0.02796223 0.47697777
-0.10645586 0.028014701 0.47787279
-0.10581388 0.028073072 0.47886848
-0.10521276 0.028143331 0.48006696
-0.10466489 0.028229119 0.48153034
-0.1041404 0.028322702 0.48312667
-0.10361459 0.028417503 0.48474377
-0.10313357 0.028526308 0.48659974
-0.10279746 0.028677404 0.48917714
-0.10281777 0.028931407 0.49350992
-0.16059044 0.029001506 0.47993833
-0.15871656 0.028818455 0.47690904
-0.15726082 0.028709741 0.47510996
-0.15586239 0.028610356 0.47346529
-0.15455244 0.028526209 0.47207275
-0.15330836 0.028453352 0.47086707
-0.1520931 0.028385064 0.46973696
-0.15092513 0.028324883 0.46874106
-0.14983927 0.028279522 0.4679904
-0.14881542 0.028245421 0.46742606
-0.14782673 0.028217636 0.46696627
-0.14685619 0.028193021 0.4665589
-0.14589654 0.028170224 0.46618167
-0.14494523 0.028148783 0.46582684
-0.14400312 0.02812889 0.46549761
-0.14307244 0.028111007 0.46520168
-0.14215162 0.028094864 0.46493453
-0.14124139 0.028080633 0.46469903
-0.14034285 0.02806857 0.46449941
-0.13945293 0.028058099 0.46432611
-0.13856985 0.028048882 0.46417359
-0.13769327 0.028040878 0.46404114
-0.1368226 0.028033987 0.46392709
-0.1359574 0.028028142 0.46383035
-0.13509834 0.028023494 0.46375346
-0.13424605 0.028020205 0.46369901
-0.13340172 0.028018543 0.46367154
-0.13256578 0.028018635 0.46367303
-0.13173729 0.028020313 0.4637008
-0.13091613 0.028023582 0.46375489
-0.13010058 0.028028099 0.46382967
-0.12928937 0.028033618 0.46392098
-0.12848206 0.028040059 0.46402758
-0.12767825 0.028047351 0.46414825
-0.12687804 0.028055539 0.46428376
-0.12608138 0.028064627 0.46443415
-0.12528865 0.028074715 0.4646011
-0.12450051 0.028085973 0.46478739
-0.12371779 0.028098617 0.46499664
-0.12293966 0.028112482 0.46522608
-0.12216576 0.028127512 0.46547481
-0.12139516 0.028143514 0.46573964
-0.12062778 0.028160494 0.46602061
-0.11986333 0.028178398 0.46631691
-0.11910083 0.028197017 0.46662503
-0.11834033 0.028216379 0.46694544
-0.11758399 0.028237017 0.46728697
-0.11683382 0.028259445 0.46765813
-0.11609355 0.028284611 0.46807462
-0.11536729 0.028313583 0.46855405
-0.11465671 0.028346861 0.46910477
-0.11395855 0.028383726 0.46971485
-0.11326676 0.028422745 0.47036055
-0.11257538 0.028462457 0.47101772
-0.11188512 0.028503051 0.47168952
-0.11119722 0.02854488 0.47238174
-0.11051467 0.028588738 0.47310752
-0.1098382 0.028634859 0.47387078
-0.10916696 0.028683085 0.47466886
-0.10849787 0.028732639 0.4754889
-0.107829 0.028783038 0.47632295
-0.10716154 0.028834632 0.47717676
-0.10650363 0.028889649 0.47808722
-0.10586622 0.02895117 0.47910532
-0.10527494 0.029026425 0.48035067
-0.10473618 0.029117526 0.48185831
-0.10421229 0.029214324 0.48346019
-0.10369023 0.029313272 0.48509765
-0.10322867 0.029431153 0.48704845
-0.10295097 0.029603926 0.48990762
-0.10305362 0.029890012 0.49464196
-0.15889391 0.029711869 0.47744194
-0.15741709 0.029596128 0.47558206
-0.15600339 0.029491052 0.47389361
-0.15467489 0.029401012 0.47244674
-0.15342274 0.029324569 0.47121838
-0.1522045 0.029253788 0.470081
-0.1510215 0.029189028 0.46904036
-0.14991601 0.029138604 0.4682301
-0.14888091 0.029101368 0.46763176
-0.14788669 0.029071743 0.46715569
-0.14691362 0.029045958 0.46674135
-0.1459527 0.029022295 0.46636114
-0.14500062 0.029000126 0.46600488
-0.14405836 0.02897967 0.46567619
-0.14312565 0.02896091 0.46537471
-0.1422033 0.028944034 0.46510354
-0.14129221 0.028929267 0.46486625
-0.14039125 0.028916407 0.4646596
-0.13949986 0.028905375 0.46448234
-0.13861647 0.028895881 0.46432978
-0.13773996 0.02888771 0.46419847
-0.13686983 0.02888079 0.46408728
-0.13600589 0.028875099 0.46399581
-0.13514835 0.0288707 0.46392512
-0.13429701 0.028867582 0.46387503
-0.13345309 0.028866028 0.46385005
-0.13261621 0.028865987 0.4638494
-0.1317863 0.028867474 0.4638733
-0.1309628 0.028870396 0.46392024
-0.1301447 0.028874548 0.46398696
-0.12933184 0.028879926 0.46407339
-0.12852289 0.028886251 0.46417502
-0.12771811 0.028893605 0.46429318
-0.12691703 0.028901899 0.46442646
-0.12611997 0.028911224 0.4645763
-0.12532727 0.028921679 0.4647443
-0.12453932 0.028933378 0.46493229
-0.12375651 0.028946437 0.46514216
-0.12297821 0.028960738 0.46537197
-0.12220379 0.028976155 0.46561971
-0.12143313 0.028992685 0.46588531
-0.12066576 0.029010234 0.46616733
-0.11990058 0.029028561 0.46646181
-0.11913733 0.029047618 0.46676803
-0.11837697 0.029067654 0.46709001
-0.11762103 0.029089071 0.46743414
-0.11687205 0.029112531 0.46781114
-0.11613426 0.029139141 0.46823871
-0.11541098 0.029169807 0.46873149
-0.11470272 0.029204752 0.46929303
-0.11400626 0.02924324 0.46991152
-0.11331488 0.02928362 0.47056037
-0.11262321 0.029324535 0.47121784
-0.11193262 0.029366352 0.47188979
-0.11124528 0.029409673 0.47258592
-0.11056371 0.029455196 0.47331744
-0.10988796 0.029502993 0.47408548
-0.109217 0.029552836 0.47488642
-0.10854862 0.029604169 0.47571129
-0.10787985 0.029656213 0.4765476
-0.10721393 0.029709885 0.47741005
-0.10655846 0.029767342 0.47833332
-0.1059281 0.029832812 0.47938538
-0.10534874 0.029913839 0.48068741
-0.10481896 0.030010406 0.48223913
-0.10429445 0.030110113 0.48384133
-0.10378104 0.030214733 0.48552248
-0.10334894 0.030345008 0.48761588
-0.10315936 0.030549338 0.49089926
-0.10334138 0.030868204 0.49602315
-0.1591167 0.03061595 0.47811136
-0.15759625 0.030488646 0.47612333
-0.15617166 0.030378599 0.47440478
-0.15482062 0.030281719 0.47289187
-0.15355398 0.030200366 0.47162142
-0.15233339 0.030127216 0.4704791
-0.15113817 0.030058293 0.46940276
-0.15001 0.030002002 0.46852368
-0.14895837 0.029960467 0.46787506
-0.14795539 0.029928297 0.46737269
-0.14697871 0.029901111 0.46694815
-0.14601685 0.029876646 0.46656609
-0.14506435 0.029853823 0.46620968
-0.14412069 0.029832562 0.46587765
-0.143187 0.029813131 0.4655742
-0.14226329 0.029795555 0.46529976
-0.14134985 0.029779937 0.46505585
-0.14044659 0.029766291 0.46484274
-0.13955326 0.029754598 0.46466014
-0.13866918 0.02974475 0.46450633
-0.13779251 0.029736377 0.46437559
-0.13692269 0.029729392 0.46426651
-0.13605922 0.029723708 0.46417773
-0.13520175 0.029719273 0.46410847
-0.13435142 0.029716356 0.46406293
-0.13350713 0.029714752 0.4640379
-0.13266949 0.029714618 0.46403578
-0.13183846 0.029715968 0.46405688
-0.13101342 0.029718701 0.46409956
-0.13019378 0.029722698 0.46416196
-0.12937908 0.029727878 0.46424288
-0.12856898 0.029734192 0.46434146
-0.12776291 0.029741529 0.46445605
-0.12696104 0.029749945 0.46458748
-0.12616362 0.029759526 0.46473709
-0.12537085 0.029770335 0.46490589
-0.12458326 0.02978253 0.46509632
-0.12380053 0.02979606 0.46530762
-0.1230223 0.029810863 0.4655388
-0.12224779 0.029826781 0.46578738
-0.12147672 0.029843761 0.46605253
-0.12070862 0.029861715 0.46633291
-0.11994285 0.029880499 0.46662626
-0.11917923 0.029900089 0.46693218
-0.11841853 0.029920695 0.46725398
-0.11766395 0.029943155 0.46760473
-0.11691681 0.029967846 0.46799031
-0.11618213 0.029996114 0.46843174
-0.11546229 0.030028654 0.4689399
-0.1147572 0.03006554 0.46951595
-0.1140619 0.030105555 0.47014084
-0.11336954 0.030146956 0.47078738
-0.11267734 0.030189024 0.47144431
-0.11198711 0.03023226 0.47211951
-0.11130036 0.030277109 0.47281986
-0.11062014 0.03032444 0.47355902
-0.10994599 0.030374184 0.47433585
-0.10927571 0.030425787 0.4751417
-0.10860694 0.030478628 0.4759669
-0.10793754 0.030532135 0.47680247
-0.10727303 0.030587891 0.47767317
-0.10662172 0.030648349 0.47861731
-0.10600077 0.030718589 0.47971421
-0.10543536 0.030806215 0.48108262
-0.10491352 0.03090813 0.48267418
-0.10439081 0.031011496 0.48428836
-0.10389048 0.031123308 0.48603448
-0.10350006 0.031270232 0.4883289
-0.10343862 0.031519923 0.49222821
-0.10381369 0.031908106 0.49829018
-0.15943314 0.031540975 0.4790622
-0.15779951 0.031387914 0.47673744
-0.15636452 0.031272903 0.47499061
-0.15498951 0.03116869 0.47340775
-0.15370543 0.03108171 0.47208664
-0.15247644 0.03100496 0.47092092
-0.15127636 0.030933263 0.46983194
-0.15012427 0.030870622 0.46888053
-0.14904992 0.030823356 0.46816263
-0.1480349 0.030787885 0.46762386
-0.14705229 0.030758787 0.46718192
-0.14608844 0.0307333 0.46679482
-0.14513557 0.030709846 0.46643856
-0.14419079 0.030687837 0.46610427
-0.1432562 0.030667752 0.46579921
-0.14233093 0.030649435 0.46552101
-0.14141531 0.030632991 0.46527126
-0.14051001 0.030618597 0.46505263
-0.13961467 0.030606218 0.46486461
-0.1387289 0.0305958 0.46470636
-0.13785122 0.030587049 0.46457347
-0.13698103 0.030579863 0.46446431
-0.13611746 0.030574074 0.46437639
-0.13526002 0.030569602 0.46430847
-0.13440947 0.030566642 0.4642635
-0.13356511 0.030565059 0.46423945
-0.13272689 0.030564867 0.46423656
-0.13189475 0.030566087 0.46425506
-0.13106845 0.03056868 0.46429446
-0.1302474 0.030572541 0.46435311
-0.12943122 0.0305776 0.46442994
-0.12862007 0.030583926 0.46452603
-0.12781313 0.030591341 0.46463865
-0.12701049 0.030599887 0.46476844
-0.12621321 0.030609846 0.46491972
-0.12542082 0.030621139 0.46509123
-0.12463353 0.03063383 0.46528399
-0.12385071 0.030647803 0.46549621
-0.12307179 0.030662939 0.46572611
-0.12229682 0.030679271 0.46597418
-0.12152556 0.030696768 0.46623993
-0.1207568 0.030715145 0.46651906
-0.11999022 0.030734338 0.46681055
-0.11922603 0.030754417 0.46711555
-0.11846638 0.030775962 0.46744278
-0.11771261 0.030799357 0.46779811
-0.11696769 0.030825419 0.46819395
-0.11623678 0.030855583 0.4686521
-0.11552137 0.030890331 0.46917987
-0.11481947 0.030929228 0.46977067
-0.11412516 0.030970769 0.47040161
-0.11343178 0.031013183 0.47104582
-0.11273917 0.031056451 0.47170299
-0.11204909 0.031101078 0.47238082
-0.11136381 0.031147731 0.47308943
-0.1106846 0.03119682 0.47383499
-0.11001036 0.031248078 0.47461355
-0.10934099 0.031301536 0.47542551
-0.10867187 0.031355917 0.47625145
-0.1080033 0.03141132 0.47709295
-0.10734107 0.031469468 0.47797614
-0.10669568 0.031533543 0.47894934
-0.10608906 0.031610209 0.48011377
-0.10553965 0.031705327 0.4815585
-0.10502198 0.031811636 0.48317319
-0.10450105 0.031918731 0.4847998
-0.10402148 0.032040372 0.48664737
-0.10369352 0.032211177 0.48924166
-0.10379092 0.032518186 0.49390468
-0.15803741 0.032296475 0.47745618
-0.15658218 0.03217442 0.47565177
-0.15518904 0.032063853 0.4740172
-0.15387756 0.031969022 0.47261527
-0.15263869 0.031888306 0.47142202
-0.15143584 0.031814251 0.47032723
-0.15026295 0.031745695 0.46931371
-0.14916076 0.03169138 0.46851075
-0.14812793 0.031651266 0.46791774
-0.14713632 0.031619549 0.46744886
-0.14616832 0.031592574 0.46705008
-0.14521451 0.031568374 0.46669227
-0.14426912 0.031545728 0.4663575
-0.14333344 0.031524949 0.4660503
-0.14240643 0.031505845 0.46576792
-0.14148897 0.031488642 0.46551359
-0.14058186 0.031473551 0.46529046
-0.13968454 0.031460483 0.46509725
-0.13879609 0.031449266 0.46493146
-0.137917 0.031440042 0.46479511
-0.1370458 0.031432521 0.46468392
-0.1361811 0.031426407 0.46459353
-0.13532357 0.031421881 0.46452659
-0.13447203 0.0314187 0.46447957
-0.1336274 0.031417102 0.46445593
-0.13278843 0.031416822 0.46445182
-0.13195539 0.031417951 0.46446848
-0.13112764 0.031420361 0.46450412
-0.13030586 0.031424243 0.46456152
-0.12948865 0.031429283 0.46463603
-0.12867658 0.031435646 0.46473008
-0.12786901 0.031443201 0.46484178
-0.12706643 0.031452086 0.46497315
-0.1262694 0.031462476 0.46512675
-0.12547727 0.031474233 0.46530053
-0.12468967 0.03148729 0.46549359
-0.12390671 0.031501707 0.46570671
-0.12312747 0.031517271 0.46593678
-0.12235209 0.031534042 0.46618477
-0.12157962 0.031551804 0.46644735
-0.12080992 0.031570535 0.46672425
-0.1200427 0.031590186 0.46701473
-0.11927838 0.03161088 0.46732065
-0.11851957 0.031633336 0.46765268
-0.11776756 0.031657945 0.46801648
-0.11702682 0.031685963 0.46843067
-0.11630093 0.031718437 0.46891072
-0.11558944 0.031755339 0.46945632
-0.11488998 0.03179612 0.47005919
-0.11419538 0.03183886 0.47069103
-0.11350098 0.031882297 0.47133321
-0.11280824 0.031926859 0.47199199
-0.11211847 0.031972945 0.4726733
-0.11143398 0.032021258 0.47338751
-0.11075658 0.032072369 0.47414312
-0.11008405 0.032125697 0.47493148
-0.10941427 0.032180667 0.47574416
-0.10874399 0.03223636 0.47656748
-0.10807618 0.032293681 0.47741488
-0.10741713 0.032354556 0.47831485
-0.10678101 0.032423384 0.47933236
-0.10619131 0.032507546 0.48057657
-0.10565798 0.032610487 0.48209843
-0.10514069 0.03272013 0.48371932
-0.10462627 0.032832511 0.48538071
-0.10418008 0.032968376 0.4873893
-0.10396467 0.033180214 0.49052098
-0.104216 0.033545922 0.49592745
-0.15833269 0.033219665 0.47834826
-0.15682492 0.033083614 0.47638917
-0.15541679 0.032967199 0.47471285
-0.15407743 0.032864161 0.47322917
-0.15281898 0.032777332 0.47197884
-0.15161076 0.03270036 0.47087052
-0.1504277 0.032627981 0.46982828
-0.14929618 0.032566022 0.46893609
-0.14823729 0.032519292 0.46826321
-0.14723215 0.032483883 0.46775332
-0.14625724 0.032454774 0.46733418
-0.14530079 0.032429453 0.46696955
-0.14435485 0.032406192 0.4666346
-0.1434184 0.032384798 0.46632656
-0.14249028 0.032365046 0.46604216
-0.14157151 0.032347199 0.46578515
-0.14066242 0.032331359 0.46555707
-0.13976263 0.032317482 0.46535724
-0.13887182 0.032305527 0.46518511
-0.13799043 0.032295633 0.46504259
-0.13711721 0.032287538 0.46492606
-0.136251 0.032281008 0.46483201
-0.13539286 0.032276317 0.46476448
-0.13454048 0.03227295 0.46471599
-0.13369454 0.032271098 0.46468931
-0.13285479 0.032270722 0.46468392
-0.13202085 0.032271765 0.46469891
-0.1311927 0.032274242 0.46473461
-0.1303698 0.032278053 0.46478948
-0.12955166 0.032283101 0.46486217
-0.12873934 0.032289673 0.46495679
-0.12793151 0.032297462 0.46506897
-0.12712918 0.032306757 0.46520278
-0.12633221 0.032317542 0.46535808
-0.12553981 0.032329649 0.46553245
-0.12475204 0.032343119 0.46572641
-0.12396839 0.032357849 0.46593851
-0.12318852 0.032373775 0.46616781
-0.12241244 0.032390922 0.46641472
-0.12163924 0.032409068 0.46667606
-0.12086835 0.032428093 0.46694997
-0.12010042 0.032448184 0.46723929
-0.11933701 0.032469787 0.46755037
-0.11857937 0.032493282 0.46788865
-0.1178306 0.032519557 0.46826702
-0.11709472 0.032549795 0.46870244
-0.11637414 0.03258476 0.46920592
-0.11566678 0.032623962 0.4697704
-0.11496866 0.03266637 0.47038108
-0.11427293 0.032710094 0.47101068
-0.11357769 0.032754615 0.47165176
-0.11288445 0.032800388 0.47231087
-0.11219591 0.032848231 0.47299978
-0.11151325 0.032898545 0.47372428
-0.11083674 0.032951463 0.47448626
-0.11016437 0.033006445 0.47527799
-0.10949428 0.03306298 0.47609207
-0.10882419 0.033120405 0.47691897
-0.108158 0.033179943 0.47777629
-0.10750394 0.033244189 0.47870138
-0.10688039 0.033318989 0.47977847
-0.10631123 0.033412099 0.48111925
-0.1057914 0.033522375 0.48270717
-0.10527249 0.033634778 0.48432571
-0.10477377 0.033755567 0.48606503
-0.1043838 0.033913724 0.48834237
-0.1043603 0.034194652 0.49238762
-0.15881595 0.034186538 0.47980827
-0.15709472 0.034001321 0.47720873
-0.15567221 0.033879075 0.47549298
-0.15430617 0.033767834 0.47393173
-0.15302192 0.033673346 0.47260562
-0.15180251 0.033592153 0.47146603
-0.15061584 0.033517327 0.47041586
-0.14946055 0.033448681 0.46945241
-0.14836879 0.033393547 0.46867859
-0.14734308 0.033352733 0.46810579
-0.14635767 0.033320624 0.46765512
-0.14539544 0.033293448 0.46727374
-0.14444764 0.033269279 0.46693453
-0.14351068 0.033247344 0.46662664
-0.1425817 0.033227004 0.4663412
-0.14166144 0.033208467 0.46608102
-0.14075066 0.033191949 0.46584916
-0.13984908 0.033177409 0.4656451
-0.13895655 0.033164855 0.46546894
-0.13807267 0.033154227 0.46531975
-0.13719708 0.033145472 0.46519688
-0.13632903 0.033138439 0.46509817
-0.13546887 0.033133253 0.4650254
-0.13461562 0.0331297 0.46497554
-0.13376856 0.033127636 0.46494654
-0.13292766 0.033127081 0.46493876
-0.13209291 0.03312806 0.46495253
-0.13126391 0.033130508 0.46498686
-0.13044004 0.033134289 0.46503991
-0.12962165 0.033139516 0.46511328
-0.12880903 0.033146299 0.46520847
-0.12800138 0.033154454 0.46532294
-0.12719876 0.033164032 0.46545738
-0.1264015 0.033175144 0.46561334
-0.12560867 0.033187576 0.4657878
-0.12482032 0.033201367 0.46598133
-0.12403608 0.033216443 0.46619293
-0.12325552 0.033232719 0.46642137
-0.12247811 0.033250071 0.46666491
-0.12170377 0.033268504 0.46692362
-0.12093195 0.03328789 0.46719572
-0.12016405 0.033308633 0.46748683
-0.11940178 0.033331241 0.46780413
-0.11864651 0.033356138 0.46815357
-0.11790194 0.03338442 0.4685505
-0.11717232 0.033417374 0.46901304
-0.1164569 0.033454891 0.46953958
-0.115753 0.03349629 0.47012061
-0.11505537 0.03354013 0.47073588
-0.11435799 0.033584688 0.47136128
-0.11366193 0.033630308 0.47200155
-0.1129692 0.033677608 0.47266543
-0.11228141 0.033727117 0.47336027
-0.11160053 0.033779472 0.47409508
-0.11092515 0.033834308 0.47486472
-0.11025354 0.033891164 0.47566268
-0.10958225 0.03394901 0.47647455
-0.10891207 0.034008119 0.47730413
-0.10824912 0.03407044 0.47817883
-0.10760289 0.034139071 0.47914204
-0.10699835 0.034222145 0.480308
-0.10645226 0.034325425 0.48175752
-0.10593826 0.03444083 0.48337725
-0.10542276 0.034557667 0.48501703
-0.10495227 0.034691337 0.48689309
-0.10465971 0.034886573 0.48963323
-0.10488454 0.035259061 0.4948611
-0.15741509 0.034933213 0.47818196
-0.15595382 0.034799613 0.4763532
-0.15456979 0.034681864 0.4747414
-0.15325189 0.034577724 0.47331586
-0.15201423 0.034490623 0.47212356
-0.15082301 0.034413137 0.47106293
-0.14965555 0.034340225 0.47006488
-0.14853242 0.034276713 0.46919549
-0.1474748 0.034227673 0.46852422
-0.14647125 0.034190696 0.46801803
-0.14549989 0.034160845 0.46760941
-0.14454873 0.034135416 0.46726134
-0.14360993 0.034112621 0.46694934
-0.14268063 0.034091834 0.46666476
-0.14175963 0.03407279 0.46640411
-0.14084725 0.034055602 0.46616882
-0.13994418 0.034040477 0.46596175
-0.13904957 0.034027237 0.46578056
-0.13816366 0.034015976 0.46562639
-0.13728529 0.034006447 0.46549597
-0.1364162 0.033999115 0.4653956
-0.13555337 0.033993259 0.46531546
-0.13469869 0.033989388 0.46526244
-0.1338505 0.03398712 0.46523139
-0.13300849 0.033986397 0.46522152
-0.13217255 0.033987228 0.46523288
-0.13134262 0.033989623 0.46526566
-0.13051799 0.03399343 0.46531779
-0.1296996 0.033998925 0.46539298
-0.12888639 0.034005854 0.46548784
-0.12807845 0.034014277 0.46560314
-0.12727533 0.034024101 0.46573761
-0.12647732 0.034035426 0.46589261
-0.12568386 0.034048136 0.46606663
-0.12489458 0.034062158 0.46625856
-0.12410937 0.034077488 0.46646839
-0.12332786 0.034094051 0.4666951
-0.12254923 0.034111641 0.4669359
-0.12177369 0.034130342 0.4671919
-0.12100156 0.034150265 0.46746463
-0.12023421 0.034171827 0.46775976
-0.11947422 0.034195799 0.46808791
-0.11872283 0.034222595 0.46845472
-0.11798441 0.034253538 0.46887827
-0.11726099 0.034289312 0.46936795
-0.11655076 0.034329496 0.46991801
-0.11584867 0.03437268 0.47050914
-0.11514939 0.034417342 0.47112051
-0.11445077 0.034462873 0.4717437
-0.11375435 0.034509748 0.47238538
-0.11306222 0.034558643 0.47305465
-0.11237608 0.034610122 0.47375935
-0.111697 0.034664586 0.47450489
-0.11102202 0.034721173 0.47527945
-0.11035 0.034779571 0.47607884
-0.10967789 0.034838859 0.47689039
-0.10900921 0.034900181 0.4777298
-0.10835037 0.034965657 0.47862607
-0.10771779 0.035040725 0.47965366
-0.10713672 0.035133902 0.48092911
-0.10661224 0.035247311 0.48248148
-0.10609796 0.035365984 0.48410594
-0.10559323 0.035489839 0.48580131
-0.10517666 0.035645645 0.48793408
-0.10508597 0.035915457 0.49162737
-0.10575369 0.036451269 0.49896184
-0.15790439 0.035907026 0.47966829
-0.15626243 0.035729423 0.47729579
-0.15486482 0.035606038 0.47564751
-0.15351802 0.035493024 0.47413781
-0.15224902 0.035396829 0.4728528
-0.15104429 0.035314582 0.47175407
-0.14987528 0.035239797 0.47075504
-0.14873022 0.035169825 0.46982029
-0.14763759 0.03511152 0.46904144
-0.14660648 0.035067253 0.4684501
-0.14561987 0.035033189 0.46799502
-0.14465971 0.035005122 0.4676201
-0.14371695 0.03498096 0.46729732
-0.14278626 0.034959469 0.46701023
-0.14186485 0.034940008 0.46675026
-0.14095172 0.034922369 0.46651462
-0.14004692 0.034906588 0.46630386
-0.13915071 0.034892775 0.46611932
-0.13826264 0.03488085 0.46596
-0.13738354 0.034871049 0.46582907
-0.1365117 0.034862988 0.4657214
-0.13564765 0.03485683 0.46563911
-0.13479048 0.034852367 0.46557951
-0.13394059 0.034849748 0.46554452
-0.13309745 0.034848861 0.46553269
-0.13226032 0.034849547 0.46554184
-0.13142927 0.034851849 0.4655726
-0.13060446 0.03485585 0.46562606
-0.12978531 0.034861427 0.46570054
-0.12897076 0.034868315 0.46579257
-0.12816253 0.034877017 0.4659088
-0.12735856 0.034886997 0.46604213
-0.12655959 0.03489849 0.46619567
-0.12576528 0.034911431 0.46636853
-0.12497494 0.034925658 0.46655858
-0.12418845 0.034941155 0.46676561
-0.12340531 0.034957815 0.46698818
-0.12262534 0.034975614 0.46722591
-0.12184935 0.034994796 0.46748218
-0.12107769 0.035015501 0.46775874
-0.1203125 0.035038374 0.46806434
-0.11955566 0.035064027 0.46840701
-0.11881039 0.035093457 0.46880016
-0.11807907 0.035127468 0.46925446
-0.11736185 0.035166185 0.46977171
-0.11665494 0.035208583 0.47033805
-0.11595244 0.03525294 0.47093061
-0.11525115 0.035298325 0.47153687
-0.11455145 0.035344869 0.47215867
-0.11385535 0.035393238 0.47280478
-0.11316441 0.035443947 0.47348222
-0.11248036 0.035497606 0.474199
-0.11180193 0.035553873 0.47495064
-0.11112792 0.035612423 0.4757328
-0.11045426 0.035672002 0.47652867
-0.10978187 0.035732921 0.47734252
-0.1091164 0.035797078 0.47819957
-0.10846635 0.035867359 0.4791384
-0.10785372 0.035951242 0.48025894
-0.10730024 0.036056355 0.48166314
-0.10678826 0.036177248 0.4832781
-0.10627349 0.036299173 0.48490685
-0.10579545 0.036435775 0.48673168
-0.1054824 0.036631964 0.48935246
-0.10573609 0.037029941 0.49466887
-0.15663326 0.036677208 0.47842848
-0.15518367 0.036539093 0.47662684
-0.15382062 0.036419924 0.47507238
-0.15251651 0.036313456 0.47368357
-0.15128794 0.036223873 0.47251505
-0.1501105 0.036145587 0.47149384
-0.14896083 0.036073137 0.47054878
-0.14783941 0.036006734 0.4696826
-0.14677224 0.035952855 0.46897978
-0.14575908 0.035911657 0.46844241
-0.14478497 0.035879657 0.46802497
-0.14383449 0.03585317 0.46767947
-0.1428998 0.035830334 0.4673816
-0.14197643 0.035810079 0.4671174
-0.14106262 0.035792008 0.46688166
-0.14015704 0.035775822 0.46667054
-0.13925937 0.035761468 0.46648329
-0.13837031 0.035749167 0.46632281
-0.13748908 0.035738751 0.46618697
-0.13661551 0.035730213 0.46607557
-0.13574971 0.035723608 0.46598944
-0.13489142 0.03571891 0.46592817
-0.13403974 0.035715923 0.46588916
-0.13319512 0.035714779 0.46587428
-0.13235672 0.035715308 0.46588114
-0.13152488 0.035717618 0.4659113
-0.13069874 0.035721522 0.4659622
-0.12987803 0.035726964 0.46603322
-0.12906289 0.035734024 0.46612531
-0.1282533 0.035742719 0.46623874
-0.12744839 0.035752848 0.46637085
-0.12664796 0.035764378 0.46652123
-0.12585242 0.035777442 0.46669167
-0.12506093 0.035791848 0.46687958
-0.12427272 0.035807393 0.46708235
-0.12348826 0.035824239 0.46730211
-0.1227077 0.035842456 0.46753973
-0.12193172 0.035862271 0.4677982
-0.12116203 0.035884224 0.46808457
-0.12040054 0.035908934 0.46840686
-0.11964875 0.035936903 0.46877173
-0.11891127 0.0359696 0.46919823
-0.1181872 0.036006853 0.46968418
-0.11747412 0.036048017 0.4702211
-0.11676807 0.03609195 0.47079417
-0.1160636 0.036137018 0.47138208
-0.11536079 0.036183272 0.47198543
-0.11466067 0.036231067 0.47260889
-0.11396537 0.036281109 0.47326165
-0.11327681 0.036334071 0.4739525
-0.11259422 0.036389768 0.47467902
-0.11191693 0.036448043 0.47543916
-0.11124185 0.036507946 0.47622055
-0.11056718 0.03656891 0.47701582
-0.10989568 0.036631893 0.47783738
-0.10923497 0.036699496 0.4787192
-0.10859902 0.036776561 0.47972447
-0.10801546 0.036872745 0.48097911
-0.10749095 0.03699081 0.48251921
-0.10697846 0.037114974 0.48413885
-0.10647462 0.037244208 0.48582461
-0.10605844 0.037406504 0.48794162
-0.10598556 0.037693609 0.4916867
-0.15731034 0.037702478 0.48049659
-0.15553765 0.037484143 0.47771406
-0.15415564 0.037358053 0.47610709
-0.15282559 0.037243214 0.47464353
-0.15156062 0.037143026 0.47336671
-0.15036368 0.037058473 0.47228912
-0.14920907 0.036983442 0.47133291
-0.14807782 0.03691338 0.47044
-0.1469775 0.036850266 0.46963567
-0.14593051 0.036799867 0.46899334
-0.14493079 0.03676087 0.46849635
-0.1439666 0.036730483 0.46810907
-0.14302374 0.036705207 0.46778697
-0.14209624 0.036683597 0.46751153
-0.14118044 0.036664773 0.46727163
-0.14027365 0.036648069 0.46705875
-0.1393754 0.036633417 0.46687201
-0.13848482 0.036620606 0.46670875
-0.13760211 0.036609735 0.4665702
-0.13672717 0.03660081 0.46645647
-0.13585994 0.036593851 0.46636778
-0.13499951 0.036588654 0.46630156
-0.13414676 0.03658548 0.46626109
-0.13330041 0.036584023 0.46624255
-0.13246086 0.036584429 0.46624771
-0.13162716 0.036586463 0.46627361
-0.13079962 0.036590248 0.46632186
-0.12997796 0.036595736 0.4663918
-0.12916169 0.036602825 0.46648213
-0.12835045 0.036611438 0.46659192
-0.12754442 0.036621664 0.46672225
-0.12674254 0.036633227 0.46686962
-0.12594503 0.036646213 0.46703508
-0.1251518 0.036660627 0.46721879
-0.12436236 0.036676358 0.46741927
-0.12357737 0.036693621 0.4676393
-0.12279693 0.036712483 0.46787968
-0.12202303 0.036733575 0.4681485
-0.12125696 0.036757339 0.46845132
-0.12050016 0.036784261 0.46879444
-0.11975715 0.0368158 0.46919641
-0.119027 0.036851775 0.46965486
-0.1183084 0.036891866 0.47016582
-0.11759768 0.036935013 0.47071567
-0.11688938 0.036979549 0.47128329
-0.11618294 0.037025332 0.47186676
-0.11547896 0.037072584 0.47246894
-0.11477942 0.03712197 0.47309834
-0.11408571 0.037173994 0.47376138
-0.11339901 0.037229106 0.47446376
-0.11271805 0.03728696 0.47520107
-0.11203987 0.037346624 0.47596145
-0.11136368 0.037407875 0.47674206
-0.11068808 0.037470285 0.47753742
-0.11002093 0.03753655 0.47838196
-0.1093698 0.03760938 0.4793101
-0.10875838 0.037697125 0.4804284
-0.10820932 0.037808076 0.48184237
-0.10769911 0.037934504 0.48345363
-0.10718696 0.038062308 0.48508242
-0.10671636 0.038207091 0.4869276
-0.10642912 0.038420469 0.489647
-0.10684207 0.038892303 0.49566022
-0.15599142 0.038457718 0.47910774
-0.15451299 0.038305447 0.47721073
-0.15317021 0.038185295 0.47571385
-0.15187314 0.038075238 0.47434279
-0.15064333 0.037980895 0.47316748
-0.14947329 0.037900634 0.47216758
-0.14833821 0.037828371 0.47126728
-0.14722605 0.037761148 0.47042984
-0.14614536 0.037701268 0.46968383
-0.14511138 0.037652809 0.46908015
-0.14412192 0.037615396 0.46861407
-0.14316426 0.037585899 0.46824658
-0.14222814 0.037561733 0.46794552
-0.14130662 0.037541162 0.46768925
-0.14039715 0.037523564 0.46746999
-0.13949746 0.03750838 0.46728083
-0.13860574 0.03749517 0.46711627
-0.13772184 0.037483927 0.4669762
-0.13684563 0.037474651 0.46686062
-0.13597687 0.037467308 0.46676919
-0.13511539 0.037461895 0.46670175
-0.13426061 0.037458289 0.46665683
-0.13341288 0.037456613 0.46663591
-0.13257158 0.037456732 0.4666374
-0.13173653 0.037458628 0.46666104
-0.13090774 0.037462343 0.46670732
-0.13008438 0.03746767 0.46677369
-0.12926622 0.037474573 0.46685967
-0.12845358 0.037483178 0.46696687
-0.12764561 0.037493266 0.46709254
-0.12684236 0.037504885 0.46723732
-0.12604333 0.037517916 0.46739966
-0.12524882 0.037532475 0.46758103
-0.12445921 0.037548713 0.4677833
-0.12367476 0.037566736 0.46800783
-0.12289663 0.037586942 0.46825957
-0.12212624 0.037609808 0.46854445
-0.12136538 0.037635952 0.46887016
-0.12061741 0.037666492 0.46925059
-0.11988182 0.037701346 0.46968484
-0.11915755 0.037740294 0.47017002
-0.11844175 0.03778249 0.47069573
-0.11772962 0.037826486 0.4712438
-0.11701898 0.037871595 0.47180581
-0.11631099 0.037918236 0.47238684
-0.11560672 0.03796678 0.47299162
-0.11490849 0.038018052 0.47363034
-0.11421712 0.038072374 0.47430709
-0.11353227 0.038129706 0.47502133
-0.11285099 0.038189121 0.47576153
-0.11217231 0.038250331 0.47652408
-0.11149413 0.038312655 0.47730052
-0.11082053 0.038377538 0.47810885
-0.11016028 0.038448095 0.47898787
-0.10952892 0.038529936 0.48000744
-0.10895268 0.038632624 0.4812867
-0.10843375 0.038757447 0.48284176
-0.10792185 0.038886823 0.48445353
-0.10742387 0.039023366 0.48615459
-0.10703835 0.039203346 0.48839679
-0.10714907 0.039569575 0.49295929
-0.15493289 0.039272681 0.47850761
-0.15354334 0.039138496 0.47687265
-0.1522278 0.039021775 0.47545052
-0.15096277 0.038916748 0.47417083
-0.14976217 0.038827229 0.4730801
-0.14861314 0.038750131 0.47214073
-0.14749762 0.038680933 0.47129759
-0.14640358 0.038616598 0.4705137
-0.14533733 0.038558882 0.46981052
-0.14431472 0.038512141 0.46924099
-0.14333071 0.038475204 0.46879095
-0.14237893 0.038446534 0.46844164
-0.1414474 0.03842302 0.46815515
-0.14053105 0.038403381 0.46791583
-0.13962707 0.038386896 0.467715
-0.13873319 0.038373008 0.46754578
-0.13784781 0.038361318 0.46740332
-0.13697019 0.038351655 0.46728557
-0.13609999 0.038343962 0.46719185
-0.13523692 0.038338192 0.46712157
-0.13438098 0.038334385 0.46707517
-0.13353187 0.038332496 0.46705213
-0.13268892 0.038332358 0.46705046
-0.13185211 0.038333997 0.46707046
-0.13102104 0.038337346 0.46711123
-0.13019639 0.038342625 0.46717557
-0.12937661 0.038349416 0.46725833
-0.12856187 0.038357805 0.46736053
-0.12775247 0.038367905 0.46748358
-0.12694794 0.03837961 0.46762621
-0.1261481 0.038392901 0.46778813
-0.12535369 0.038408034 0.46797252
-0.12456511 0.03842517 0.46818131
-0.123783 0.038444549 0.46841744
-0.12300889 0.038466696 0.4686873
-0.12224502 0.038492378 0.46900019
-0.12149221 0.038521923 0.46936017
-0.1207528 0.038556155 0.46977729
-0.12002341 0.038594101 0.47023961
-0.11930221 0.038635235 0.47074082
-0.11858474 0.038678177 0.471264
-0.11786933 0.038722418 0.47180304
-0.11715628 0.038768079 0.47235939
-0.11644861 0.038816206 0.47294578
-0.11574563 0.038866613 0.47355995
-0.11504953 0.038920101 0.47421166
-0.11436027 0.038976721 0.47490156
-0.11367565 0.03903579 0.47562125
-0.11299323 0.039096519 0.47636119
-0.11231262 0.039158806 0.47712013
-0.11163447 0.039222922 0.47790131
-0.11096754 0.039292008 0.47874308
-0.11032157 0.039369658 0.47968918
-0.10972098 0.039464861 0.48084915
-0.10918587 0.039585318 0.48231682
-0.10867716 0.039717354 0.48392558
-0.10817051 0.039852291 0.48556972
-0.10772647 0.040012691 0.48752403
-0.10756719 0.040282365 0.4908098
-0.15576978 0.040352616 0.48109233
-0.15395489 0.040105898 0.47815087
-0.15261413 0.039980602 0.47665709
-0.15132689 0.039867993 0.47531453
-0.15008976 0.039767373 0.47411492
-0.14891298 0.039681681 0.4730933
-0.14778426 0.039607886 0.47221351
-0.14668654 0.039541591 0.47142309
-0.14560978 0.039480202 0.4706912
-0.14455795 0.039424896 0.47003186
-0.14354219 0.039378829 0.46948263
-0.14256181 0.039341982 0.46904331
-0.14161159 0.039313067 0.46869859
-0.14068292 0.039289828 0.46842152
-0.13977098 0.039271001 0.46819708
-0.13887148 0.039255463 0.46801183
-0.13798255 0.039242744 0.46786019
-0.13710195 0.039232247 0.46773505
-0.13622984 0.03922407 0.46763757
-0.1353645 0.039217751 0.46756223
-0.13450697 0.039213631 0.46751308
-0.13365604 0.039211392 0.46748641
-0.13281167 0.039211065 0.46748251
-0.13197295 0.039212413 0.46749857
-0.13114084 0.039215751 0.46753839
-0.13031386 0.039220676 0.46759707
-0.1294928 0.03922746 0.46767798
-0.12867713 0.039235976 0.46777952
-0.12786694 0.039246287 0.46790242
-0.12706174 0.039258279 0.46804541
-0.12626307 0.039272457 0.46821445
-0.12547044 0.039288726 0.46840838
-0.12468472 0.039307386 0.46863088
-0.12390752 0.039329007 0.46888864
-0.12314015 0.039354067 0.46918741
-0.12238532 0.039383508 0.46953842
-0.12164044 0.039416589 0.46993282
-0.12090616 0.039453588 0.47037393
-0.12017944 0.039493598 0.47085091
-0.11945631 0.039535362 0.47134885
-0.11873587 0.039578624 0.47186461
-0.11801837 0.039623499 0.47239962
-0.11730511 0.03967046 0.47295949
-0.11659761 0.039720066 0.47355092
-0.11589683 0.039772712 0.47417858
-0.11520285 0.039828498 0.47484365
-0.11451387 0.039886855 0.47553942
-0.1138288 0.039947465 0.47626203
-0.11314467 0.040009331 0.47699961
-0.11246279 0.040072948 0.47775805
-0.11179021 0.040140886 0.47856802
-0.11113297 0.040215436 0.47945681
-0.11051661 0.040306058 0.48053724
-0.10996097 0.040420435 0.48190087
-0.10945118 0.040553626 0.4834888
-0.10893859 0.040687907 0.48508972
-0.10846347 0.040838476 0.48688483
-0.10817148 0.04106101 0.48953792
-0.10881481 0.041645177 0.49650249
-0.15455975 0.041129347 0.48002943
-0.15303245 0.040952343 0.47796363
-0.15172665 0.040832952 0.47657016
-0.15046567 0.040724326 0.47530237
-0.14925207 0.040627357 0.4741706
-0.14809527 0.040544812 0.47320724
-0.14698455 0.040474005 0.47238082
-0.14590301 0.040410455 0.4716391
-0.144844 0.04035243 0.4709619
-0.14380427 0.040299129 0.4703398
-0.14279445 0.040253628 0.46980876
-0.14181633 0.040216569 0.46937624
-0.14086641 0.040187113 0.46903244
-0.13993926 0.040163837 0.46876079
-0.1390291 0.040145181 0.46854302
-0.13813245 0.04013022 0.46836844
-0.1372467 0.040118266 0.46822891
-0.13637032 0.040108919 0.4681198
-0.13550226 0.040101916 0.46803808
-0.13464211 0.040097181 0.4679828
-0.13378887 0.040094454 0.467951
-0.13294248 0.040093761 0.46794292
-0.13210244 0.04009499 0.46795726
-0.13126862 0.040098131 0.46799392
-0.13044073 0.040103134 0.4680523
-0.12961864 0.040110007 0.4681325
-0.1288031 0.040119 0.46823746
-0.1279929 0.040129788 0.46836337
-0.12718938 0.040142827 0.46851557
-0.12639306 0.040158331 0.4686965
-0.12560423 0.040176436 0.46890783
-0.12482451 0.040197723 0.46915627
-0.1240548 0.040222548 0.469446
-0.12329583 0.040251214 0.46978059
-0.12254746 0.040283769 0.47016051
-0.12180802 0.04031973 0.47058022
-0.12107486 0.04035829 0.47103027
-0.12034542 0.040398639 0.4715012
-0.11961901 0.040440589 0.47199082
-0.11889614 0.04048435 0.47250155
-0.11817761 0.040530227 0.47303697
-0.11746538 0.04057895 0.47360563
-0.11675938 0.040630553 0.47420794
-0.11606101 0.040685594 0.4748503
-0.11536825 0.040743433 0.47552538
-0.11467846 0.040803198 0.47622287
-0.11399153 0.040864889 0.4769429
-0.11330584 0.040927969 0.4776791
-0.11262706 0.040994525 0.4784559
-0.11196397 0.041067865 0.47931188
-0.1113318 0.041153777 0.48031458
-0.11075923 0.041263241 0.48159218
-0.1102441 0.041396003 0.48314166
-0.10973199 0.041532028 0.48472923
-0.10924003 0.041677922 0.48643199
-0.10887953 0.041876741 0.48875245
-0.10929348 0.042379104 0.49461564
-0.15359369 0.041967854 0.47971654
-0.15215442 0.041810136 0.47791377
-0.15087704 0.041695368 0.47660187
-0.14964001 0.041590489 0.47540304
-0.14844815 0.041497033 0.47433481
-0.14730804 0.04141704 0.47342044
-0.14621143 0.04134842 0.47263607
-0.14514554 0.041287735 0.47194239
-0.14410199 0.041232724 0.4713136
-0.14307807 0.041182708 0.4707419
-0.14207497 0.041138124 0.47023228
-0.14109878 0.041100848 0.46980616
-0.14014821 0.041070621 0.46946067
-0.13921995 0.041046612 0.46918625
-0.13830914 0.041027479 0.46896753
-0.1374139 0.041012764 0.46879932
-0.13653083 0.041001517 0.46867079
-0.13565664 0.040992819 0.46857134
-0.13479282 0.040987156 0.46850663
-0.13393654 0.040983733 0.4684675
-0.13308729 0.040982436 0.46845266
-0.13224582 0.040983528 0.46846515
-0.13141046 0.040986545 0.46849963
-0.13058183 0.040991709 0.46855864
-0.12976052 0.040999252 0.46864489
-0.12894534 0.041008845 0.46875453
-0.12813802 0.041021083 0.46889439
-0.12733759 0.041035701 0.46906149
-0.12654629 0.041053478 0.46926472
-0.12576392 0.041074414 0.46950403
-0.12499171 0.041098971 0.46978471
-0.12422858 0.041126866 0.47010359
-0.12347588 0.041158628 0.47046661
-0.12272978 0.041193038 0.47085997
-0.12198983 0.041230012 0.4712826
-0.12125267 0.041268453 0.47172201
-0.1205195 0.041308802 0.47218323
-0.11979093 0.041351318 0.47266921
-0.11906719 0.041396119 0.47318131
-0.11834961 0.041443724 0.47372547
-0.11763944 0.041494641 0.47430745
-0.11693653 0.041548878 0.47492743
-0.11623843 0.04160564 0.47557622
-0.11554461 0.041664783 0.47625229
-0.11485281 0.04172555 0.47694689
-0.11416332 0.041788083 0.47766167
-0.1134798 0.041853767 0.47841248
-0.1128104 0.041925702 0.47923473
-0.11216941 0.042009391 0.48019135
-0.11158373 0.04211526 0.4814015
-0.11106046 0.042246524 0.48290193
-0.1105482 0.042384092 0.48447439
-0.11004715 0.042528179 0.48612139
-0.10964632 0.042713627 0.48824117
-0.10985713 0.043142278 0.49314088
-0.15271483 0.042829372 0.47967401
-0.15131748 0.042679287 0.47799313
-0.15006292 0.042567991 0.47674665
-0.1488506 0.042467464 0.47562075
-0.14767697 0.042376872 0.47460616
-0.14655107 0.042298999 0.47373402
-0.14546683 0.042232305 0.47298709
-0.14441372 0.042173918 0.47233316
-0.14338434 0.042121809 0.47174954
-0.14237595 0.042075276 0.47122842
-0.14138412 0.042033117 0.47075623
-0.14041269 0.041996546 0.47034663
-0.13946244 0.041965902 0.47000346
-0.13853343 0.041941311 0.46972805
-0.13762213 0.041921817 0.46950972
-0.13672622 0.041906796 0.46934149
-0.13584341 0.041895632 0.46921644
-0.13497187 0.041887823 0.469129
-0.13410971 0.041882839 0.46907318
-0.13325733 0.041880876 0.46905118
-0.13241342 0.041881561 0.46905884
-0.13157703 0.04188465 0.46909344
-0.13074918 0.041890517 0.46915916
-0.12992871 0.041898832 0.46925229
-0.12911633 0.041909888 0.46937612
-0.12831241 0.041923855 0.46953255
-0.127518 0.041941136 0.46972609
-0.12673214 0.041961476 0.46995389
-0.12595527 0.041985091 0.47021836
-0.12518704 0.042011924 0.47051886
-0.12442707 0.042041913 0.47085473
-0.12367327 0.042074412 0.47121871
-0.12292431 0.042109016 0.47160628
-0.12217995 0.042145696 0.47201708
-0.12143978 0.042184349 0.47244996
-0.12070487 0.042225379 0.47290951
-0.11997543 0.042268921 0.47339717
-0.11925256 0.042315423 0.47391796
-0.11853725 0.042365301 0.47447658
-0.11782935 0.042418566 0.47507313
-0.11712641 0.042474411 0.47569859
-0.11642688 0.042532329 0.47634721
-0.11573142 0.042592604 0.47702229
-0.11503718 0.042654235 0.47771254
-0.11434915 0.042719115 0.47843918
-0.11367556 0.042790417 0.47923774
-0.11302719 0.04287238 0.48015568
-0.11243244 0.042976107 0.4813174
-0.11190081 0.043105759 0.48276943
-0.11139026 0.043245628 0.48433593
-0.11088435 0.043389525 0.48594755
-0.11046155 0.043568499 0.48795196
-0.11053887 0.043949191 0.49221557
-0.15190165 0.043709591 0.47983846
-0.15052119 0.043560572 0.47820255
-0.14928618 0.043452173 0.47701254
-0.14809547 0.043355487 0.47595114
-0.14693905 0.043267772 0.47498819
-0.14582328 0.04319106 0.47414607
-0.14474945 0.043125942 0.47343123
-0.1437071 0.043069486 0.47281146
-0.14269042 0.043020096 0.47226927
-0.14169523 0.042976633 0.47179213
-0.140717 0.042937819 0.47136602
-0.13975561 0.042903695 0.47099143
-0.13881056 0.04287421 0.47066772
-0.13788404 0.042850114 0.47040322
-0.13697363 0.042830765 0.47019082
-0.1360787 0.042816039 0.47002915
-0.13519727 0.042805403 0.46991238
-0.13432822 0.042798579 0.46983746
-0.13346989 0.042795107 0.46979937
-0.13262244 0.042795096 0.46979925
-0.13178383 0.042797964 0.46983072
-0.13095507 0.042804085 0.4698979
-0.13013609 0.042813502 0.47000128
-0.12932536 0.042825773 0.47013602
-0.12852433 0.042841446 0.47030807
-0.12773198 0.042860232 0.4705143
-0.12694819 0.042882167 0.4707551
-0.12617239 0.042907111 0.47102892
-0.12540235 0.042934366 0.47132811
-0.1246395 0.04296447 0.47165859
-0.12388112 0.042996537 0.47201064
-0.12312755 0.043030735 0.47238606
-0.12238039 0.043067664 0.47279146
-0.12163866 0.043107033 0.47322366
-0.12090378 0.043149408 0.47368881
-0.12017561 0.043194793 0.47418705
-0.11945539 0.043243706 0.47472402
-0.11874156 0.043295659 0.47529435
-0.11803287 0.043350253 0.47589368
-0.11732809 0.043407097 0.47651771
-0.11662713 0.043466199 0.4771665
-0.11592852 0.043527067 0.4778347
-0.11523613 0.043591198 0.47853872
-0.11455817 0.043661792 0.47931373
-0.11390679 0.043743674 0.4802126
-0.1133078 0.04384708 0.4813478
-0.11277188 0.043976683 0.48277053
-0.11226021 0.044117823 0.48431998
-0.1117507 0.04426204 0.48590317
-0.11132026 0.044440106 0.48785794
-0.11136818 0.044813491 0.49195692
-0.15116046 0.044611827 0.48023352
-0.14976291 0.044454124 0.47853586
-0.1485415 0.044347171 0.47738457
-0.1473728 0.044254806 0.47639027
-0.14623198 0.044169776 0.47547495
-0.14512841 0.044095062 0.47467068
-0.14406121 0.044030573 0.47397649
-0.14302661 0.043975346 0.47338197
-0.14201848 0.04392764 0.47286841
-0.14103442 0.043886848 0.47242931
-0.14006767 0.04385097 0.4720431
-0.13911779 0.043819975 0.47170946
-0.13818413 0.043793742 0.47142705
-0.13726601 0.043772135 0.47119445
-0.13636108 0.043754488 0.47100449
-0.1354706 0.04374129 0.47086242
-0.13459326 0.043732196 0.47076455
-0.13372906 0.043727279 0.47071159
-0.13287617 0.043726023 0.47069809
-0.13203427 0.043728393 0.4707236
-0.13120261 0.043734204 0.47078615
-0.13038133 0.043743577 0.47088704
-0.12956943 0.043756235 0.47102329
-0.1287659 0.043771904 0.47119197
-0.12797104 0.043790754 0.4713949
-0.12718336 0.043812327 0.47162712
-0.12640253 0.043836564 0.47188804
-0.12562776 0.043863252 0.4721753
-0.12486012 0.043892808 0.47249347
-0.1240989 0.043925039 0.47284043
-0.1233433 0.043959722 0.47321379
-0.12259463 0.043997377 0.47361913
-0.1218536 0.044038322 0.47405988
-0.12112025 0.044082638 0.47453693
-0.12039415 0.04413024 0.47504935
-0.11967438 0.044180866 0.47559434
-0.11895979 0.044234145 0.47616789
-0.11824923 0.044289712 0.47676602
-0.11754166 0.044347223 0.4773851
-0.11683814 0.044407114 0.47802985
-0.11614277 0.044471025 0.4787178
-0.11546145 0.044541307 0.47947437
-0.11480986 0.044624213 0.48036683
-0.11420997 0.044728622 0.48149076
-0.11367629 0.044860758 0.48291317
-0.11316025 0.045001954 0.48443311
-0.11264797 0.045146849 0.48599288
-0.1122219 0.045328848 0.48795202
-0.11242191 0.045768604 0.49268588
-0.15055068 0.045555681 0.48105299
-0.14904936 0.045362849 0.47901675
-0.14783357 0.045255177 0.47787976
-0.14667873 0.045165006 0.47692758
-0.14555639 0.045083839 0.47607049
-0.14446361 0.045010921 0.47530049
-0.14340468 0.044947736 0.47463328
-0.14237508 0.044893045 0.47405577
-0.14137329 0.044846512 0.47356442
-0.14039622 0.044807304 0.47315037
-0.1394376 0.044773541 0.47279385
-0.13849796 0.044745497 0.4724977
-0.13757348 0.044722032 0.47224993
-0.13666296 0.044702835 0.47204724
-0.13576806 0.044688545 0.47189632
-0.1348854 0.044678129 0.47178635
-0.13401538 0.044671796 0.47171944
-0.13315605 0.044668961 0.47168952
-0.13231012 0.044670619 0.47170702
-0.13147271 0.04467519 0.4717553
-0.13064575 0.044683401 0.47184199
-0.1298293 0.044695333 0.471968
-0.12902044 0.044710051 0.47212341
-0.12821992 0.044727881 0.47231168
-0.12742744 0.044748768 0.47253227
-0.12664291 0.044772744 0.47278544
-0.12586522 0.044799484 0.47306782
-0.12509456 0.044829108 0.47338063
-0.124332 0.044862062 0.4737286
-0.12357681 0.044898149 0.47410968
-0.12282935 0.044937566 0.4745259
-0.12208952 0.044980347 0.47497767
-0.1213564 0.045026224 0.47546211
-0.12063021 0.045075346 0.47598082
-0.11990886 0.045126993 0.47652617
-0.11919115 0.04518076 0.47709394
-0.11847682 0.045236602 0.47768363
-0.11776808 0.045295414 0.47830465
-0.11706907 0.045358866 0.4789747
-0.11638755 0.045430087 0.47972676
-0.11573859 0.045515176 0.48062527
-0.11514613 0.045623939 0.48177376
-0.11461546 0.045759022 0.48320019
-0.11409437 0.045900032 0.48468924
-0.11358469 0.046047848 0.4862501
-0.11317828 0.046240151 0.48828077
-0.15070879 0.046741568 0.48434985
-0.14839275 0.046291616 0.47968733
-0.14715983 0.046176255 0.4784919
-0.14601529 0.046087418 0.47757137
-0.14491034 0.046010107 0.47677025
-0.14383128 0.045940138 0.47604522
-0.14277969 0.045878161 0.47540298
-0.14175563 0.045824327 0.47484511
-0.14075848 0.045778591 0.47437122
-0.13978413 0.045739762 0.47396883
-0.13883196 0.045707755 0.47363716
-0.13789827 0.045681469 0.4733648
-0.13697974 0.045659915 0.47314143
-0.13607702 0.045643389 0.47297022
-0.13518846 0.045631438 0.47284636
-0.13431181 0.045623381 0.47276285
-0.1334485 0.045619775 0.47272551
-0.13259543 0.045619648 0.4727242
-0.1317537 0.045623451 0.4727636
-0.13092184 0.045630742 0.47283915
-0.13009991 0.045641605 0.47295171
-0.12928657 0.045655653 0.47309729
-0.12848285 0.045673303 0.47328019
-0.12768732 0.045694124 0.47349593
-0.12689994 0.045718163 0.47374502
-0.12612054 0.045745414 0.47402743
-0.12534994 0.045776259 0.47434703
-0.12458755 0.045810543 0.4747023
-0.12383299 0.045848202 0.47509253
-0.123086 0.045889206 0.47551742
-0.12234543 0.045933198 0.47597328
-0.12161039 0.045979898 0.47645721
-0.12088073 0.046029318 0.4769693
-0.12015507 0.046080977 0.47750461
-0.11943419 0.046135228 0.4780668
-0.1187204 0.04619303 0.47866574
-0.1180204 0.046257079 0.47932944
-0.11734072 0.046330102 0.48008612
-0.11670107 0.046420131 0.48101902
-0.11612165 0.046535645 0.482216
-0.11559493 0.046674177 0.48365155
-0.11506686 0.046814278 0.48510328
-0.11456529 0.04696738 0.48668978
-0.11421828 0.047186702 0.48896247
-0.14787285 0.047267273 0.48081025
-0.14653642 0.047116432 0.47927588
-0.14538455 0.04702349 0.47833046
-0.14428881 0.046947699 0.47755951
-0.14322506 0.046881478 0.47688589
-0.14218584 0.046822526 0.47628623
-0.14116953 0.046770453 0.47575653
-0.14017728 0.046725757 0.47530189
-0.13920747 0.046688043 0.47491822
-0.13825698 0.046656381 0.47459617
-0.13732728 0.046631381 0.47434187
-0.13641313 0.04661138 0.47413841
-0.13551527 0.046596736 0.47398943
-0.13463148 0.046586767 0.47388804
-0.13375947 0.046580777 0.47382709
-0.13290179 0.046579726 0.47381642
-0.13205333 0.04658192 0.47383875
-0.13121784 0.046588741 0.47390813
-0.13039085 0.046598699 0.47400942
-0.12957492 0.046612762 0.47415248
-0.12876791 0.046630237 0.47433025
-0.12797017 0.046651337 0.47454485
-0.12718217 0.046676286 0.47479865
-0.12640248 0.046704642 0.47508711
-0.12563063 0.046736311 0.47540924
-0.12486725 0.046771582 0.47576803
-0.12411082 0.04680996 0.47615841
-0.12336104 0.046851404 0.47657996
-0.12261631 0.046895362 0.47702712
-0.12187725 0.046942122 0.47750276
-0.1211429 0.046991374 0.47800377
-0.1204172 0.047044713 0.47854635
-0.11970022 0.047102254 0.47913164
-0.11900119 0.047167748 0.47979787
-0.11832929 0.047245029 0.480584
-0.11770815 0.047343865 0.48158938
-0.11714991 0.047469664 0.48286903
-0.11661902 0.047608513 0.48428142
-0.11608741 0.047749162 0.48571211
-0.11561143 0.047915004 0.48739907
-0.11546925 0.048222791 0.49052995
-0.14820811 0.048528317 0.48474345
-0.14601427 0.048093721 0.48040229
-0.14480136 0.047978956 0.47925594
-0.14369853 0.047899511 0.47846234
-0.14264156 0.047834478 0.47781277
-0.14161497 0.047778912 0.4772577
-0.14061029 0.047730096 0.4767701
-0.139626 0.047687646 0.47634608
-0.13866273 0.047651898 0.47598898
-0.13771805 0.047622129 0.47569162
-0.13679172 0.047598373 0.47545433
-0.13588178 0.047580056 0.47527134
-0.13498797 0.047567185 0.47514281
-0.13410847 0.047559235 0.47506338
-0.13324156 0.047555674 0.4750278
-0.13238856 0.047557056 0.47504163
-0.1315456 0.047562089 0.4750919
-0.13071489 0.047571648 0.47518739
-0.12989475 0.047585204 0.47532278
-0.12908386 0.047602352 0.47549409
-0.12828381 0.047623757 0.47570789
-0.12749255 0.047648728 0.47595733
-0.12670885 0.047676891 0.47623864
-0.12593371 0.047708672 0.47655609
-0.12516588 0.047743686 0.47690585
-0.12440469 0.047781732 0.47728589
-0.12364949 0.047822624 0.47769433
-0.12290145 0.047866877 0.47813639
-0.12216049 0.047914539 0.47861248
