# .PCD v0.7 - Point Cloud Data file format
VERSION 0.7
FIELDS x y z
SIZE 4 4 4
TYPE F F F
COUNT 1 1 1
WIDTH 1327
HEIGHT 1
VIEWPOINT 0 0 0 1 0 0 0
POINTS 1327
DATA ascii
-0.22532837 -0.019611172 0.44375899
-0.22475603 -0.019631097 0.44420984
-0.22418985 -0.019651704 0.44467613
-0.22363091 -0.019673096 0.44516018
-0.22307704 -0.01969509 0.44565785
-0.22253123 -0.019717956 0.44617528
-0.22199118 -0.019741504 0.44670808
-0.22145894 -0.019765915 0.4472605
-0.22093374 -0.019791139 0.44783124
-0.2204155 -0.019817173 0.44842035
-0.21990505 -0.019844102 0.44902968
-0.21940318 -0.019872006 0.44966111
-0.21890968 -0.019900879 0.45031443
-0.21842492 -0.019930765 0.45099068
-0.21794881 -0.019961668 0.45168993
-0.21748342 -0.019993786 0.45241669
-0.21702799 -0.020027064 0.45316973
-0.21658269 -0.020061536 0.45394972
-0.21614923 -0.020097367 0.45476052
-0.21573034 -0.020134833 0.45560828
-0.21532346 -0.02017371 0.45648798
-0.21493304 -0.020214431 0.45740944
-0.21455893 -0.020257009 0.45837289
-0.21420413 -0.020301746 0.45938519
-0.21386953 -0.02034875 0.4604488
-0.21355866 -0.020398391 0.46157205
-0.21327567 -0.020451091 0.46276456
-0.21302368 -0.02050719 0.46403396
-0.21281183 -0.020567613 0.46540117
-0.21264613 -0.02063299 0.46688053
-0.21254349 -0.020705031 0.46851069
-0.21252656 -0.020786032 0.47034353
-0.2126317 -0.020879667 0.4724623
-0.21295686 -0.020995747 0.47508895
-0.21386133 -0.021170111 0.47903445
-0.25246492 -0.018569408 0.43806633
-0.25156763 -0.018561507 0.43787992
-0.25068748 -0.018554822 0.43772224
-0.24982333 -0.018549284 0.43759158
-0.24897426 -0.018544834 0.43748662
-0.24813882 -0.018541373 0.43740499
-0.24731655 -0.018538881 0.43734616
-0.24650639 -0.018537281 0.43730843
-0.24570757 -0.018536527 0.43729064
-0.24491978 -0.018536601 0.4372924
-0.24414195 -0.018537434 0.43731204
-0.24337462 -0.018539071 0.43735066
-0.24261662 -0.018541433 0.43740639
-0.24186784 -0.018544516 0.43747911
-0.24112761 -0.018548278 0.43756786
-0.24039601 -0.01855273 0.43767288
-0.23967247 -0.018557835 0.43779331
-0.23895656 -0.018563567 0.43792853
-0.23824887 -0.018569978 0.43807977
-0.23754776 -0.018576946 0.43824416
-0.2368547 -0.018584592 0.43842456
-0.23616868 -0.018592846 0.43861923
-0.23548922 -0.018601669 0.4388274
-0.23481676 -0.018611109 0.43905008
-0.23415075 -0.018621126 0.43928638
-0.23349147 -0.018631747 0.43953696
-0.23283871 -0.018642962 0.43980154
-0.23219214 -0.018654753 0.44007969
-0.23155171 -0.018667119 0.44037139
-0.23091748 -0.018680071 0.44067699
-0.23028956 -0.018693626 0.44099674
-0.22966816 -0.018707804 0.44133121
-0.22905204 -0.018722514 0.44167823
-0.22844334 -0.018737936 0.44204202
-0.22783998 -0.018753903 0.44241872
-0.22724272 -0.018770488 0.44280997
-0.22665155 -0.018787695 0.44321588
-0.22606714 -0.018805586 0.44363794
-0.22548801 -0.018824045 0.44407338
-0.22491574 -0.018843208 0.44452548
-0.22435011 -0.018863069 0.444994
-0.22379115 -0.018883634 0.44547915
-0.22323853 -0.018904883 0.44598046
-0.22269221 -0.018926824 0.44649804
-0.22215413 -0.018949626 0.44703597
-0.22162229 -0.018973129 0.44759041
-0.22109769 -0.018997425 0.44816357
-0.2205815 -0.019022625 0.44875807
-0.22007239 -0.019048622 0.44937137
-0.21957207 -0.019075576 0.45000723
-0.21907981 -0.019103434 0.4506644
-0.21859612 -0.019132249 0.45134416
-0.21812305 -0.019162212 0.45205101
-0.21765946 -0.019193236 0.4527829
-0.21720667 -0.019225448 0.45354283
-0.21676454 -0.019258853 0.45433086
-0.21633518 -0.019293649 0.45515174
-0.21591917 -0.019329907 0.45600706
-0.21551636 -0.019367628 0.45689693
-0.21512942 -0.019407069 0.45782739
-0.2147616 -0.019448547 0.45880586
-0.21441247 -0.019492043 0.45983198
-0.2140854 -0.01953789 0.46091357
-0.21378322 -0.019586377 0.46205738
-0.21351023 -0.019637927 0.4632735
-0.21327087 -0.019692987 0.46457243
-0.21307454 -0.019752473 0.4659757
-0.2129295 -0.019817201 0.46750271
-0.21285245 -0.019888798 0.46919173
-0.21287687 -0.019970484 0.47111878
-0.21305282 -0.020067099 0.473398
-0.21352178 -0.0201922 0.47634923
-0.25271958 -0.017797153 0.43850818
-0.25181568 -0.017789178 0.43831167
-0.25092912 -0.017782377 0.43814412
-0.25005901 -0.017776707 0.4380044
-0.24920481 -0.017772134 0.43789172
-0.24836472 -0.017768541 0.43780321
-0.24753734 -0.017765839 0.4377366
-0.24672252 -0.017764021 0.43769184
-0.24592035 -0.017763106 0.43766931
-0.24512909 -0.017762978 0.43766612
-0.24434805 -0.01776359 0.4376812
-0.24357741 -0.017764965 0.43771508
-0.24281685 -0.017767087 0.43776736
-0.24206524 -0.017769879 0.43783617
-0.24132267 -0.017773356 0.43792182
-0.24058899 -0.017777512 0.43802422
-0.23986337 -0.017782293 0.43814203
-0.23914553 -0.017787684 0.43827486
-0.23843576 -0.017793713 0.43842342
-0.23773411 -0.017800391 0.43858796
-0.23703931 -0.017807627 0.43876627
-0.23635185 -0.017815465 0.43895939
-0.23567173 -0.017823912 0.4391675
-0.23499781 -0.017832886 0.4393886
-0.23433052 -0.017842425 0.43962365
-0.23367022 -0.017852563 0.43987346
-0.23301692 -0.017863307 0.44013816
-0.23236968 -0.017874591 0.44041619
-0.23172899 -0.017886456 0.44070855
-0.23109373 -0.017898826 0.44101334
-0.23046543 -0.017911822 0.4413335
-0.22984339 -0.017925395 0.44166794
-0.22922772 -0.01793956 0.44201699
-0.2286173 -0.017954238 0.44237864
-0.22801413 -0.01796959 0.44275689
-0.22741662 -0.017985497 0.44314882
-0.22682525 -0.018002005 0.44355556
-0.22624044 -0.018019149 0.44397801
-0.22566231 -0.018036952 0.44441664
-0.22508976 -0.018055329 0.44486943
-0.2245248 -0.018074447 0.44534048
-0.22396505 -0.018094124 0.44582531
-0.22341324 -0.018114587 0.4463295
-0.22286826 -0.018135754 0.44685104
-0.22233069 -0.018157678 0.44739124
-0.22179945 -0.018180283 0.44794819
-0.22127675 -0.018203754 0.44852653
-0.22076118 -0.018227987 0.44912359
-0.22025456 -0.01825314 0.44974333
-0.21975517 -0.018279081 0.4503825
-0.21926504 -0.018305987 0.45104545
-0.21878454 -0.018333899 0.4517332
-0.21831316 -0.018362788 0.452445
-0.21785182 -0.018392744 0.45318305
-0.21740189 -0.018423889 0.45395046
-0.2169635 -0.018456252 0.45474789
-0.21653779 -0.018489944 0.45557803
-0.21612579 -0.018525068 0.45644343
-0.21572916 -0.018561782 0.45734805
-0.21534638 -0.018599974 0.45828909
-0.21498421 -0.01864025 0.45928141
-0.21464147 -0.018682526 0.4603231
-0.2143241 -0.018727349 0.46142748
-0.21403161 -0.018774703 0.46259424
-0.2137697 -0.018825121 0.46383652
-0.21354751 -0.018879445 0.46517503
-0.21337028 -0.018938191 0.46662247
-0.21325117 -0.019002579 0.46820897
-0.21321166 -0.019074602 0.46998352
-0.21328621 -0.019157445 0.47202471
-0.21356015 -0.019258931 0.47452527
-0.21429548 -0.019403011 0.4780753
-0.25299829 -0.017024923 0.43899179
-0.25208637 -0.017016819 0.43878281
-0.25119215 -0.017009862 0.43860343
-0.25031614 -0.017004099 0.43845481
-0.24945536 -0.016999336 0.43833199
-0.24860974 -0.016995579 0.4382351
-0.24777752 -0.016992716 0.43816131
-0.24695869 -0.016990757 0.4381108
-0.24615186 -0.016989615 0.43808135
-0.24535647 -0.016989255 0.43807209
-0.24457252 -0.016989691 0.43808329
-0.24379854 -0.016990822 0.43811247
-0.24303526 -0.016992709 0.43816113
-0.24228105 -0.016995246 0.43822652
-0.24153623 -0.016998459 0.43830937
-0.24080017 -0.017002311 0.4384087
-0.2400725 -0.017006783 0.43852404
-0.23935333 -0.01701189 0.4386557
-0.2386416 -0.01701756 0.43880191
-0.23793772 -0.01702383 0.43896359
-0.23724096 -0.017030653 0.43913952
-0.23655193 -0.017038079 0.439331
-0.23587015 -0.017046077 0.43953726
-0.23519507 -0.017054617 0.43975744
-0.2345273 -0.017063746 0.43999285
-0.23386592 -0.017073404 0.44024184
-0.23321131 -0.017083623 0.44050536
-0.23256293 -0.01709437 0.44078246
-0.2319217 -0.017105717 0.44107506
-0.23128588 -0.017117543 0.44138002
-0.23065667 -0.017129943 0.44169971
-0.23003386 -0.017142905 0.44203395
-0.22941771 -0.017156456 0.44238335
-0.22880782 -0.017170569 0.44274729
-0.22820435 -0.017185267 0.44312626
-0.22760718 -0.017200543 0.44352016
-0.22701582 -0.017216368 0.44392821
-0.22643109 -0.017232809 0.44435215
-0.22585258 -0.017249841 0.44479135
-0.22528073 -0.017267507 0.44524685
-0.22471584 -0.017285833 0.44571942
-0.22415729 -0.017304782 0.446208
-0.22360636 -0.017324457 0.44671533
-0.22306164 -0.017344756 0.44723874
-0.22252491 -0.017365828 0.44778207
-0.22199474 -0.017387567 0.44834262
-0.22147259 -0.017410094 0.4489235
-0.22095805 -0.017433388 0.44952413
-0.22045285 -0.017457591 0.45014822
-0.21995449 -0.017482519 0.450791
-0.21946698 -0.017508497 0.45146087
-0.21898951 -0.017535472 0.45215642
-0.21852042 -0.017563323 0.45287454
-0.21806289 -0.017592316 0.45362213
-0.21761601 -0.017622389 0.45439756
-0.21718188 -0.017653726 0.45520559
-0.2167602 -0.017686317 0.45604596
-0.21635377 -0.017720403 0.45692492
-0.21596132 -0.017755901 0.45784023
-0.21558644 -0.017793123 0.45879999
-0.21523149 -0.017832283 0.45980972
-0.21489798 -0.017873527 0.46087322
-0.21458751 -0.017917015 0.46199459
-0.21430628 -0.017963294 0.4631879
-0.21406132 -0.018012987 0.46446925
-0.21385585 -0.018066406 0.46584669
-0.21370383 -0.018124783 0.46735191
-0.21361654 -0.01818913 0.46901116
-0.21362258 -0.018261971 0.47088933
-0.21376929 -0.018347465 0.47309381
-0.21420179 -0.018458271 0.47595099
-0.21582787 -0.018673236 0.48149392
-0.25330472 -0.01625273 0.43952352
-0.25238302 -0.016244434 0.43929917
-0.25148082 -0.016237345 0.43910748
-0.25059676 -0.016231386 0.43894634
-0.24972929 -0.016226469 0.43881333
-0.24887747 -0.016222538 0.43870705
-0.24803963 -0.016219497 0.43862483
-0.24721669 -0.016217414 0.4385685
-0.24640551 -0.016216094 0.43853277
-0.24560663 -0.016215574 0.43851873
-0.2448186 -0.016215771 0.43852407
-0.24404126 -0.01621668 0.43854865
-0.24327461 -0.016218306 0.43859264
-0.24251707 -0.016220555 0.43865341
-0.2417693 -0.016223472 0.4387323
-0.24103048 -0.016227011 0.43882802
-0.24030018 -0.016231149 0.43893993
-0.23957868 -0.01623591 0.43906868
-0.23886463 -0.016241211 0.43921202
-0.23815906 -0.016247123 0.43937194
-0.23746108 -0.016253596 0.43954697
-0.23677054 -0.016260624 0.43973699
-0.23608647 -0.016268143 0.43994036
-0.23541035 -0.016276263 0.44015995
-0.23474081 -0.016284896 0.44039339
-0.23407844 -0.016294084 0.44064191
-0.23342244 -0.016303781 0.44090414
-0.23277351 -0.016314041 0.44118157
-0.23213105 -0.016324826 0.44147322
-0.23149486 -0.016336126 0.44177881
-0.23086451 -0.016347919 0.44209772
-0.23024157 -0.01636032 0.44243309
-0.2296254 -0.01637329 0.44278383
-0.22901474 -0.016386744 0.44314769
-0.22841102 -0.016400792 0.44352758
-0.22781412 -0.016415428 0.44392341
-0.22722255 -0.016430555 0.44433245
-0.22663853 -0.016446335 0.44475922
-0.22606033 -0.016462654 0.4452005
-0.22548929 -0.01647961 0.44565904
-0.22492445 -0.016497141 0.44613317
-0.22436672 -0.016515324 0.4466249
-0.22381666 -0.016534204 0.44713545
-0.2232728 -0.016553679 0.44766214
-0.22273719 -0.016573912 0.44820926
-0.22220853 -0.016594809 0.44877437
-0.22168775 -0.016616449 0.44935963
-0.22117589 -0.016638922 0.44996732
-0.22067171 -0.016662136 0.45059514
-0.22017641 -0.016686197 0.45124584
-0.21969059 -0.016711159 0.45192084
-0.21921411 -0.016737018 0.45262018
-0.21874836 -0.016763892 0.45334694
-0.21829361 -0.016791815 0.45410207
-0.2178494 -0.016820764 0.45488492
-0.21742108 -0.016851161 0.45570695
-0.21700364 -0.016882636 0.45655814
-0.21660286 -0.016915653 0.45745099
-0.21621795 -0.016950164 0.45838431
-0.21585064 -0.016986327 0.45936224
-0.21550404 -0.017024403 0.46039194
-0.21518052 -0.017064607 0.46147916
-0.21488418 -0.017107284 0.46263328
-0.21461765 -0.017152678 0.4638609
-0.21438754 -0.017201349 0.46517709
-0.21420275 -0.017254053 0.46660236
-0.21407939 -0.017312141 0.46817324
-0.21403775 -0.017377323 0.46993595
-0.21410625 -0.017452 0.47195548
-0.21436888 -0.017543161 0.47442076
-0.21509643 -0.017673254 0.47793883
-0.25364119 -0.015480448 0.44010735
-0.25270826 -0.015471934 0.43986529
-0.25179812 -0.015464767 0.4396615
-0.25090599 -0.015458663 0.43948796
-0.2500324 -0.015453666 0.43934593
-0.2491741 -0.015449586 0.43922994
-0.24833037 -0.015446386 0.43913895
-0.24750167 -0.015444105 0.43907407
-0.24668503 -0.015442562 0.43903023
-0.24588118 -0.015441814 0.43900895
-0.24508882 -0.015441784 0.43900809
-0.24430731 -0.015442439 0.43902674
-0.24353683 -0.015443799 0.4390654
-0.24277578 -0.015445768 0.43912137
-0.24202468 -0.015448383 0.43919572
-0.24128287 -0.015451612 0.43928751
-0.24054952 -0.015455405 0.43939537
-0.23982543 -0.015459821 0.4395209
-0.23910928 -0.015464779 0.43966186
-0.23840128 -0.0154703 0.4398188
-0.23770092 -0.015476354 0.43999094
-0.23700844 -0.015482964 0.44017884
-0.23632282 -0.015490067 0.44038078
-0.23564491 -0.015497725 0.44059852
-0.23497364 -0.015505875 0.4408302
-0.23431073 -0.015514632 0.44107917
-0.23365329 -0.015523813 0.44134018
-0.2330036 -0.015533573 0.44161767
-0.23235969 -0.015543788 0.44190806
-0.23172267 -0.015554533 0.44221357
-0.23109309 -0.015565856 0.44253546
-0.23046933 -0.01557765 0.44287077
-0.22985217 -0.015589974 0.44322112
-0.22924116 -0.015602801 0.44358581
-0.22863701 -0.015616188 0.44396639
-0.2280404 -0.015630186 0.44436434
-0.2274489 -0.015644632 0.44477507
-0.22686468 -0.015659686 0.44520304
-0.22628704 -0.015675301 0.44564697
-0.22571583 -0.015691474 0.44610679
-0.22515281 -0.015708335 0.44658613
-0.22459534 -0.015725706 0.44707999
-0.22404607 -0.015743777 0.44759375
-0.22350423 -0.015762504 0.44812617
-0.22296962 -0.015781879 0.44867697
-0.22244319 -0.015801976 0.44924831
-0.22192392 -0.015822729 0.44983834
-0.22141315 -0.015844245 0.45045
-0.22091153 -0.015866574 0.45108485
-0.22042 -0.015889797 0.45174506
-0.21993683 -0.015913798 0.45242739
-0.2194639 -0.01593872 0.45313591
-0.21900199 -0.015964631 0.45387259
-0.21855105 -0.015991541 0.45463762
-0.21811265 -0.016019573 0.45543459
-0.21768706 -0.016048763 0.45626444
-0.21727586 -0.016079238 0.45713085
-0.21688102 -0.016111162 0.45803845
-0.21650258 -0.016144551 0.45898771
-0.21614346 -0.016179645 0.45998541
-0.21580718 -0.016216725 0.46103957
-0.21549562 -0.016255956 0.46215492
-0.21521379 -0.016297743 0.46334293
-0.21496521 -0.016342385 0.46461207
-0.21475878 -0.016390592 0.46598262
-0.21460326 -0.016443079 0.46747482
-0.21451727 -0.016501328 0.46913081
-0.21452864 -0.016567558 0.47101372
-0.21469073 -0.016646001 0.47324386
-0.21515025 -0.016748223 0.47615004
-0.25401932 -0.014708474 0.44076344
-0.25307497 -0.014699803 0.4405036
-0.25215277 -0.014692367 0.44028077
-0.25125125 -0.014686092 0.44009271
-0.25036779 -0.014680836 0.43993524
-0.24950138 -0.014676552 0.43980685
-0.24865016 -0.014673136 0.43970448
-0.24781461 -0.014670624 0.43962923
-0.24699189 -0.01466886 0.43957636
-0.24618241 -0.014667873 0.43954676
-0.24538432 -0.01466756 0.43953741
-0.24459979 -0.014668059 0.43955234
-0.24382466 -0.014669126 0.43958431
-0.24306051 -0.014670864 0.43963638
-0.24230601 -0.014673196 0.43970627
-0.24156146 -0.014676147 0.43979472
-0.24082527 -0.014679629 0.43989906
-0.24009821 -0.014683692 0.4400208
-0.23937933 -0.014688284 0.44015843
-0.23866965 -0.014693473 0.44031391
-0.23796691 -0.014699125 0.44048327
-0.23727256 -0.014705334 0.44066936
-0.23658527 -0.014712025 0.44086987
-0.23590578 -0.014719248 0.44108629
-0.23523362 -0.014726978 0.44131795
-0.23456836 -0.014735194 0.44156414
-0.23391032 -0.014743921 0.44182569
-0.23325893 -0.014753128 0.4421016
-0.23261461 -0.014762849 0.44239286
-0.23197724 -0.014773076 0.44269937
-0.23134565 -0.014783746 0.44301909
-0.23072223 -0.014795013 0.44335672
-0.23010446 -0.014806722 0.44370762
-0.22949366 -0.014818963 0.44407442
-0.2288893 -0.014831706 0.44445628
-0.22829196 -0.014844995 0.44485453
-0.22770093 -0.014858792 0.44526795
-0.22711678 -0.014873134 0.44569775
-0.22653979 -0.01488805 0.44614473
-0.22596985 -0.014903538 0.44660884
-0.22540712 -0.014919613 0.44709057
-0.22485061 -0.014936216 0.44758812
-0.22430255 -0.014953503 0.44810614
-0.22376172 -0.0149714 0.44864243
-0.22322842 -0.01498993 0.44919774
-0.22270349 -0.01500916 0.449774
-0.22218618 -0.015029047 0.45036992
-0.22167774 -0.015049681 0.45098826
-0.22117859 -0.015071101 0.45163015
-0.22068827 -0.015093283 0.45229486
-0.22020894 -0.015116384 0.45298713
-0.21974005 -0.015140376 0.45370609
-0.21928161 -0.01516527 0.4544521
-0.21883446 -0.015191135 0.45522717
-0.21840194 -0.015218215 0.45603865
-0.21798229 -0.015246398 0.45688322
-0.21757992 -0.015276009 0.45777056
-0.21719173 -0.015306846 0.45869464
-0.21682391 -0.015339359 0.45966893
-0.21647523 -0.015373481 0.46069148
-0.21615 -0.015409538 0.46177197
-0.21585189 -0.015447814 0.46291897
-0.21558596 -0.0154887 0.4641442
-0.2153593 -0.015532738 0.46546385
-0.2151808 -0.015580606 0.46689829
-0.21506454 -0.015633376 0.46847963
-0.21503082 -0.015692584 0.47025391
-0.21512446 -0.015761593 0.4723219
-0.21543415 -0.015847044 0.47488257
-0.21637459 -0.015979759 0.4788596
-0.25444052 -0.013936492 0.44149429
-0.25348231 -0.013927599 0.44121259
-0.25254619 -0.013919869 0.44096768
-0.25163326 -0.013913372 0.44076186
-0.25074095 -0.013907977 0.44059098
-0.24986511 -0.013903464 0.44044802
-0.24900708 -0.013899917 0.44033563
-0.2481643 -0.013897201 0.44024959
-0.24733509 -0.013895229 0.44018716
-0.24652025 -0.013894056 0.44014996
-0.24571635 -0.013893493 0.44013214
-0.24492612 -0.013893702 0.44013876
-0.24414597 -0.013894486 0.44016361
-0.243377 -0.013895914 0.44020882
-0.24261807 -0.013897926 0.44027254
-0.24186936 -0.013900538 0.4403553
-0.24112967 -0.013903688 0.44045508
-0.24039933 -0.0139074 0.44057268
-0.23967798 -0.013911657 0.44070756
-0.23896463 -0.01391641 0.4408581
-0.23825994 -0.013921699 0.44102567
-0.23756276 -0.013927465 0.44120833
-0.23687373 -0.013933749 0.44140741
-0.23619303 -0.013940567 0.44162339
-0.23551917 -0.013947836 0.44185367
-0.23485266 -0.013955591 0.44209933
-0.23419279 -0.013963795 0.44235924
-0.23354037 -0.013972501 0.44263503
-0.23289506 -0.013981693 0.44292623
-0.23225646 -0.013991353 0.44323224
-0.23162521 -0.014001524 0.44355446
-0.23100027 -0.014012149 0.44389102
-0.23038284 -0.014023304 0.44424441
-0.22977148 -0.014034907 0.444612
-0.22916694 -0.01404701 0.4449954
-0.22856943 -0.014059631 0.44539523
-0.22797926 -0.014072794 0.4458122
-0.22739555 -0.01408645 0.44624481
-0.22681895 -0.014100646 0.44669452
-0.22624998 -0.014115417 0.44716248
-0.225688 -0.014130733 0.44764766
-0.22513179 -0.014146522 0.44814783
-0.22458522 -0.014163032 0.44867086
-0.22404598 -0.014180125 0.44921234
-0.2235143 -0.014197824 0.44977301
-0.22299135 -0.014216207 0.45035538
-0.2224768 -0.014235261 0.450959
-0.22197115 -0.014255028 0.4515852
-0.22147548 -0.014275583 0.45223638
-0.22098924 -0.014296901 0.4529117
-0.22051403 -0.014319093 0.45361471
-0.22004902 -0.014342115 0.45434403
-0.21959545 -0.014366058 0.4551025
-0.21915518 -0.014391053 0.45589435
-0.2187278 -0.014417087 0.45671907
-0.2183162 -0.014444361 0.4575831
-0.21791874 -0.014472782 0.45848343
-0.21754071 -0.014502713 0.45943165
-0.21718264 -0.014534211 0.46042943
-0.21684624 -0.014567406 0.46148103
-0.21653712 -0.014602696 0.46259898
-0.21625842 -0.014640318 0.46379083
-0.21601591 -0.014680692 0.46506983
-0.21581641 -0.014724316 0.46645179
-0.21567443 -0.014772221 0.46796939
-0.21560612 -0.014825569 0.46965936
-0.21565169 -0.014887198 0.47161171
-0.21587741 -0.014961801 0.47397506
-0.21650916 -0.01506525 0.47725224
-0.25491917 -0.01316484 0.44232482
-0.2539427 -0.013155587 0.44201395
-0.25299299 -0.013147667 0.44174784
-0.25206614 -0.013140889 0.44152009
-0.25116074 -0.013135189 0.44132859
-0.25027394 -0.013130429 0.44116867
-0.24940528 -0.013126594 0.4410398
-0.24855348 -0.013123624 0.44094002
-0.2477162 -0.013121404 0.44086543
-0.24689464 -0.013120005 0.44081843
-0.2460856 -0.013119265 0.44079354
-0.2452886 -0.013119163 0.44079015
-0.24450381 -0.013119717 0.44080874
-0.24373066 -0.0131209 0.4408485
-0.24296708 -0.013122609 0.4409059
-0.24221368 -0.013124879 0.44098219
-0.24147001 -0.013127694 0.44107676
-0.24073616 -0.013131063 0.44118997
-0.24001208 -0.013134989 0.44132188
-0.23929569 -0.013139364 0.44146886
-0.23858811 -0.013144253 0.44163314
-0.23788802 -0.013149589 0.44181243
-0.23719661 -0.013155442 0.44200906
-0.2365135 -0.013161796 0.44222257
-0.23583724 -0.013168576 0.44245037
-0.23516966 -0.01317589 0.44269609
-0.23450768 -0.013183566 0.442954
-0.23385495 -0.013191817 0.44323125
-0.2332074 -0.013200419 0.44352025
-0.23256834 -0.013209561 0.44382742
-0.23193602 -0.013219152 0.44414964
-0.23131084 -0.013229216 0.44448781
-0.23069175 -0.013239699 0.44484004
-0.23008098 -0.013250737 0.44521087
-0.22947702 -0.013262245 0.44559753
-0.22887956 -0.01327421 0.44599953
-0.22828957 -0.013286695 0.44641903
-0.22770621 -0.013299655 0.44685447
-0.22713013 -0.013313134 0.44730735
-0.22656235 -0.013327197 0.44777986
-0.22600079 -0.013341728 0.44826809
-0.22544777 -0.01335687 0.44877684
-0.22490197 -0.01337255 0.44930366
-0.22436565 -0.013388908 0.4498533
-0.22383657 -0.01340582 0.45042151
-0.22331609 -0.013423371 0.45101121
-0.2228037 -0.013441539 0.45162165
-0.22230178 -0.013460474 0.45225784
-0.22180924 -0.013480119 0.4529179
-0.22132738 -0.013500561 0.4536047
-0.22085619 -0.013521807 0.45431855
-0.22039637 -0.013543911 0.45506123
-0.21994819 -0.013566898 0.45583355
-0.2195143 -0.013590942 0.45664141
-0.2190945 -0.013616042 0.45748475
-0.21869175 -0.013642397 0.45837024
-0.21830319 -0.013669839 0.45929226
-0.21793871 -0.013699004 0.46027219
-0.21759321 -0.013729591 0.46129987
-0.21727395 -0.013762074 0.46239126
-0.21698427 -0.013796688 0.46355426
-0.21672758 -0.013833676 0.46479702
-0.21651416 -0.013873722 0.46614254
-0.21635099 -0.013917315 0.4676072
-0.21626152 -0.013966008 0.46924323
-0.21627085 -0.01402149 0.47110736
-0.2164391 -0.014087752 0.47333372
-0.21692391 -0.014175226 0.47627273
-0.25546286 -0.012393346 0.44326818
-0.25446689 -0.012383789 0.44292635
-0.25349832 -0.012375508 0.4426302
-0.25255492 -0.012368409 0.44237626
-0.25163573 -0.012362452 0.44216323
-0.25073695 -0.012357465 0.44198483
-0.24985595 -0.012353324 0.44183674
-0.24899319 -0.012350062 0.44172007
-0.24814771 -0.01234764 0.4416334
-0.24731591 -0.012345883 0.44157058
-0.24649888 -0.012344856 0.44153383
-0.24569529 -0.012344496 0.44152099
-0.24490426 -0.012344768 0.4415307
-0.24412447 -0.012345609 0.4415608
-0.24335666 -0.012347064 0.44161284
-0.24259831 -0.01234901 0.44168246
-0.24185097 -0.012351532 0.44177264
-0.24111296 -0.012354548 0.44188052
-0.24038412 -0.012358055 0.44200596
-0.23966423 -0.012362049 0.44214877
-0.23895387 -0.012366561 0.44231018
-0.23825152 -0.01237152 0.44248751
-0.2375575 -0.012376945 0.44268158
-0.23687196 -0.012382851 0.44289282
-0.23619312 -0.012389149 0.44311804
-0.23552281 -0.012395937 0.44336087
-0.23486014 -0.012403176 0.44361976
-0.23420598 -0.012410915 0.44389656
-0.23355809 -0.01241904 0.44418719
-0.23291688 -0.012427579 0.44449258
-0.23228317 -0.012436577 0.44481441
-0.23165753 -0.012446072 0.44515401
-0.23103926 -0.01245603 0.44551015
-0.23042765 -0.012466418 0.44588169
-0.22982335 -0.012477274 0.44627002
-0.2292261 -0.012488592 0.44667482
-0.22863644 -0.012500405 0.44709733
-0.22805411 -0.012512703 0.44753718
-0.22747944 -0.012525511 0.44799528
-0.22691211 -0.012538816 0.44847113
-0.22635278 -0.012552659 0.44896626
-0.22580068 -0.012567004 0.44947934
-0.22525801 -0.012581979 0.45001495
-0.22472234 -0.012597455 0.45056847
-0.2241959 -0.012613562 0.45114458
-0.22367904 -0.012630329 0.45174423
-0.22317091 -0.012647712 0.45236596
-0.22267282 -0.012665793 0.4530127
-0.22218418 -0.012684548 0.4536835
-0.22170773 -0.012704141 0.45438424
-0.22124155 -0.012724468 0.45511127
-0.22078827 -0.012745691 0.45587039
-0.22034882 -0.012767876 0.45666385
-0.21992195 -0.012790957 0.4574894
-0.21951225 -0.012815217 0.45835707
-0.21911873 -0.012840606 0.45926517
-0.21874544 -0.012867378 0.46022272
-0.21839307 -0.012895592 0.4612318
-0.21806553 -0.012925491 0.46230119
-0.2177667 -0.012957328 0.46343991
-0.21750146 -0.012991417 0.46465915
-0.21727464 -0.013028073 0.46597022
-0.21710059 -0.013068191 0.46740511
-0.21699496 -0.013112755 0.46899903
-0.21698438 -0.013163436 0.47081169
-0.21711865 -0.013223336 0.47295412
-0.21754053 -0.013301295 0.47574246
-0.25609574 -0.011622498 0.44436634
-0.25506881 -0.011612237 0.44397405
-0.254076 -0.011603471 0.44363886
-0.253113 -0.011596014 0.44335377
-0.25217524 -0.011589671 0.44311124
-0.25126064 -0.011584354 0.44290796
-0.25036621 -0.011579936 0.44273907
-0.24949086 -0.011576376 0.44260293
-0.248633 -0.011573607 0.44249707
-0.24779133 -0.011571576 0.44241944
-0.24696463 -0.011570233 0.44236809
-0.24615261 -0.011569572 0.44234279
-0.24535477 -0.011569574 0.44234291
-0.2445678 -0.011570091 0.44236267
-0.24379303 -0.011571191 0.44240472
-0.24302965 -0.011572841 0.44246778
-0.24227682 -0.011575004 0.44255051
-0.2415342 -0.011577672 0.44265252
-0.24080032 -0.011580778 0.44277126
-0.24007756 -0.011584441 0.4429113
-0.23936196 -0.011588476 0.44306555
-0.2386563 -0.01159302 0.44323927
-0.2379604 -0.011598069 0.44343236
-0.23727044 -0.011603445 0.44363788
-0.2365905 -0.011609348 0.44386357
-0.235918 -0.011615657 0.44410479
-0.23525396 -0.011622428 0.44436365
-0.23459637 -0.011629564 0.44463649
-0.23394708 -0.011637162 0.44492701
-0.23330587 -0.011645216 0.44523492
-0.23267138 -0.011653662 0.44555783
-0.23204499 -0.011662574 0.44589856
-0.23142581 -0.01167191 0.44625553
-0.23081484 -0.011681729 0.44663092
-0.23021017 -0.011691935 0.44702116
-0.22961342 -0.011702618 0.44742957
-0.22902431 -0.011713766 0.4478558
-0.22844331 -0.011725409 0.44830096
-0.22786881 -0.01173747 0.44876209
-0.227303 -0.011750067 0.44924369
-0.22674599 -0.011763209 0.44974619
-0.22619776 -0.011776903 0.45026976
-0.22565623 -0.011791046 0.45081049
-0.22512448 -0.011805804 0.45137474
-0.22460106 -0.011821109 0.45195988
-0.22408661 -0.011836997 0.45256737
-0.22358391 -0.011853626 0.45320311
-0.22309065 -0.011870879 0.45386276
-0.22260766 -0.011888807 0.45454821
-0.22213799 -0.011907581 0.45526603
-0.22167903 -0.011927072 0.45601121
-0.22123355 -0.011947435 0.45678976
-0.22080304 -0.011968763 0.45760518
-0.22038691 -0.011991032 0.45845664
-0.2199887 -0.01201445 0.45935193
-0.21960968 -0.012039094 0.46029419
-0.21925129 -0.012065061 0.46128699
-0.2189185 -0.012092641 0.46234146
-0.21861528 -0.01212207 0.46346664
-0.21834235 -0.012153413 0.46466497
-0.21811117 -0.01218733 0.46596172
-0.21793006 -0.012224317 0.46737584
-0.21781525 -0.012265325 0.46894372
-0.21779422 -0.012311954 0.47072652
-0.21791844 -0.012367192 0.47283843
-0.21831875 -0.012438593 0.47556832
-0.25683537 -0.010852198 0.44564971
-0.25576928 -0.010841085 0.44519332
-0.25474507 -0.01083168 0.44480711
-0.2537545 -0.010823652 0.44447744
-0.25279236 -0.010816788 0.4441956
-0.25185782 -0.010811067 0.44396064
-0.25094539 -0.010806262 0.44376329
-0.25005439 -0.010802349 0.44360265
-0.24918322 -0.010799273 0.44347632
-0.24832797 -0.010796868 0.44337755
-0.24749184 -0.010795282 0.44331244
-0.24666946 -0.010794288 0.44327158
-0.24586053 -0.010793877 0.44325474
-0.24506524 -0.010794065 0.44326243
-0.24428314 -0.010794836 0.44329411
-0.24351223 -0.010796109 0.44334638
-0.24275245 -0.010797884 0.44341931
-0.24200387 -0.010800173 0.44351327
-0.24126473 -0.010802899 0.44362518
-0.24053556 -0.01080609 0.44375625
-0.23981729 -0.010809795 0.44390839
-0.2391071 -0.010813889 0.44407654
-0.23840788 -0.010818508 0.44426623
-0.23771578 -0.010823485 0.44447055
-0.23703212 -0.010828879 0.44469208
-0.23635717 -0.010834709 0.44493151
-0.2356914 -0.010841001 0.44518989
-0.23503217 -0.010847638 0.44546247
-0.2343816 -0.010854722 0.44575337
-0.23373856 -0.010862204 0.44606063
-0.23310457 -0.010870161 0.44638738
-0.23247704 -0.010878474 0.44672877
-0.2318577 -0.010887232 0.44708836
-0.2312458 -0.010896399 0.44746482
-0.23064134 -0.010905983 0.44785839
-0.23004593 -0.010916064 0.44827235
-0.22945675 -0.010926512 0.44870144
-0.22887702 -0.010937486 0.44915208
-0.22830451 -0.010948884 0.44962016
-0.22774169 -0.010960829 0.4501107
-0.22718675 -0.010973242 0.45062041
-0.22663878 -0.01098608 0.45114765
-0.22610177 -0.010999545 0.4517006
-0.22557324 -0.011013522 0.45227453
-0.22505508 -0.011028107 0.4528735
-0.22454584 -0.011043238 0.45349482
-0.22404766 -0.011059025 0.45414314
-0.22355972 -0.011075436 0.45481706
-0.22308443 -0.011092596 0.45552173
-0.22262199 -0.011110525 0.45625797
-0.22217281 -0.01112925 0.45702696
-0.22173777 -0.011148827 0.45783088
-0.22131915 -0.011169378 0.45867482
-0.22091766 -0.011190951 0.45956072
-0.22053529 -0.011213659 0.46049324
-0.22017384 -0.011237605 0.46147662
-0.21983722 -0.011263007 0.46251974
-0.21952949 -0.011290088 0.46363184
-0.2192568 -0.011319185 0.4648267
-0.21902445 -0.011350595 0.46611658
-0.21884449 -0.011384973 0.46752834
-0.21873058 -0.011423067 0.46909267
-0.21871409 -0.011466564 0.47087887
-0.21885285 -0.011518571 0.47301456
-0.21930021 -0.011587291 0.47583658
-0.25771287 -0.010082663 0.44717234
-0.25659367 -0.010070396 0.44662827
-0.25552392 -0.010059997 0.44616705
-0.25449571 -0.010051173 0.44577572
-0.25350237 -0.010043676 0.44544321
-0.2525388 -0.010037313 0.44516104
-0.25160339 -0.010032034 0.44492689
-0.25069278 -0.010027711 0.4447352
-0.24980247 -0.010024176 0.44457841
-0.24893337 -0.010021472 0.44445848
-0.24808048 -0.010019406 0.44436681
-0.24724548 -0.01001805 0.4443067
-0.24642456 -0.010017258 0.44427159
-0.24561891 -0.010017085 0.44426388
-0.2448255 -0.01001741 0.4442783
-0.24404645 -0.010018327 0.44431898
-0.24327859 -0.010019711 0.44438037
-0.24252288 -0.010021606 0.44446445
-0.24177922 -0.010024015 0.44457123
-0.24104467 -0.010026816 0.4446955
-0.24032064 -0.010030077 0.4448401
-0.23960589 -0.010033747 0.44500288
-0.23890121 -0.010037865 0.44518554
-0.23820564 -0.010042396 0.44538647
-0.23751856 -0.010047317 0.44560468
-0.23684114 -0.01005268 0.44584256
-0.23617133 -0.010058405 0.44609645
-0.23551103 -0.010064574 0.44637007
-0.23485744 -0.010071074 0.44665834
-0.23421334 -0.010078027 0.44696671
-0.23357762 -0.01008539 0.44729325
-0.2329493 -0.010093124 0.44763628
-0.23232923 -0.010101271 0.4479976
-0.23171799 -0.01010986 0.44837853
-0.2311144 -0.010118844 0.44877699
-0.23051868 -0.010128237 0.44919357
-0.22993256 -0.01013812 0.44963187
-0.22935401 -0.010148408 0.45008814
-0.22878449 -0.010159169 0.45056543
-0.22822301 -0.010170366 0.45106199
-0.22767065 -0.010182051 0.45158023
-0.22712791 -0.010194251 0.45212132
-0.22659366 -0.010206922 0.45268327
-0.22607069 -0.010220193 0.4532719
-0.22555783 -0.010234022 0.45388517
-0.22505577 -0.010248441 0.4545247
-0.22456446 -0.010263458 0.45519069
-0.2240842 -0.010279092 0.45588407
-0.22361857 -0.010295514 0.45661241
-0.22316542 -0.010312635 0.45737174
-0.22272824 -0.010330623 0.45816952
-0.22230527 -0.010349407 0.45900258
-0.22190231 -0.010369267 0.45988339
-0.22151969 -0.01039023 0.46081311
-0.22115967 -0.010412414 0.46179697
-0.22082342 -0.010435889 0.46283814
-0.22051886 -0.010461046 0.46395385
-0.22024547 -0.01048788 0.46514392
-0.22001919 -0.01051717 0.46644297
-0.21984772 -0.010549315 0.46786863
-0.21975005 -0.010585262 0.46946293
-0.21975841 -0.010626615 0.47129694
-0.21994181 -0.010676787 0.4735221
-0.22053705 -0.01074742 0.47665471
-0.25878498 -0.0093146395 0.44903263
-0.25757417 -0.0093001658 0.4483349
-0.25643799 -0.0092883054 0.44776312
-0.25535166 -0.0092781801 0.44727501
-0.25431582 -0.0092698317 0.44687256
-0.25331581 -0.0092627406 0.4465307
-0.25234917 -0.0092568276 0.44624567
-0.25140995 -0.009251886 0.44600743
-0.25049627 -0.0092478553 0.44581315
-0.24960364 -0.0092445798 0.44565523
-0.24873282 -0.0092420923 0.4455353
-0.24788149 -0.0092403144 0.44544962
-0.24704634 -0.0092391316 0.44539258
-0.24622588 -0.0092384918 0.44536173
-0.24542309 -0.0092385123 0.44536275
-0.24463107 -0.0092389407 0.44538337
-0.24385551 -0.009239994 0.44543418
-0.24308926 -0.0092414096 0.44550243
-0.24233702 -0.0092433691 0.44559687
-0.24159506 -0.0092457347 0.4457109
-0.24086337 -0.00924851 0.44584471
-0.24014349 -0.0092517594 0.44600135
-0.23943254 -0.0092553757 0.44617566
-0.23873188 -0.0092594149 0.44637039
-0.238042 -0.009263902 0.4465867
-0.23735994 -0.0092687244 0.44681919
-0.23668823 -0.0092739845 0.44707277
-0.23602386 -0.0092795705 0.44734204
-0.23537065 -0.0092856344 0.44763437
-0.23472475 -0.0092920288 0.44794264
-0.23408593 -0.0092987502 0.44826666
-0.23345853 -0.0093059726 0.44861481
-0.23283762 -0.0093135051 0.44897792
-0.23222654 -0.0093214838 0.44936258
-0.23162283 -0.0093298163 0.44976425
-0.23102985 -0.0093386406 0.45018965
-0.23044348 -0.0093477955 0.45063096
-0.22986773 -0.0093574477 0.45109627
-0.22930059 -0.0093675191 0.45158181
-0.22874175 -0.0093780039 0.45208725
-0.22819491 -0.0093890568 0.45262009
-0.22765665 -0.0094005438 0.45317382
-0.22712716 -0.0094124768 0.45374909
-0.22661011 -0.0094250133 0.45435345
-0.22610399 -0.0094380975 0.45498419
-0.22560976 -0.0094517749 0.45564353
-0.22512686 -0.0094660288 0.45633069
-0.22465946 -0.0094810408 0.45705438
-0.2242042 -0.0094966786 0.45780823
-0.22376543 -0.0095131332 0.45860144
-0.22334431 -0.0095304623 0.45943683
-0.22293983 -0.0095486334 0.46031281
-0.22255872 -0.0095679453 0.46124378
-0.222201 -0.0095884111 0.46223038
-0.22186948 -0.0096101658 0.46327913
-0.2215686 -0.0096334172 0.46439999
-0.22130695 -0.0096585574 0.46561193
-0.22109419 -0.0096860314 0.46693638
-0.22094041 -0.0097163087 0.46839595
-0.22087316 -0.0097506382 0.4700509
-0.22093338 -0.0097908815 0.47199091
-0.22123066 -0.0098419823 0.47445434
-0.22237436 -0.0099312821 0.47875923
-0.26015517 -0.0085497005 0.45141011
-0.25878042 -0.0085312221 0.45043451
-0.25752395 -0.0085165398 0.44965929
-0.25635809 -0.0085047707 0.44903788
-0.2552523 -0.0084949266 0.44851813
-0.25419727 -0.0084867133 0.44808447
-0.25318632 -0.0084799239 0.44772604
-0.25220966 -0.0084742447 0.44742617
-0.25126478 -0.0084695993 0.4471809
-0.25034568 -0.0084657958 0.44698009
-0.24945042 -0.0084627764 0.44682068
-0.24857657 -0.0084604667 0.4466987
-0.24772258 -0.0084588202 0.44661176
-0.24688588 -0.0084577547 0.44655553
-0.24606633 -0.0084572714 0.44653001
-0.24526359 -0.0084573654 0.44653496
-0.24447417 -0.0084579205 0.44656426
-0.24369898 -0.0084589729 0.44661984
-0.2429363 -0.0084604677 0.44669878
-0.24218568 -0.0084623955 0.44680053
-0.24144757 -0.0084647723 0.44692606
-0.24072057 -0.0084675578 0.4470731
-0.24000317 -0.0084707001 0.44723901
-0.23929733 -0.0084742727 0.44742766
-0.23860207 -0.0084782457 0.44763744
-0.23791638 -0.0084825875 0.44786665
-0.23723987 -0.008487286 0.44811475
-0.23657331 -0.0084923748 0.44838342
-0.23591687 -0.0084978631 0.44867319
-0.23526838 -0.0085036764 0.44898012
-0.23462836 -0.0085098371 0.44930539
-0.23399968 -0.0085164532 0.4496547
-0.23337823 -0.0085233785 0.45002037
-0.2327686 -0.0085307863 0.45041147
-0.23216566 -0.008538492 0.45081833
-0.23157273 -0.0085466206 0.45124751
-0.23098978 -0.0085551767 0.45169926
-0.23041531 -0.008564109 0.45217085
-0.22985254 -0.0085735405 0.45266885
-0.22929825 -0.0085833566 0.45318711
-0.22875601 -0.0085936962 0.45373303
-0.22822276 -0.0086044492 0.45430073
-0.22770171 -0.0086157406 0.4548969
-0.22719145 -0.0086275227 0.45551902
-0.22669424 -0.0086398888 0.45617193
-0.22620933 -0.0086528156 0.45685443
-0.2257393 -0.0086664082 0.45757207
-0.22528343 -0.0086806454 0.45832381
-0.22484568 -0.008695689 0.45911807
-0.22442397 -0.0087114666 0.4599511
-0.22402357 -0.0087281913 0.46083412
-0.2236443 -0.0087458668 0.46176735
-0.22328967 -0.0087646414 0.46275863
-0.22296658 -0.0087847998 0.46382296
-0.22267921 -0.0088065229 0.4649699
-0.2224324 -0.0088300202 0.46621051
-0.2222399 -0.0088558588 0.46757478
-0.22212216 -0.0088848863 0.46910739
-0.22210298 -0.0089180926 0.47086063
-0.22226313 -0.0089587821 0.47300896
-0.22282641 -0.0090160975 0.47603509
-0.26227933 -0.0077986028 0.45509586
-0.26040566 -0.0077672023 0.45326343
-0.25890428 -0.0077467421 0.45206946
-0.25757673 -0.0077313716 0.4511725
-0.25636092 -0.0077192672 0.45046613
-0.25522462 -0.0077094878 0.44989544
-0.25414658 -0.0077014109 0.44942412
-0.25311664 -0.0076947459 0.44903517
-0.25212535 -0.0076892166 0.4487125
-0.25116986 -0.0076847463 0.44845164
-0.25024205 -0.0076810969 0.44823867
-0.24934131 -0.0076782573 0.44807297
-0.24846371 -0.0076761148 0.44794792
-0.2476058 -0.0076745683 0.44785768
-0.24676774 -0.0076736286 0.44780284
-0.24594669 -0.0076732137 0.44777864
-0.24514259 -0.0076733269 0.44778523
-0.24435493 -0.0076739565 0.44782197
-0.24358021 -0.0076749981 0.44788277
-0.24281897 -0.0076764729 0.44796884
-0.24207036 -0.0076783588 0.44807887
-0.2413353 -0.0076806881 0.4482148
-0.24061137 -0.0076833884 0.44837239
-0.23989823 -0.0076864525 0.44855121
-0.23919752 -0.007689937 0.44875455
-0.23850696 -0.0076937731 0.44897839
-0.23782623 -0.0076979529 0.44922233
-0.23715623 -0.0077025099 0.44948825
-0.23649622 -0.007707424 0.44977501
-0.23584644 -0.0077127065 0.45008329
-0.2352064 -0.0077183447 0.4504123
-0.23457544 -0.007724321 0.45076105
-0.23395495 -0.0077306852 0.45113245
-0.23334357 -0.0077373958 0.45152405
-0.23274308 -0.0077445158 0.45193955
-0.23215143 -0.0077519813 0.4523752
-0.23157063 -0.0077598626 0.45283511
-0.23100211 -0.0077682124 0.45332238
-0.2304427 -0.0077769295 0.45383108
-0.22989267 -0.0077860267 0.45436195
-0.22935551 -0.0077956254 0.45492211
-0.22882931 -0.0078056674 0.45550811
-0.22831635 -0.0078162355 0.45612481
-0.22781691 -0.0078273444 0.45677307
-0.22733152 -0.0078390185 0.45745432
-0.22686027 -0.0078512663 0.45816907
-0.22640374 -0.0078641148 0.4589189
-0.22596604 -0.0078777149 0.45971254
-0.22554822 -0.0078921104 0.4605526
-0.2251512 -0.0079073431 0.46144152
-0.22477764 -0.0079235164 0.4623853
-0.22443452 -0.0079408865 0.46339896
-0.22412293 -0.0079595055 0.46448553
-0.22384998 -0.0079796426 0.46566063
-0.22362635 -0.0080016963 0.46694759
-0.22346692 -0.0080262218 0.46837881
-0.22340029 -0.0080542807 0.47001618
-0.22347775 -0.0080877664 0.47197029
-0.22384807 -0.0081321476 0.47456023
-0.26101807 -0.0069878851 0.45576033
-0.25922391 -0.0069617792 0.45405766
-0.25776231 -0.0069444678 0.45292857
-0.25646868 -0.0069315857 0.45208839
-0.25527978 -0.0069214618 0.45142809
-0.2541655 -0.0069133015 0.45089588
-0.25310791 -0.0069066365 0.45046115
-0.2520968 -0.0069012004 0.45010662
-0.25112635 -0.0068968465 0.44982263
-0.25018692 -0.0068933181 0.44959253
-0.24927694 -0.0068905824 0.44941407
-0.2483916 -0.0068885107 0.44927898
-0.24753019 -0.0068870923 0.44918644
-0.24668819 -0.0068862056 0.44912863
-0.24586372 -0.0068858042 0.44910246
-0.24505945 -0.0068859681 0.44911313
-0.24426977 -0.0068865442 0.44915071
-0.24349643 -0.0068875863 0.44921869
-0.24273662 -0.0068890196 0.44931215
-0.24198982 -0.0068908324 0.44943041
-0.2412581 -0.0068930886 0.44957754
-0.24053699 -0.0068956641 0.44974554
-0.23982893 -0.0068986327 0.44993913
-0.23913109 -0.0069019161 0.45015329
-0.23844679 -0.0069056139 0.45039448
-0.23777233 -0.0069096233 0.45065597
-0.23710959 -0.0069140019 0.45094153
-0.23645711 -0.0069187107 0.45124865
-0.23581418 -0.0069237328 0.4515762
-0.23518343 -0.006929148 0.45192939
-0.23456202 -0.006934877 0.45230305
-0.23395246 -0.0069409981 0.45270228
-0.23335391 -0.0069474895 0.45312566
-0.23276488 -0.0069543109 0.45357057
-0.23218752 -0.006961531 0.45404145
-0.23162042 -0.0069691101 0.45453578
-0.23106666 -0.006977146 0.45505989
-0.23052531 -0.0069856155 0.4556123
-0.22999552 -0.006994497 0.45619157
-0.22947891 -0.0070038447 0.45680124
-0.22897694 -0.0070137079 0.45744452
-0.22848791 -0.0070240409 0.45811844
-0.22801672 -0.0070349984 0.45883313
-0.22756252 -0.0070465622 0.45958734
-0.22712828 -0.0070588319 0.46038756
-0.22671397 -0.0070718122 0.46123415
-0.22632301 -0.007085619 0.46213466
-0.22595869 -0.0071003656 0.46309647
-0.22562683 -0.0071162446 0.46413213
-0.22533412 -0.0071334825 0.46525639
-0.22508483 -0.0071522282 0.466479
-0.22489886 -0.0071731345 0.46784255
-0.22479434 -0.0071968054 0.46938643
-0.22481821 -0.0072247819 0.47121108
-0.22509225 -0.0072610402 0.47357589
-0.25996125 -0.0061797444 0.45679244
-0.25815707 -0.0061563691 0.45506462
-0.25671428 -0.0061414898 0.45396477
-0.25543725 -0.0061304942 0.453152
-0.25426778 -0.0061220173 0.45252541
-0.25316948 -0.0061152047 0.45202184
-0.25212824 -0.0061097313 0.45161724
-0.25113416 -0.0061053685 0.45129478
-0.2501795 -0.0061019394 0.45104128
-0.24925479 -0.0060992204 0.45084029
-0.24836046 -0.0060972287 0.4506931
-0.24748893 -0.0060957866 0.4505865
-0.24664333 -0.0060949754 0.45052654
-0.24581507 -0.0060945884 0.45049793
-0.2450076 -0.0060947165 0.4505074
-0.24421734 -0.0060952748 0.45054865
-0.2434438 -0.0060962555 0.45062116
-0.24268483 -0.0060976087 0.45072117
-0.24194086 -0.0060993494 0.45084983
-0.24121027 -0.0061014402 0.45100439
-0.24049421 -0.0061039138 0.45118725
-0.23978978 -0.0061067007 0.45139325
-0.23909894 -0.0061098537 0.4516263
-0.23842002 -0.0061133341 0.45188355
-0.23775139 -0.0061171027 0.45216215
-0.23709777 -0.0061212853 0.45247129
-0.2364521 -0.0061257021 0.45279777
-0.23582053 -0.0061305165 0.45315364
-0.23519926 -0.0061356327 0.45353183
-0.23459174 -0.0061411452 0.45393929
-0.23399444 -0.0061469642 0.45436943
-0.23340811 -0.0061531137 0.45482397
-0.23283516 -0.0061596604 0.4553079
-0.2322751 -0.0061665955 0.45582053
-0.23172636 -0.0061738817 0.45635912
-0.23119386 -0.0061816541 0.45693362
-0.23067483 -0.0061898436 0.45753896
-0.23016779 -0.0061984141 0.4581725
-0.22968253 -0.0062076361 0.45885414
-0.22920981 -0.0062172641 0.45956585
-0.22875828 -0.0062275394 0.46032536
-0.22832745 -0.0062384554 0.46113223
-0.22791936 -0.0062500737 0.46199104
-0.22753847 -0.0062625264 0.46291152
-0.22718938 -0.0062759495 0.46390373
-0.22687559 -0.0062904507 0.46497563
-0.22660805 -0.0063063465 0.46615061
-0.226399 -0.0063239946 0.46745509
-0.2262691 -0.0063439934 0.46893337
-0.22626206 -0.0063676001 0.47067833
-0.22648099 -0.0063977679 0.47290826
-0.22762772 -0.0064544724 0.47709972
-0.25908792 -0.0053718388 0.45816225
-0.25720018 -0.0053497641 0.45627949
-0.25574473 -0.0053365673 0.45515394
-0.2544747 -0.0053271675 0.45435223
-0.25331193 -0.0053199599 0.4537375
-0.25222439 -0.0053142901 0.45325392
-0.25119823 -0.0053098812 0.45287791
-0.25021875 -0.0053064334 0.45258385
-0.24927466 -0.0053037163 0.45235208
-0.24836619 -0.0053017414 0.45218366
-0.24748376 -0.0053003114 0.45206168
-0.2466305 -0.0052994983 0.45199236
-0.24579735 -0.0052991137 0.45195955
-0.24498545 -0.0052991863 0.45196572
-0.24419181 -0.0052996553 0.45200574
-0.24341889 -0.0053005791 0.45208451
-0.24265955 -0.0053018052 0.45218912
-0.24191776 -0.0053034248 0.45232722
-0.24119091 -0.0053053838 0.45249432
-0.24047785 -0.0053076604 0.45268849
-0.23977853 -0.0053102574 0.45290998
-0.23909433 -0.0053132074 0.4531616
-0.23842128 -0.0053164265 0.45343614
-0.23776424 -0.0053200261 0.45374316
-0.23711726 -0.0053238766 0.45407155
-0.23648383 -0.0053280583 0.45442823
-0.23586294 -0.0053325533 0.4548116
-0.2352563 -0.0053374032 0.45522523
-0.23466088 -0.0053425422 0.45566353
-0.23407987 -0.0053480463 0.45613298
-0.23351157 -0.005353881 0.45663062
-0.23296018 -0.0053601456 0.45716494
-0.23242058 -0.0053667277 0.4577263
-0.23189753 -0.0053737396 0.45832437
-0.23139252 -0.0053812214 0.45896247
-0.23090422 -0.005389147 0.45963845
-0.23043379 -0.005397548 0.46035498
-0.22998439 -0.0054065045 0.46111888
-0.22956009 -0.0054161185 0.46193883
-0.22916266 -0.0054264381 0.46281901
-0.22879405 -0.0054375185 0.46376404
-0.22846332 -0.0054495838 0.46479309
-0.22817776 -0.0054628192 0.46592194
-0.22795212 -0.0054775928 0.46718195
-0.22780265 -0.0054943128 0.46860799
-0.22777307 -0.0055140592 0.47029218
-0.22798027 -0.0055397074 0.4724797
-0.22940828 -0.0055953241 0.47722322
-0.25851804 -0.0045645237 0.46008965
-0.256336 -0.0045405733 0.45767552
-0.25483716 -0.0045286086 0.45646951
-0.25355938 -0.004520508 0.45565298
-0.25239658 -0.0045144106 0.4550384
-0.25131631 -0.004509754 0.45456904
-0.25029963 -0.0045062127 0.45421207
-0.24932887 -0.0045034769 0.45393634
-0.24840076 -0.0045014964 0.45373669
-0.2475033 -0.0045000599 0.45359188
-0.24663745 -0.0044991905 0.45350426
-0.24579653 -0.0044987719 0.45346206
-0.24498022 -0.0044988021 0.4534651
-0.2441836 -0.0044991951 0.45350474
-0.24340813 -0.0044999821 0.45358407
-0.24264954 -0.0045010876 0.45369548
-0.24190867 -0.0045025302 0.45384088
-0.24118586 -0.0045043202 0.4540213
-0.24047653 -0.0045063747 0.4542284
-0.23978433 -0.0045087649 0.45446935
-0.23910704 -0.0045114537 0.45474035
-0.23844416 -0.0045144334 0.45504069
-0.23779434 -0.0045176819 0.45536813
-0.23716024 -0.0045212521 0.45572802
-0.23653953 -0.0045251041 0.45611626
-0.23593408 -0.0045292755 0.45653674
-0.23534232 -0.0045337402 0.45698676
-0.23476793 -0.0045385715 0.45747375
-0.23420796 -0.004543717 0.4579924
-0.23366259 -0.004549183 0.45854336
-0.23313752 -0.0045550847 0.45913821
-0.23262876 -0.0045613484 0.45976958
-0.23213941 -0.0045680385 0.46044391
-0.23167272 -0.0045752241 0.46116823
-0.23122925 -0.004582922 0.46194413
-0.23081413 -0.0045912396 0.4627825
-0.23042741 -0.004600184 0.46368411
-0.23008078 -0.0046099974 0.46467325
-0.22977942 -0.0046207928 0.46576139
-0.22953281 -0.0046327724 0.46696889
-0.22937147 -0.0046465676 0.46835941
-0.22933735 -0.0046630516 0.47002092
-0.229546 -0.0046846122 0.47219419
-0.25553244 -0.0037273779 0.45919862
-0.25394714 -0.0037162998 0.45783386
-0.25264212 -0.0037092646 0.45696715
-0.25147989 -0.0037042864 0.45635384
-0.25040489 -0.0037005648 0.45589536
-0.24939504 -0.0036977849 0.45555288
-0.2484349 -0.0036957259 0.45529923
-0.24751857 -0.0036943071 0.45512444
-0.24663717 -0.0036934018 0.45501292
-0.24578491 -0.0036929285 0.45495459
-0.24496147 -0.0036928866 0.45494944
-0.24416117 -0.0036931944 0.45498735
-0.24338199 -0.0036938244 0.45506498
-0.24262443 -0.0036947883 0.45518371
-0.24188556 -0.0036960442 0.45533845
-0.24116559 -0.0036975986 0.45552993
-0.24046409 -0.0036994477 0.45575774
-0.23977806 -0.0037015481 0.45601651
-0.23910989 -0.0037039397 0.45631114
-0.23845693 -0.0037065845 0.45663697
-0.23782131 -0.0037095179 0.45699835
-0.23720071 -0.0037127067 0.4573912
-0.23659715 -0.0037161857 0.45781979
-0.23601082 -0.0037199603 0.45828483
-0.23544177 -0.0037240351 0.45878682
-0.23489094 -0.0037284277 0.45932797
-0.23435859 -0.0037331455 0.4599092
-0.23384759 -0.0037382385 0.46053663
-0.23335928 -0.0037437319 0.46121338
-0.23289351 -0.0037496272 0.46193966
-0.23245771 -0.0037560491 0.46273082
-0.23205346 -0.0037630289 0.46359071
-0.23168407 -0.0037706268 0.46452674
-0.23136447 -0.003779093 0.46556973
-0.23110054 -0.0037885334 0.46673277
-0.23092133 -0.0037994368 0.46807602
-0.23087619 -0.0038126344 0.46970192
-0.23109517 -0.0038303067 0.47187907
-0.25467905 -0.0029082436 0.46065143
-0.25297537 -0.0028982449 0.45906767
-0.25164855 -0.0028925121 0.45815963
-0.25048536 -0.0028886285 0.45754448
-0.24942046 -0.0028858567 0.45710543
-0.24842471 -0.002883869 0.4567906
-0.24748051 -0.0028824685 0.45656878
-0.24658152 -0.002881587 0.45642915
-0.24571639 -0.0028810967 0.45635149
-0.2448844 -0.0028809931 0.45633507
-0.24407895 -0.0028812017 0.45636812
-0.24329969 -0.0028817223 0.45645058
-0.24254279 -0.0028825121 0.45657566
-0.24180724 -0.0028835617 0.45674193
-0.2410928 -0.0028848711 0.45694932
-0.24039896 -0.0028864369 0.45719734
-0.23972329 -0.0028882325 0.45748177
-0.23906687 -0.002890273 0.45780498
-0.23842804 -0.0028925412 0.45816424
-0.237809 -0.002895066 0.45856416
-0.2372077 -0.0028978253 0.45900121
-0.23662621 -0.0029008465 0.45947978
-0.23606557 -0.002904146 0.46000236
-0.2355262 -0.0029077309 0.46057022
-0.23501001 -0.0029116285 0.46118757
-0.23451765 -0.0029158501 0.46185625
-0.23405361 -0.0029204551 0.46258566
-0.23362188 -0.0029254975 0.46338436
-0.23322588 -0.0029310253 0.46425995
-0.23287509 -0.0029371632 0.46523216
-0.23258474 -0.0029441107 0.46633258
-0.23237555 -0.0029521394 0.46760431
-0.23229356 -0.0029618486 0.4691422
-0.23247455 -0.0029749942 0.4712244
-0.25346556 -0.0020809982 0.46146774
-0.25175786 -0.0020737879 0.45986888
-0.25046465 -0.0020699559 0.45901909
-0.24932954 -0.002067409 0.45845434
-0.24829045 -0.0020656444 0.45806301
-0.24732186 -0.0020644562 0.45779955
-0.24640529 -0.0020636958 0.45763093
-0.24553093 -0.0020632851 0.45753986
-0.2446938 -0.0020631854 0.45751774
-0.24388741 -0.0020633452 0.45755318
-0.24310884 -0.0020637424 0.45764121
-0.24235645 -0.002064365 0.45777932
-0.24162802 -0.0020651969 0.45796376
