# .PCD v0.7 - Point Cloud Data file format
VERSION 0.7
FIELDS x y z
SIZE 4 4 4
TYPE F F F
COUNT 1 1 1
WIDTH 88
HEIGHT 1
VIEWPOINT 0 0 0 1 0 0 0
POINTS 88
DATA ascii
-0.22831415 0.022871541 0.44489777
-0.20948067 0.020664437 0.44925517
-0.21690069 0.023109045 0.44951773
-0.23612271 0.020376071 0.44298595
-0.21023464 0.019547435 0.44231671
-0.20782927 0.019851139 0.44918889
-0.2196511 0.012783927 0.42952654
-0.22984561 0.012790734 0.42975527
-0.23607549 0.010466401 0.4298068
-0.24394953 0.014676639 0.43980944
-0.23975042 0.0097143603 0.43083787
-0.25047046 0.0043252353 0.43597013
-0.22948226 0.0096421121 0.42763361
-0.23974551 0.0073589091 0.42943704
-0.24616902 0.00038766774 0.42983258
-0.24814226 0.0090735648 0.43741107
-0.20007969 -0.00038850427 0.43076009
-0.24855864 -0.00038898067 0.4312883
-0.18948951 -0.0060863867 0.44989169
-0.20964599 -0.040026929 0.43941063
-0.21974532 -0.0018910958 0.41935632
-0.19030453 -0.0020288329 0.44989997
-0.1931538 -0.0003966197 0.43975821
-0.19970311 -0.0042655035 0.42994934
-0.20125 -0.00038776491 0.42994034
-0.22849722 -0.044418897 0.44369495
-0.23932546 -0.00038415001 0.42593226
-0.18950231 -0.015825676 0.44992208
-0.2185639 -0.01704571 0.41999322
-0.19033235 -0.019885469 0.44996575
-0.19971161 -0.019001687 0.42996761
-0.19243915 -0.019442307 0.43993789
-0.20035374 -0.019764101 0.42968142
-0.19414179 -0.028776759 0.44938979
-0.23243052 -0.043605726 0.44356441
-0.24781139 -0.0027146789 0.42999172
-0.1976389 -0.029705247 0.43914866
-0.19989076 0.014191028 0.44955775
-0.20034167 -0.029404355 0.43470043
-0.21992122 -0.019371299 0.42114168
-0.23959365 0.017880123 0.4405525
-0.24846135 -0.028653521 0.43520594
-0.24715908 -0.031929642 0.43706769
-0.20895225 0.017842222 0.43961865
-0.21927974 -0.029570121 0.42579648
-0.23263504 0.020211902 0.43941683
-0.24764691 -0.019765247 0.42970631
-0.1993628 -0.032104149 0.43945643
-0.2382122 -0.040032331 0.43946996
-0.19925995 0.0099035762 0.4392297
-0.20969057 -0.032170642 0.42975536
-0.20965669 -0.042580176 0.44963264
-0.21982895 -0.00037967003 0.42096502
-0.20966662 0.0089137387 0.42970631
-0.19998744 -0.036103211 0.44977519
-0.21938506 0.0096390629 0.42749837
-0.20395406 -0.039331101 0.44957694
-0.21224809 0.019439545 0.43987539
-0.22992826 -0.028789014 0.42560351
-0.21943751 -0.043252602 0.43997237
-0.22943544 -0.0034018436 0.41909406
-0.19510007 0.0085178819 0.44973016
-0.20809019 -0.039239865 0.43947276
-0.23926055 -0.038234387 0.4370409
-0.19957666 0.010712863 0.43992785
-0.20976593 -0.029745812 0.42832634
-0.24027741 -0.039318122 0.44034922
-0.22991365 -0.036057282 0.42988247
-0.22944714 -0.015498077 0.41911542
-0.22937122 0.019278198 0.43622449
-0.23942342 -0.029782882 0.42886013
-0.22809887 -0.043239612 0.43984026
-0.23201653 -0.0064343899 0.41966054
-0.21013685 -0.039969534 0.43878055
-0.23909532 0.016993551 0.43818283
-0.24699381 -0.022101486 0.42991868
-0.21977693 0.020987706 0.43906498
-0.22994891 -0.018623961 0.42142048
-0.25028425 -0.02632503 0.43564603
-0.22942552 -0.039475262 0.4333545
-0.22959985 0.021016913 0.43967596
-0.23975275 -0.019563824 0.4253273
-0.22999838 -0.0011404878 0.42151117
-0.21723798 -0.044903941 0.44853997
-0.23977388 -0.03060119 0.42948788
-0.23199219 -0.012488975 0.41961649
-0.20016004 0.0098698251 0.43773282
-0.21968177 -0.036032461 0.4295865
