# .PCD v0.7 - Point Cloud Data file format
VERSION 0.7
FIELDS x y z
SIZE 4 4 4
TYPE F F F
COUNT 1 1 1
WIDTH 1318
HEIGHT 1
VIEWPOINT 0 0 0 1 0 0 0
POINTS 1318
DATA ascii
-0.19327299 -0.015351622 0.43644482
-0.19284138 -0.015379988 0.43725124
-0.19242512 -0.015409814 0.43809921
-0.19202344 -0.01544106 0.43898752
-0.19163817 -0.01547389 0.43992087
-0.19126996 -0.015508375 0.44090128
-0.1909246 -0.015545009 0.44194278
-0.19059986 -0.015583635 0.44304094
-0.19029953 -0.015624593 0.44420534
-0.19003502 -0.015668849 0.44546354
-0.18980448 -0.015716296 0.44681242
-0.18962309 -0.015768232 0.44828898
-0.18950231 -0.015825676 0.44992208
-0.24684082 -0.014292818 0.42830762
-0.24564518 -0.014268244 0.42757124
-0.24449228 -0.014246006 0.42690486
-0.24337053 -0.01422545 0.42628884
-0.24227624 -0.014206372 0.42571715
-0.24120227 -0.014188369 0.42517763
-0.24014483 -0.014171226 0.42466393
-0.23910101 -0.01415478 0.42417109
-0.23806687 -0.014138803 0.42369232
-0.23703562 -0.014122896 0.42321563
-0.23599938 -0.014106587 0.4227269
-0.23494771 -0.014089247 0.4222073
-0.23385666 -0.014069425 0.42161331
-0.23265325 -0.014042691 0.42081219
-0.23119935 -0.014000616 0.41955131
-0.22982374 -0.013963019 0.41842467
-0.22865731 -0.013937924 0.41767266
-0.22764082 -0.013921835 0.41719052
-0.22667626 -0.013908825 0.41680065
-0.22577791 -0.013899804 0.41653034
-0.22494219 -0.013894593 0.41637418
-0.2241488 -0.013891969 0.41629553
-0.22339076 -0.013891526 0.41628227
-0.22267015 -0.013893416 0.41633889
-0.22198765 -0.013897704 0.4164674
-0.22131856 -0.013902863 0.41662201
-0.22068079 -0.013910033 0.41683686
-0.22005062 -0.013917732 0.41706756
-0.21945003 -0.013927361 0.4173561
-0.21885124 -0.013937171 0.41765007
-0.21827191 -0.013948292 0.41798332
-0.21771625 -0.013961007 0.41836438
-0.21717328 -0.013974627 0.41877255
-0.21664472 -0.013989275 0.41921148
-0.21613067 -0.014004964 0.41968164
-0.21561979 -0.01402097 0.42016128
-0.2151005 -0.014036541 0.42062786
-0.21456283 -0.014051017 0.42106169
-0.2140042 -0.014064219 0.42145729
-0.21342689 -0.014076283 0.42181882
-0.21283565 -0.014087511 0.42215529
-0.21223548 -0.014098227 0.42247641
-0.21162927 -0.014108618 0.42278779
-0.21101758 -0.014118716 0.4230904
-0.21040301 -0.014128695 0.42338943
-0.20978612 -0.014138591 0.42368597
-0.20916811 -0.014148482 0.42398238
-0.20854931 -0.014158392 0.42427936
-0.20793076 -0.014168395 0.42457908
-0.2073127 -0.014178503 0.42488199
-0.20669618 -0.014188793 0.42519033
-0.20608088 -0.014199242 0.42550346
-0.20546709 -0.014209874 0.42582208
-0.20485497 -0.014220702 0.42614654
-0.20424508 -0.014231767 0.42647812
-0.20363684 -0.01424303 0.42681566
-0.2030316 -0.01425459 0.42716208
-0.20242904 -0.014266429 0.42751682
-0.20182902 -0.014278535 0.4278796
-0.20123236 -0.014290974 0.42825237
-0.20063913 -0.014303753 0.42863533
-0.2000495 -0.014316889 0.42902896
-0.19946542 -0.014330526 0.42943761
-0.19888721 -0.014344691 0.42986211
-0.19831604 -0.014359478 0.43030521
-0.19775401 -0.014375046 0.43077174
-0.19720148 -0.014391429 0.43126267
-0.19665967 -0.014408729 0.43178108
-0.19612949 -0.014427019 0.43232921
-0.19561312 -0.014446477 0.43291229
-0.19510844 -0.014466958 0.43352604
-0.19461694 -0.014488585 0.43417412
-0.19414085 -0.014511539 0.43486196
-0.19367826 -0.014535691 0.43558571
-0.19322935 -0.014561071 0.43634626
-0.19279538 -0.01458779 0.43714693
-0.19237635 -0.014615862 0.43798816
-0.19197322 -0.01464538 0.43887272
-0.19158562 -0.014676332 0.43980023
-0.19121523 -0.014708864 0.44077513
-0.19086534 -0.014743251 0.4418056
-0.19053814 -0.014779687 0.44289747
-0.19023575 -0.014818364 0.44405648
-0.18996254 -0.014859648 0.44529364
-0.18972805 -0.014904327 0.4466325
-0.18953747 -0.014952849 0.44808653
-0.1894083 -0.015006653 0.44969887
-0.24679598 -0.013517777 0.42822981
-0.24560361 -0.013494704 0.42749888
-0.24445103 -0.013473678 0.42683282
-0.24333134 -0.013454339 0.42622018
-0.24223523 -0.013436185 0.42564508
-0.24116032 -0.013419095 0.42510369
-0.24010073 -0.013402752 0.42458594
-0.2390542 -0.013387036 0.42408806
-0.23801488 -0.013371622 0.42359978
-0.23697504 -0.013356082 0.42310748
-0.23592594 -0.013339915 0.42259535
-0.23485166 -0.013322217 0.42203468
-0.23371057 -0.013300601 0.42134991
-0.23235027 -0.013266329 0.42026418
-0.23078504 -0.013220092 0.41879946
-0.22949964 -0.013189634 0.41783458
-0.2283977 -0.013169555 0.41719848
-0.22737911 -0.013154164 0.41671091
-0.2264218 -0.013142227 0.41633278
-0.22553363 -0.013134238 0.4160797
-0.22469981 -0.013129371 0.4159255
-0.22391555 -0.013127377 0.41586235
-0.22317469 -0.013127923 0.41587964
-0.22246897 -0.013130546 0.41596273
-0.22179186 -0.013134882 0.41610008
-0.22114509 -0.01314105 0.41629547
-0.22051017 -0.013147966 0.41651458
-0.21990053 -0.013156442 0.41678309
-0.21929274 -0.013165087 0.41705698
-0.21871154 -0.013175393 0.41738346
-0.21813977 -0.013186341 0.41773027
-0.21757464 -0.013197768 0.41809228
-0.21702865 -0.013210439 0.41849366
-0.21650589 -0.013224619 0.41894284
-0.21599792 -0.013239802 0.41942385
-0.21549608 -0.01325547 0.41992021
-0.21498993 -0.013270983 0.42041165
-0.21446975 -0.013285737 0.42087901
-0.21392855 -0.013299288 0.42130831
-0.21336485 -0.013311533 0.42169622
-0.21278368 -0.013322771 0.4220522
-0.21219076 -0.013333351 0.42238739
-0.21158941 -0.013343477 0.42270815
-0.21098249 -0.013353322 0.42302004
-0.21037124 -0.013362965 0.42332551
-0.20975728 -0.013372504 0.42362773
-0.20914127 -0.013381983 0.42392799
-0.2085243 -0.01339147 0.42422852
-0.20790705 -0.013401006 0.42453066
-0.20729052 -0.013410661 0.42483652
-0.20667492 -0.01342045 0.42514658
-0.20606034 -0.013430376 0.42546102
-0.20544732 -0.013440479 0.42578107
-0.2048358 -0.013450756 0.42610666
-0.20422608 -0.013461229 0.42643845
-0.20361885 -0.013471946 0.42677796
-0.20301339 -0.013482863 0.42712379
-0.20241103 -0.013494069 0.42747876
-0.20181134 -0.013505539 0.42784214
-0.20121466 -0.0135173 0.4282147
-0.20062132 -0.013529376 0.42859727
-0.20003238 -0.013541844 0.42899224
-0.19944707 -0.013554655 0.42939809
-0.19886795 -0.013567989 0.42982048
-0.19829644 -0.013581948 0.43026271
-0.1977329 -0.013596565 0.43072572
-0.19717935 -0.013611986 0.43121427
-0.19663696 -0.013628305 0.43173122
-0.19610479 -0.013645463 0.43227479
-0.1955858 -0.013663679 0.43285185
-0.19508027 -0.013682984 0.43346342
-0.19458747 -0.013703343 0.43410838
-0.19410805 -0.013724812 0.4347885
-0.19364454 -0.013747583 0.43550986
-0.1931943 -0.013771488 0.43626714
-0.19275835 -0.01379661 0.43706298
-0.19233721 -0.013823004 0.43789908
-0.19193201 -0.013850764 0.43877852
-0.1915433 -0.013879949 0.43970308
-0.19117105 -0.013910576 0.44067329
-0.19081859 -0.013942904 0.44169742
-0.19048864 -0.013977154 0.44278243
-0.19018291 -0.014013478 0.44393313
-0.18990582 -0.014052227 0.44516069
-0.18966612 -0.014094085 0.44648671
-0.18946779 -0.014139387 0.44792181
-0.18933299 -0.014189839 0.44952008
-0.2467673 -0.012743851 0.42818004
-0.24557619 -0.012722158 0.42745116
-0.24442466 -0.012702384 0.42678678
-0.24330424 -0.012684107 0.4261727
-0.2422082 -0.012666989 0.42559758
-0.2411312 -0.012650763 0.42505237
-0.24007002 -0.012635265 0.42453164
-0.23902026 -0.012620269 0.42402783
-0.23797555 -0.012605446 0.4235298
-0.23692782 -0.012590367 0.42302316
-0.23586594 -0.012574436 0.42248788
-0.2347662 -0.012556377 0.42188111
-0.2335553 -0.012532235 0.42106998
-0.23199219 -0.012488975 0.41961649
-0.23048617 -0.012448517 0.41825712
-0.22925998 -0.012422955 0.41739827
-0.2281725 -0.012404765 0.41678712
-0.22714593 -0.012389777 0.41628355
-0.22619668 -0.012378923 0.41591883
-0.22530627 -0.012371226 0.41566023
-0.22447482 -0.012366726 0.41550905
-0.22369957 -0.012365303 0.41546121
-0.22297153 -0.012366489 0.41550106
-0.2222829 -0.012369875 0.41561484
-0.22162497 -0.012374998 0.41578698
-0.2209871 -0.01238128 0.41599804
-0.22036965 -0.012388754 0.41624916
-0.21976329 -0.012396904 0.41652298
-0.21917668 -0.012406227 0.41683623
-0.21859059 -0.012415645 0.41715264
-0.21801987 -0.012426003 0.41750067
-0.21746728 -0.01243747 0.41788596
-0.21692576 -0.012449652 0.41829526
-0.21639688 -0.012462648 0.4187319
-0.21588571 -0.012476758 0.41920599
-0.2153879 -0.012491741 0.41970941
-0.2148941 -0.012507064 0.42022425
-0.21438862 -0.012521813 0.4207198
-0.21386206 -0.012535431 0.42117736
-0.21331143 -0.012547731 0.42159063
-0.21273983 -0.012558881 0.42196524
-0.21215414 -0.012569276 0.42231449
-0.2115581 -0.01257913 0.4226456
-0.21095468 -0.012588616 0.4229643
-0.21034692 -0.01259791 0.42327657
-0.20973536 -0.012607044 0.42358345
-0.2091216 -0.012616111 0.42388812
-0.2085062 -0.012625146 0.42419168
-0.2078903 -0.012634218 0.42449647
-0.20727473 -0.012643375 0.42480418
-0.20665973 -0.012652637 0.42511535
-0.20604616 -0.012662055 0.42543179
-0.20543356 -0.012671603 0.42575258
-0.20482263 -0.012681326 0.42607927
-0.20421332 -0.012691223 0.42641181
-0.20360611 -0.012701326 0.42675126
-0.20300147 -0.012711667 0.42709869
-0.2023986 -0.012722197 0.4274525
-0.20179921 -0.012733028 0.42781642
-0.20120321 -0.012744157 0.42819032
-0.20060952 -0.012755519 0.42857206
-0.20002031 -0.012767253 0.42896634
-0.19943543 -0.012779358 0.42937303
-0.19885544 -0.01279187 0.42979345
-0.19828284 -0.012804958 0.43023318
-0.19771901 -0.012818717 0.43069547
-0.19716372 -0.012833141 0.43118009
-0.19662014 -0.012848444 0.43169427
-0.19608711 -0.012864562 0.43223581
-0.19556585 -0.012881583 0.43280768
-0.19505918 -0.012899705 0.43341658
-0.19456555 -0.012918839 0.43405947
-0.1940852 -0.012939014 0.43473729
-0.19361836 -0.012960255 0.435451
-0.19316784 -0.012982767 0.43620738
-0.19273137 -0.013006411 0.43700179
-0.19230846 -0.013031169 0.43783361
-0.19190072 -0.013057162 0.43870696
-0.1915099 -0.013084528 0.43962643
-0.19113742 -0.013113379 0.44059578
-0.19078322 -0.013143728 0.44161552
-0.19045024 -0.013175803 0.44269317
-0.19014364 -0.01320998 0.44384149
-0.18986376 -0.013246309 0.4450621
-0.18961897 -0.013285406 0.44637573
-0.18941796 -0.013327916 0.447804
-0.189275 -0.013374892 0.44938236
-0.24675293 -0.011970799 0.42815512
-0.2455627 -0.011950461 0.42742768
-0.24441168 -0.011931909 0.42676413
-0.24329036 -0.011914694 0.42614841
-0.24219348 -0.01189857 0.42557171
-0.24111533 -0.011883267 0.42502439
-0.24005176 -0.011868589 0.42449936
-0.23899926 -0.011854363 0.42399058
-0.23794991 -0.011840204 0.42348415
-0.23689538 -0.011825696 0.42296523
-0.23582022 -0.01181006 0.42240599
-0.23469546 -0.011791831 0.421754
-0.23339683 -0.011764718 0.42078429
-0.23169474 -0.011717026 0.4190785
-0.23025796 -0.011682482 0.41784298
-0.22908047 -0.01166091 0.41707143
-0.2279768 -0.011642966 0.41642964
-0.22695583 -0.011629142 0.41593516
-0.22599159 -0.011618142 0.41554174
-0.22509392 -0.011610501 0.41526848
-0.22426456 -0.011606347 0.41511986
-0.22350034 -0.011605546 0.41509122
-0.22279026 -0.011607559 0.41516325
-0.22211975 -0.011611656 0.41530979
-0.22147802 -0.01161729 0.41551128
-0.22085619 -0.01162401 0.41575164
-0.22025187 -0.0116317 0.41602668
-0.21965618 -0.011639901 0.41631997
-0.21907124 -0.011648728 0.41663569
-0.21850263 -0.011658488 0.41698477
-0.21793811 -0.011668535 0.41734412
-0.21737942 -0.011678964 0.41771713
-0.21683426 -0.011690195 0.41811883
-0.21630833 -0.011702544 0.41856053
-0.21580014 -0.011715945 0.41903982
-0.21530662 -0.011730238 0.41955104
-0.21481787 -0.011744892 0.42007518
-0.21432245 -0.011759285 0.42058995
-0.21380788 -0.011772725 0.42107067
-0.21326919 -0.011784929 0.42150715
-0.21270663 -0.011795895 0.42189938
-0.21212678 -0.011805979 0.42226002
-0.21153542 -0.011815492 0.4226003
-0.21093604 -0.011824625 0.42292693
-0.21033068 -0.011833486 0.42324388
-0.20972121 -0.011842181 0.42355487
-0.20910886 -0.011850776 0.42386228
-0.20849514 -0.011859356 0.42416918
-0.20788047 -0.011867946 0.42447639
-0.20726568 -0.011876591 0.42478561
-0.20665151 -0.011885338 0.42509842
-0.20603819 -0.011894197 0.42541531
-0.20542593 -0.011903185 0.42573678
-0.20481579 -0.011912363 0.42606503
-0.2042069 -0.011921683 0.4263984
-0.20359994 -0.011931187 0.42673832
-0.20299551 -0.011940912 0.42708614
-0.20239335 -0.011950846 0.42744145
-0.20179361 -0.011960998 0.42780456
-0.20119716 -0.011971424 0.42817748
-0.20060408 -0.011982132 0.42856044
-0.20001455 -0.011993135 0.42895401
-0.19942902 -0.012004465 0.42935923
-0.19884889 -0.01201621 0.42977929
-0.19827598 -0.012028485 0.43021831
-0.1977112 -0.012041351 0.43067849
-0.1971557 -0.012054885 0.43116257
-0.19661014 -0.012069138 0.43167233
-0.19607656 -0.012084241 0.43221253
-0.19555469 -0.01210019 0.43278298
-0.19504572 -0.012117069 0.43338668
-0.19455124 -0.012134987 0.43402755
-0.1940704 -0.012153904 0.43470415
-0.19360283 -0.012173809 0.43541607
-0.19315077 -0.012194856 0.43616885
-0.19271308 -0.012216985 0.43696034
-0.19228946 -0.012240192 0.43779036
-0.19188035 -0.012264517 0.43866041
-0.19148877 -0.012290169 0.43957791
-0.19111446 -0.012317147 0.44054282
-0.19075835 -0.012345529 0.44155794
-0.19042312 -0.012375507 0.44263011
-0.19011492 -0.012407499 0.4437744
-0.18983373 -0.012441535 0.44499171
-0.18958572 -0.012478041 0.44629741
-0.18938302 -0.012517854 0.44772139
-0.18923199 -0.012561438 0.44928026
-0.24675377 -0.011198527 0.42815655
-0.2455636 -0.011179504 0.42742923
-0.24441144 -0.011162098 0.42676371
-0.2432899 -0.011145983 0.42614761
-0.24219166 -0.011130837 0.42556852
-0.24111202 -0.011116453 0.42501855
-0.24004744 -0.011102673 0.4244917
-0.23899242 -0.011089249 0.42397845
-0.23793899 -0.011075811 0.42346472
-0.23687787 -0.011061929 0.42293397
-0.23579322 -0.011046855 0.42235762
-0.23464495 -0.011028693 0.42166322
-0.23324996 -0.010998779 0.4205195
-0.2314841 -0.010951124 0.41869751
-0.23012973 -0.010922687 0.41761029
-0.22893053 -0.010901454 0.41679844
-0.22783162 -0.010884872 0.41616446
-0.2267881 -0.010870835 0.41562778
-0.22580841 -0.010859774 0.41520491
-0.22489746 -0.010851957 0.41490602
-0.22406784 -0.010848025 0.4147557
-0.22331746 -0.010847917 0.41475156
-0.22262894 -0.010850822 0.41486263
-0.22198088 -0.010855727 0.41505015
-0.22135846 -0.010861921 0.41528699
-0.22075294 -0.010868991 0.41555727
-0.22015892 -0.010876676 0.41585112
-0.21957675 -0.010885001 0.4161694
-0.21899872 -0.01089359 0.41649777
-0.21842723 -0.010902564 0.41684088
-0.21787055 -0.010912341 0.41721472
-0.21732219 -0.010922606 0.41760716
-0.21678269 -0.010933388 0.41801938
-0.21625395 -0.01094479 0.41845533
-0.21574132 -0.01095709 0.41892561
-0.21524601 -0.010970359 0.41943291
-0.21476033 -0.010984215 0.41996267
-0.21427314 -0.010998091 0.42049319
-0.21376857 -0.011011169 0.42099324
-0.21323928 -0.011023064 0.42144802
-0.21268387 -0.01103369 0.42185426
-0.21210985 -0.011043421 0.42222634
-0.21152239 -0.011052521 0.42257425
-0.21092582 -0.011061209 0.42290643
-0.21032263 -0.011069613 0.4232277
-0.20971504 -0.011077844 0.42354241
-0.20910423 -0.011085964 0.42385289
-0.20849149 -0.011094043 0.42416176
-0.20787756 -0.011102117 0.42447045
-0.2072634 -0.011110238 0.42478094
-0.20664974 -0.011118446 0.42509478
-0.20603706 -0.011126769 0.42541298
-0.20542532 -0.011135205 0.4257355
-0.20481543 -0.011143804 0.42606428
-0.20420678 -0.011152537 0.42639816
-0.20360003 -0.011161439 0.42673853
-0.20299542 -0.011170526 0.42708597
-0.20239355 -0.011179834 0.42744184
-0.20179376 -0.011189329 0.42780486
-0.20119765 -0.011199102 0.42817852
-0.20060468 -0.011209125 0.42856172
-0.2000145 -0.011219382 0.42895389
-0.19942947 -0.011230009 0.42936018
-0.1988489 -0.011240971 0.42977932
-0.19827491 -0.011252392 0.43021598
-0.1977102 -0.011264431 0.43067628
-0.19715345 -0.011277022 0.43115765
-0.19660676 -0.011290289 0.43166488
-0.19607303 -0.011304409 0.43220475
-0.19555099 -0.011319319 0.43277481
-0.1950406 -0.011335025 0.4333753
-0.19454487 -0.011351713 0.43401334
-0.1940632 -0.01136936 0.43468803
-0.19359522 -0.011387954 0.43539894
-0.19314158 -0.011407548 0.43614808
-0.19270316 -0.011428203 0.43693784
-0.19227889 -0.011449872 0.43776628
-0.19187021 -0.011472652 0.43863723
-0.19147588 -0.011496481 0.43954831
-0.19110122 -0.011521695 0.44051233
-0.19074541 -0.011548261 0.44152802
-0.19040935 -0.011576249 0.4425981
-0.19009843 -0.01160601 0.44373593
-0.18981576 -0.011637753 0.4449496
-0.18956582 -0.011671781 0.44625059
-0.18936074 -0.011708872 0.44766873
-0.18920656 -0.011749444 0.44921988
-0.24676989 -0.010426897 0.42818454
-0.24557862 -0.010409141 0.4274554
-0.24442582 -0.010392909 0.42678881
-0.243303 -0.010377853 0.42617056
-0.24220383 -0.010363714 0.42558992
-0.24112271 -0.010350259 0.42503738
-0.2400565 -0.010337361 0.42450774
-0.2389998 -0.010324791 0.42399153
-0.23794352 -0.010312159 0.42347279
-0.23687869 -0.010299074 0.42293543
-0.23578547 -0.010284665 0.42234373
-0.23461811 -0.01026692 0.421615
-0.23314281 -0.010235538 0.42032632
-0.2313716 -0.010190919 0.41849402
-0.23002401 -0.010164727 0.41741845
-0.22884338 -0.010145766 0.41663978
-0.22772998 -0.01012967 0.41597879
-0.22666651 -0.010115695 0.41540495
-0.22565871 -0.010104122 0.41492966
-0.22472255 -0.010095689 0.41458336
-0.22388493 -0.010091641 0.41441715
-0.22315566 -0.010092467 0.41445106
-0.22249803 -0.010096549 0.4146187
-0.22187507 -0.010102238 0.41485229
-0.22127125 -0.010108839 0.41512337
-0.22068033 -0.010116076 0.41542056
-0.22009654 -0.010123691 0.41573328
-0.21952184 -0.010131777 0.41606534
-0.21895379 -0.010140226 0.41641232
-0.21838903 -0.010148888 0.41676801
-0.21782964 -0.010157859 0.4171364
-0.21727909 -0.010167305 0.41752434
-0.2167394 -0.010177328 0.41793591
-0.21621245 -0.010188021 0.41837502
-0.21570244 -0.010199591 0.41885012
-0.21520977 -0.010212063 0.41936231
-0.21472748 -0.010225118 0.41989842
-0.21424437 -0.010238227 0.42043671
-0.21374556 -0.010250675 0.42094794
-0.21322286 -0.010262063 0.42141557
-0.21267428 -0.010272281 0.42183521
-0.21210356 -0.010281501 0.42221382
-0.211519 -0.010290113 0.42256749
-0.2109243 -0.010298293 0.42290339
-0.21032342 -0.010306229 0.42322928
-0.20971681 -0.010313941 0.42354599
-0.20910697 -0.010321551 0.42385846
-0.20849481 -0.010329101 0.42416853
-0.20788178 -0.010336664 0.42447907
-0.20726797 -0.010344243 0.42479032
-0.20665491 -0.010351916 0.42510542
-0.2060426 -0.010359684 0.42542443
-0.20543107 -0.01036755 0.42574742
-0.20482104 -0.01037555 0.42607597
-0.20421262 -0.010383693 0.42641035
-0.20360625 -0.010392002 0.42675155
-0.20300187 -0.010400475 0.42709953
-0.20239963 -0.010409123 0.42745468
-0.20180063 -0.010418006 0.42781943
-0.20120391 -0.010427074 0.42819181
-0.20061079 -0.0104364 0.42857477
-0.20002095 -0.010445969 0.42896774
-0.19943538 -0.010455836 0.42937294
-0.19885482 -0.010466043 0.42979211
-0.19828083 -0.010476678 0.43022883
-0.19771492 -0.010487826 0.43068659
-0.19715826 -0.010499552 0.43116817
-0.19661142 -0.010511898 0.43167514
-0.19607675 -0.010524995 0.43221298
-0.19555393 -0.010538834 0.43278131
-0.1950434 -0.01055345 0.43338153
-0.19454667 -0.010568934 0.43401736
-0.19406492 -0.010585358 0.43469185
-0.19359665 -0.010602656 0.43540215
-0.19314118 -0.010620798 0.43614715
-0.1927029 -0.010640037 0.43693724
-0.19227836 -0.010660197 0.43776509
-0.19186933 -0.010681386 0.43863523
-0.19147485 -0.010703564 0.43954596
-0.19109946 -0.010726997 0.44050828
-0.19074249 -0.010751665 0.44152126
-0.19040653 -0.010777729 0.44259158
-0.19009313 -0.010805294 0.44372356
-0.18981101 -0.010834878 0.44493845
-0.18956043 -0.010866521 0.44623789
-0.18935338 -0.010900941 0.44765133
-0.18919767 -0.010938624 0.44919881
-0.24680091 -0.0096557476 0.42823836
-0.24560796 -0.0096392445 0.42750645
-0.24445359 -0.0096241571 0.42683733
-0.24332975 -0.0096101798 0.42621741
-0.24222919 -0.0095970361 0.42563447
-0.24114767 -0.0095845656 0.4250814
-0.24008027 -0.0095725786 0.42454976
-0.2390217 -0.0095608681 0.42403039
-0.2379643 -0.0095491298 0.42350978
-0.23689675 -0.0095369061 0.42296767
-0.23580012 -0.0095234299 0.42236999
-0.23462382 -0.0095066382 0.42162526
-0.23310687 -0.0094758896 0.42026153
-0.23133765 -0.0094346516 0.41843262
-0.23000915 -0.0094111767 0.41739148
-0.22881424 -0.0093930308 0.41658673
-0.22768044 -0.009377283 0.41588831
-0.22660063 -0.0093636625 0.41528422
-0.22556408 -0.0093517443 0.41475564
-0.22458553 -0.0093421601 0.41433057
-0.22372124 -0.0093372799 0.41411415
-0.22303317 -0.009339748 0.41422358
-0.22241102 -0.0093450006 0.41445655
-0.22181389 -0.0093513438 0.41473788
-0.22122514 -0.0093580857 0.41503686
-0.220644 -0.0093651954 0.4153522
-0.22006774 -0.0093725612 0.41567889
-0.21949734 -0.0093802279 0.4160189
-0.2189326 -0.0093881907 0.41637203
-0.21837372 -0.0093964599 0.41673878
-0.21782097 -0.0094050504 0.4171198
-0.21727331 -0.0094139213 0.41751322
-0.21673501 -0.0094232615 0.41792744
-0.21620728 -0.0094331279 0.41836503
-0.21569447 -0.0094437161 0.41883463
-0.2151991 -0.0094551444 0.4193415
-0.21471643 -0.0094672143 0.41987681
-0.21423577 -0.0094794584 0.42041984
-0.21374115 -0.0094911708 0.42093927
-0.21322241 -0.0095018903 0.4214147
-0.21267666 -0.0095114792 0.42183995
-0.21210901 -0.0095201535 0.42222467
-0.21152587 -0.0095281927 0.42258123
-0.21093293 -0.0095358463 0.42292067
-0.21033251 -0.0095432177 0.42324758
-0.20972675 -0.0095503982 0.42356607
-0.20911767 -0.00955748 0.42388013
-0.20850582 -0.0095644873 0.42419091
-0.20789291 -0.0095714964 0.42450178
-0.20727971 -0.0095785446 0.42481437
-0.20666665 -0.0095856516 0.42512956
-0.20605467 -0.0095928619 0.42544934
-0.20544319 -0.0096001485 0.42577252
-0.20483314 -0.0096075581 0.42610112
-0.2042252 -0.0096151223 0.4264366
-0.20361868 -0.0096228113 0.4267776
-0.20301434 -0.0096306615 0.42712578
-0.20241235 -0.0096386839 0.42748156
-0.20181294 -0.0096468907 0.42784554
-0.20121631 -0.0096552931 0.42821822
-0.20062305 -0.0096639236 0.42860097
-0.20003326 -0.009672788 0.42899412
-0.19944741 -0.0096819131 0.4293988
-0.19886695 -0.0096913725 0.42981833
-0.19829245 -0.0097011961 0.43025404
-0.19772668 -0.0097115263 0.43071219
-0.19716978 -0.0097223753 0.43119335
-0.19662252 -0.0097337887 0.43169951
-0.19608745 -0.0097458968 0.43223655
-0.19556451 -0.0097587081 0.43280473
-0.19505388 -0.0097722383 0.4334048
-0.19455667 -0.0097865527 0.43403965
-0.19407414 -0.0098017249 0.43471253
-0.19360539 -0.0098177176 0.43542182
-0.19315057 -0.0098345503 0.43616837
-0.19271164 -0.009852333 0.43695706
-0.19228677 -0.0098709846 0.43778425
-0.19187765 -0.009890601 0.43865424
-0.19148323 -0.0099111404 0.43956518
-0.19110751 -0.0099328225 0.44052681
-0.19075061 -0.0099556688 0.44154006
-0.1904147 -0.0099798059 0.44261056
-0.19010083 -0.010005306 0.44374153
-0.18981929 -0.010032732 0.44495785
-0.18956807 -0.010062 0.44625589
-0.18936183 -0.010093914 0.44767132
-0.18920425 -0.010128707 0.4492144
-0.24684697 -0.0088849459 0.42831829
-0.24565123 -0.0088696675 0.42758179
-0.24449521 -0.0088557322 0.42690998
-0.24337006 -0.0088428296 0.42628801
-0.24226864 -0.0088307112 0.42570379
-0.24118598 -0.008819201 0.42514893
-0.2401171 -0.0088081239 0.42461491
-0.23905876 -0.0087973624 0.42409614
-0.23800083 -0.008786547 0.42357478
-0.23693317 -0.0087753022 0.4230327
-0.23583761 -0.0087629482 0.42243713
-0.23466435 -0.0087476177 0.42169809
-0.23316179 -0.0087198718 0.42036054
-0.23137183 -0.0086811613 0.41849443
-0.23002999 -0.0086590666 0.4174293
-0.22882904 -0.0086421473 0.41661367
-0.22769597 -0.0086276894 0.41591668
-0.22660802 -0.0086148502 0.41529775
-0.2255591 -0.0086034155 0.41474649
-0.22455059 -0.0085934503 0.41426611
-0.22360204 -0.0085857213 0.41389352
-0.22299623 -0.0085911453 0.41415498
-0.22239806 -0.0085968999 0.41443241
-0.22180969 -0.0086030737 0.41473004
-0.22122622 -0.0086094802 0.41503888
-0.22064796 -0.0086161345 0.41535965
-0.22007449 -0.0086230207 0.41569161
-0.2195048 -0.0086301034 0.41603306
-0.21894024 -0.0086374367 0.41638657
-0.21838 -0.0086449916 0.41675076
-0.21782529 -0.0086528184 0.41712809
-0.21727809 -0.0086609991 0.41752243
-0.21674027 -0.0086696101 0.41793758
-0.21621315 -0.0086787129 0.41837639
-0.21570161 -0.0086885057 0.41884848
-0.21520792 -0.0086990902 0.4193587
-0.21472752 -0.0087102875 0.41989851
-0.21424788 -0.0087215956 0.42044362
-0.21375522 -0.0087324511 0.42096695
-0.21323808 -0.0087423809 0.42144564
-0.21269366 -0.0087512601 0.42187366
-0.21212626 -0.0087592527 0.422259
-0.2115438 -0.00876668 0.42261702
-0.21095079 -0.0087737218 0.4229565
-0.21035069 -0.0087805195 0.42328417
-0.20974526 -0.0087871421 0.42360345
-0.20913647 -0.0087936725 0.42391825
-0.20852479 -0.0088001285 0.4242295
-0.207912 -0.0088065853 0.42454076
-0.20729834 -0.0088130534 0.42485255
-0.20668535 -0.0088195978 0.42516804
-0.20607287 -0.008826212 0.42548692
-0.20546181 -0.008832938 0.42581114
-0.20485207 -0.0088397702 0.42614052
-0.20424353 -0.0088467058 0.42647487
-0.20363708 -0.0088537857 0.42681617
-0.20303269 -0.008861009 0.42716438
-0.20243073 -0.0088683935 0.42752036
-0.20183134 -0.0088759484 0.42788455
-0.20123473 -0.008883683 0.42825741
-0.20064148 -0.0088916263 0.42864034
-0.20005149 -0.0088997763 0.42903322
-0.19946583 -0.0089081824 0.42943847
-0.19888537 -0.0089168875 0.42985812
-0.19831078 -0.008925925 0.4302938
-0.1977443 -0.0089354003 0.43075058
-0.19718759 -0.0089453934 0.4312323
-0.19664064 -0.0089559108 0.4317393
-0.19610518 -0.0089670355 0.43227562
-0.19558197 -0.0089788139 0.43284339
-0.19507104 -0.0089912508 0.43344295
-0.19457425 -0.009004442 0.43407887
-0.19409202 -0.0090184165 0.43475255
-0.19362321 -0.0090331314 0.43546191
-0.19316846 -0.0090486249 0.43620878
-0.19272946 -0.0090649845 0.43699747
-0.19230479 -0.0090821562 0.43782526
-0.19189569 -0.0091002081 0.43869549
-0.19150114 -0.0091191018 0.43960631
-0.19112544 -0.0091390545 0.44056815
-0.19076942 -0.0091601182 0.44158357
-0.19043359 -0.0091823321 0.44265446
-0.19012135 -0.0092058759 0.44378942
-0.18983932 -0.0092310878 0.44500482
-0.18958831 -0.0092580272 0.44630352
-0.18938306 -0.0092874421 0.44772151
-0.18922848 -0.0093196034 0.44927192
-0.24690898 -0.0081143798 0.42842588
-0.24570878 -0.0081002899 0.42768195
-0.24455155 -0.0080875317 0.42700836
-0.24342392 -0.008075675 0.42638236
-0.2423214 -0.0080645792 0.42579651
-0.24123758 -0.0080540366 0.42523989
-0.24016839 -0.0080439178 0.42470559
-0.23911008 -0.0080340989 0.42418718
-0.23805322 -0.008024266 0.42366803
-0.23698811 -0.0080140913 0.42313081
-0.23589745 -0.0080029834 0.42254433
-0.23474053 -0.0079895481 0.42183498
-0.23330177 -0.007966402 0.4206129
-0.23148721 -0.0079302313 0.41870314
-0.23011473 -0.0079090167 0.41758308
-0.2289055 -0.0078932932 0.41675287
-0.227778 -0.0078802938 0.41606653
-0.22669674 -0.0078688124 0.41546035
-0.22566003 -0.0078588072 0.41493207
-0.22467875 -0.0078506721 0.41450256
-0.22381626 -0.0078466469 0.41429004
-0.22310597 -0.0078479489 0.41435876
-0.22247303 -0.007851989 0.41457209
-0.22187011 -0.0078571206 0.41484302
-0.22127858 -0.0078626908 0.41513711
-0.22069578 -0.0078686103 0.41544965
-0.22011848 -0.0078747664 0.4157747
-0.21954586 -0.0078811338 0.41611087
-0.21897858 -0.0078877369 0.4164595
-0.21841796 -0.007894625 0.41682321
-0.21786444 -0.0079018194 0.41720304
-0.21731851 -0.0079093389 0.41760007
-0.21678042 -0.0079171984 0.41801503
-0.21625371 -0.0079255281 0.41845486
-0.21574265 -0.007934493 0.41892818
-0.21524756 -0.0079441108 0.41943595
-0.21476527 -0.0079542687 0.4199723
-0.21428403 -0.0079645393 0.42051455
-0.21378934 -0.0079743806 0.42103416
-0.2132701 -0.0079833725 0.42150894
-0.2127239 -0.0079914164 0.42193362
-0.21215558 -0.0079986844 0.42231736
-0.2115722 -0.0080054346 0.42267376
-0.21097894 -0.0080118589 0.42301294
-0.21037814 -0.008018042 0.4233394
-0.20977208 -0.0080240685 0.42365763
-0.20916271 -0.0080300122 0.42397144
-0.20855099 -0.0080359094 0.42428279
-0.20793793 -0.0080417981 0.42459372
-0.20732416 -0.0080477037 0.42490548
-0.20671079 -0.0080536669 0.42522037
-0.20609847 -0.0080597168 0.42553976
-0.20548707 -0.0080658477 0.42586347
-0.20487705 -0.0080720782 0.42619246
-0.20426874 -0.0080784252 0.42652753
-0.20366204 -0.0080848821 0.42686847
-0.2030571 -0.0080914591 0.42721573
-0.20245537 -0.0080982149 0.4275724
-0.20185553 -0.0081050973 0.42793581
-0.20125864 -0.008112153 0.42830831
-0.20066573 -0.008119422 0.42869213
-0.20007569 -0.0081268651 0.42908511
-0.19948989 -0.0081345392 0.42949027
-0.19890927 -0.0081424853 0.4299098
-0.19833523 -0.0081507629 0.43034688
-0.19776899 -0.0081594279 0.43080434
-0.19721229 -0.0081685567 0.43128633
-0.1966653 -0.0081781615 0.43179345
-0.19612963 -0.0081883147 0.43232954
-0.19560687 -0.0081990901 0.43289846
-0.19509602 -0.0082104541 0.43349844
-0.19459978 -0.0082225259 0.43413582
-0.19411735 -0.0082352823 0.43480933
-0.1936489 -0.0082487362 0.4355197
-0.19319418 -0.0082628876 0.43626687
-0.19275564 -0.0082778502 0.43705684
-0.19233254 -0.0082936008 0.43788844
-0.19192305 -0.0083100703 0.43875805
-0.19152948 -0.0083273686 0.43967137
-0.19115496 -0.0083456421 0.44063619
-0.19079891 -0.0083648795 0.44165185
-0.19046378 -0.0083851982 0.44272465
-0.19015321 -0.0084067732 0.44386381
-0.18987232 -0.0084298495 0.44508216
-0.18962201 -0.0084544849 0.44638288
-0.18941912 -0.0084814532 0.44780678
-0.18926769 -0.0085109668 0.44936505
-0.24698484 -0.0073438371 0.42855752
-0.24578258 -0.0073310346 0.4278104
-0.24462147 -0.0073193824 0.42713043
-0.24349207 -0.0073086089 0.42650172
-0.24238829 -0.0072985385 0.42591405
-0.24130334 -0.0072889719 0.42535579
-0.24023433 -0.0072798282 0.42482221
-0.23917593 -0.0072709485 0.42430401
-0.23812182 -0.0072621424 0.42379013
-0.23706044 -0.0072530569 0.42325994
-0.23597832 -0.0072432761 0.42268917
-0.23484057 -0.0072317198 0.42201477
-0.2334993 -0.0072137997 0.42096904
-0.23168412 -0.0071810735 0.41905928
-0.2302736 -0.0071607176 0.41787139
-0.22905853 -0.0071463254 0.4170315
-0.22792025 -0.0071342415 0.41632634
-0.22685495 -0.0071243704 0.41575029
-0.2258396 -0.0071160072 0.41526225
-0.2248951 -0.0071098288 0.4149017
-0.2240427 -0.0071065295 0.41470918
-0.22329363 -0.0071064974 0.4147073
-0.22262086 -0.0071089012 0.41484758
-0.22198865 -0.0071126213 0.41506466
-0.22137956 -0.0071171094 0.41532657
-0.22078435 -0.0071220757 0.41561639
-0.22019857 -0.0071273814 0.41592601
-0.21961948 -0.0071329405 0.41625041
-0.21905001 -0.0071388506 0.41659531
-0.21848834 -0.0071450574 0.4169575
-0.21793112 -0.0071514533 0.41733074
-0.21737994 -0.0071580918 0.41771814
-0.21683784 -0.0071650767 0.41812575
-0.21630859 -0.0071725366 0.41856107
-0.21579695 -0.007180634 0.41903362
-0.21530356 -0.0071893982 0.41954505
-0.21482217 -0.0071986262 0.42008358
-0.2143399 -0.0072078905 0.4206242
-0.2138422 -0.0072166994 0.42113826
-0.21331842 -0.0072246883 0.42160445
-0.21276888 -0.0072318581 0.42202285
-0.21219762 -0.0072383387 0.42240104
-0.21161176 -0.0072443667 0.4227528
-0.21101667 -0.0072501204 0.42308858
-0.2104148 -0.0072556827 0.42341316
-0.20980747 -0.0072610965 0.42372909
-0.20919722 -0.0072664479 0.42404139
-0.20858479 -0.0072717629 0.42435154
-0.20797111 -0.0072770738 0.42466146
-0.20735718 -0.0072824149 0.42497316
-0.20674351 -0.0072878045 0.42528766
-0.20613055 -0.0072932597 0.42560601
-0.20551898 -0.0072988048 0.42592961
-0.2049083 -0.0073044235 0.42625749
-0.20429979 -0.0073101623 0.42659238
-0.20369291 -0.0073160026 0.4269332
-0.20308816 -0.007321964 0.42728108
-0.20248607 -0.0073280674 0.42763725
-0.20188612 -0.0073342947 0.42800066
-0.20128913 -0.0073406785 0.42837319
-0.20069629 -0.0073472629 0.42875743
-0.20010623 -0.0073540006 0.42915061
-0.19952036 -0.0073609455 0.42955589
-0.1989395 -0.0073681297 0.42997512
-0.19836544 -0.0073756231 0.43041241
-0.1977995 -0.0073834788 0.43087083
-0.19724312 -0.0073917541 0.43135375
-0.19669652 -0.0074004629 0.43186197
-0.19616118 -0.0074096667 0.43239906
-0.19563912 -0.0074194474 0.43296984
-0.19512875 -0.0074297525 0.43357119
-0.19463255 -0.0074406806 0.43420893
-0.1941511 -0.0074522644 0.43488491
-0.19368334 -0.0074644699 0.43559715
-0.19322965 -0.0074773184 0.43634695
-0.19279228 -0.0074909064 0.4371399
-0.19236843 -0.0075051337 0.43797016
-0.19196077 -0.0075201122 0.43884423
-0.19156754 -0.0075357831 0.43975872
-0.19119439 -0.0075523769 0.44072708
-0.19083983 -0.0075698472 0.44174656
-0.19050536 -0.0075882641 0.44282129
-0.19019672 -0.0076078689 0.44396538
-0.18991882 -0.0076288739 0.44519114
-0.18967038 -0.0076512471 0.44649675
-0.1894711 -0.0076758009 0.44792962
-0.18932489 -0.0077027255 0.44950083
-0.24707909 -0.0065733087 0.42872104
-0.24587081 -0.0065617012 0.42796397
-0.24470508 -0.0065511595 0.42727643
-0.24357451 -0.0065414957 0.42664614
-0.24246842 -0.0065324297 0.42605484
-0.24138282 -0.0065238602 0.42549592
-0.24031377 -0.0065156841 0.42496267
-0.23925604 -0.0065077641 0.42444611
-0.23820435 -0.0064999582 0.42393699
-0.23714907 -0.0064920038 0.42341819
-0.23607777 -0.0064835576 0.42286733
-0.23496462 -0.006473904 0.42223769
-0.23371603 -0.0064604427 0.42135975
-0.23201653 -0.0064343899 0.41966054
-0.23047732 -0.0064126258 0.41824105
-0.22924557 -0.0063993013 0.41737202
-0.22812618 -0.0063890363 0.41670251
-0.22706218 -0.0063802595 0.41613007
-0.22606733 -0.0063733743 0.415681
-0.22513953 -0.0063683391 0.41535261
-0.22429094 -0.006365519 0.41516867
-0.22352049 -0.0063649048 0.41512862
-0.2228149 -0.0063661402 0.41520917
-0.22215442 -0.0063686767 0.41537461
-0.22152336 -0.006372076 0.41559634
-0.22091176 -0.0063760607 0.41585621
-0.22031271 -0.0063804365 0.4161416
-0.21972655 -0.006385216 0.41645333
-0.21915103 -0.0063903392 0.41678748
-0.21857783 -0.0063955649 0.41712829
-0.21801259 -0.0064010601 0.41748673
-0.21746126 -0.0064070043 0.4178744
-0.21692301 -0.0064133764 0.41828999
-0.21639736 -0.0064201658 0.41873282
-0.21588793 -0.0064274864 0.41921028
-0.21539323 -0.0064352988 0.41971982
-0.21490814 -0.006443454 0.4202517
-0.21441898 -0.0064515444 0.42077938
-0.21391362 -0.0064592031 0.42127889
-0.2133828 -0.0064661456 0.42173168
-0.21282588 -0.0064723436 0.42213592
-0.21225053 -0.0064780232 0.42250636
-0.21166208 -0.006483343 0.42285332
-0.21106407 -0.006488407 0.42318362
-0.21045996 -0.0064933202 0.42350405
-0.20985137 -0.00649813 0.42381775
-0.20923971 -0.0065028793 0.42412752
-0.20862642 -0.0065076132 0.42443627
-0.20801193 -0.0065123439 0.42474481
-0.20739688 -0.0065170927 0.42505452
-0.20678282 -0.0065219067 0.42536852
-0.20616953 -0.0065267822 0.42568651
-0.20555727 -0.0065317266 0.42600897
-0.20494644 -0.0065367534 0.42633682
-0.20433754 -0.0065418798 0.42667118
-0.20373027 -0.0065470976 0.42701149
-0.20312536 -0.0065524308 0.42735934
-0.20252275 -0.00655788 0.42771474
-0.20192285 -0.0065634577 0.42807853
-0.20132577 -0.0065691713 0.42845118
-0.20073271 -0.0065750601 0.42883524
-0.20014267 -0.0065810932 0.42922875
-0.19955686 -0.0065873135 0.42963445
-0.19897656 -0.0065937652 0.43005523
-0.19840172 -0.0066004484 0.43049112
-0.1978371 -0.006607526 0.43095273
-0.19728044 -0.0066149258 0.43143535
-0.19673452 -0.0066227461 0.43194541
-0.19620068 -0.0066310368 0.43248615
-0.19567873 -0.0066397968 0.43305749
-0.19516854 -0.0066490285 0.43365958
-0.1946744 -0.0066588828 0.4343023
-0.19419324 -0.0066692629 0.43497929
-0.19372581 -0.0066802003 0.43569267
-0.19327377 -0.0066917599 0.43644658
-0.19283672 -0.0067039351 0.43724066
-0.19241481 -0.0067167385 0.43807572
-0.19200774 -0.0067301677 0.43895161
-0.19161601 -0.0067442488 0.43987
-0.19124524 -0.0067591872 0.4408443
-0.19089119 -0.0067748437 0.44186544
-0.19055867 -0.0067913993 0.44294521
-0.1902533 -0.0068090656 0.44409743
-0.18997726 -0.0068279351 0.44532815
-0.18973304 -0.0068481141 0.44664425
-0.18953788 -0.0068702428 0.44808751
-0.18939823 -0.0068945824 0.44967496
-0.24718836 -0.0058025434 0.42891064
-0.24597424 -0.0057921722 0.42814401
-0.2448048 -0.0057827905 0.42745054
-0.24366932 -0.0057741543 0.42681217
-0.24256164 -0.0057661245 0.42621863
-0.24147575 -0.0057585631 0.42565972
-0.24040608 -0.0057513416 0.42512593
-0.23934983 -0.0057443958 0.42461249
-0.2383014 -0.0057375939 0.4241097
-0.23725221 -0.0057307296 0.42360231
-0.23619224 -0.0057235602 0.42307237
-0.23510239 -0.005715617 0.42248523
-0.23393168 -0.0057056509 0.42174855
-0.23244278 -0.0056878333 0.42043152
-0.23078239 -0.0056656888 0.41879466
-0.22950731 -0.0056528896 0.41784856
-0.22836043 -0.0056431736 0.41713038
-0.22731522 -0.0056359149 0.41659382
-0.22632952 -0.0056300876 0.41616309
-0.22540918 -0.0056258533 0.4158501
-0.22455588 -0.0056232694 0.4156591
-0.22376996 -0.0056223609 0.41559196
-0.22304012 -0.00562286 0.41562885
-0.22235468 -0.0056244861 0.41574904
-0.22170167 -0.0056269458 0.41593087
-0.22107367 -0.0056300596 0.41616103
-0.22045918 -0.0056335395 0.41641825
-0.2198647 -0.0056375563 0.41671517
-0.21927363 -0.0056416886 0.41702062
-0.21869574 -0.0056461897 0.41735333
-0.21813491 -0.0056511634 0.41772097
-0.21758011 -0.0056563285 0.41810277
-0.21703362 -0.0056617465 0.41850325
-0.21650238 -0.0056676017 0.41893604
-0.21599293 -0.0056740697 0.41941416
-0.21549989 -0.0056810165 0.41992766
-0.21501352 -0.0056881886 0.42045778
-0.21451829 -0.0056951758 0.42097428
-0.21400236 -0.0057016611 0.42145365
-0.21346164 -0.0057075303 0.42188749
-0.21289669 -0.0057127913 0.42227638
-0.21231478 -0.0057176333 0.42263427
-0.21172179 -0.0057222107 0.42297262
-0.21112072 -0.0057266019 0.42329723
-0.21051422 -0.0057308772 0.42361322
-0.20990361 -0.0057350714 0.42392325
-0.20929024 -0.0057392204 0.42422995
-0.20867543 -0.0057433601 0.42453596
-0.20805958 -0.0057475022 0.42484212
-0.2074437 -0.0057516736 0.42515045
-0.20682886 -0.0057559055 0.42546326
-0.20621495 -0.0057601943 0.42578027
-0.2056025 -0.0057645561 0.4261027
-0.20499101 -0.0057689776 0.42642954
-0.20438151 -0.0057734889 0.426763
-0.20377402 -0.0057780915 0.42710319
-0.20316881 -0.0057827937 0.42745078
-0.20256586 -0.0057875961 0.42780575
-0.2019656 -0.0057925126 0.42816916
-0.20136878 -0.0057975654 0.42854267
-0.20077507 -0.0058027478 0.42892575
-0.20018464 -0.0058080652 0.42931879
-0.19959961 -0.0058135809 0.42972651
-0.19901904 -0.0058192704 0.43014705
-0.19844581 -0.0058252197 0.43058681
-0.19788091 -0.0058314609 0.43104815
-0.19732507 -0.0058380198 0.43153295
-0.19678 -0.0058449502 0.43204525
-0.19624682 -0.0058522904 0.43258783
-0.19572495 -0.0058600283 0.4331598
-0.19521718 -0.0058682519 0.43376765
-0.1947239 -0.0058769789 0.43441275
-0.19424394 -0.0058861799 0.43509284
-0.19377694 -0.0058958502 0.43580765
-0.1933267 -0.0059061111 0.43656611
-0.1928916 -0.0059169205 0.43736511
-0.19247027 -0.0059282421 0.43820199
-0.19206409 -0.0059401267 0.43908048
-0.19167608 -0.0059526735 0.4400079
-0.19130552 -0.0059658689 0.44098327
-0.190955 -0.0059798015 0.44201314
-0.19062501 -0.0059944973 0.44309941
-0.19032322 -0.0060102069 0.44426063
-0.19004966 -0.0060269446 0.44549787
-0.18981124 -0.0060449443 0.44682834
-0.18961875 -0.0060645654 0.4482787
-0.18948951 -0.0060863867 0.44989169
-0.24731492 -0.005031446 0.42913026
-0.24609192 -0.0050222841 0.42834884
-0.24491787 -0.0050140666 0.42764798
-0.24377976 -0.0050065354 0.42700565
-0.24266945 -0.0049995291 0.42640808
-0.24158163 -0.0049929433 0.42584637
-0.24051259 -0.0049867048 0.42531428
-0.23945716 -0.0049807089 0.4248029
-0.23841211 -0.0049748914 0.42430675
-0.23736931 -0.0049690837 0.42381141
-0.23632108 -0.0049631242 0.42330313
-0.23525324 -0.0049567134 0.42275634
-0.234137 -0.0049492377 0.42211872
-0.23285556 -0.0049382094 0.42117813
-0.23122144 -0.0049196053 0.4195914
-0.22980845 -0.0049055992 0.41839683
-0.22866611 -0.0048972974 0.41768876
-0.22759345 -0.0048904377 0.41710371
-0.22661458 -0.0048855548 0.41668725
-0.22569782 -0.0048819827 0.41638258
-0.22483957 -0.0048796567 0.41618422
-0.2240402 -0.0048785969 0.41609383
-0.22329135 -0.0048786346 0.41609702
-0.22258508 -0.0048796055 0.41617984
-0.22191074 -0.0048812856 0.41632313
-0.22126313 -0.0048835664 0.41651767
-0.2206389 -0.0048863813 0.41675773
-0.22002494 -0.0048894431 0.41701889
-0.21942975 -0.0048929444 0.41731751
-0.2188502 -0.0048968201 0.41764808
-0.21827254 -0.0049007651 0.41798452
-0.21771038 -0.0049050865 0.41835311
-0.21716911 -0.0049099103 0.4187645
-0.21664573 -0.0049151736 0.41921344
-0.21613716 -0.0049208109 0.41969424
-0.21563885 -0.0049267225 0.42019841
-0.21514311 -0.0049327346 0.42071119
-0.21463591 -0.0049385251 0.42120507
-0.21410598 -0.0049438328 0.42165774
-0.21355243 -0.00494863 0.42206693
-0.21297821 -0.0049529816 0.42243806
-0.21238981 -0.0049570333 0.42278361
-0.2117915 -0.004960882 0.42311189
-0.21118648 -0.0049646008 0.42342907
-0.21057698 -0.0049682409 0.42373952
-0.20996387 -0.0049718223 0.42404497
-0.20934838 -0.0049753729 0.42434779
-0.20873185 -0.0049789245 0.42465073
-0.20811456 -0.004982485 0.42495438
-0.20749798 -0.0049860883 0.42526171
-0.20688197 -0.0049897321 0.42557248
-0.20626727 -0.004993435 0.4258883
-0.20565383 -0.0049971961 0.42620909
-0.20504202 -0.0050010248 0.42653564
-0.20443192 -0.0050049247 0.42686826
-0.20382403 -0.005008908 0.42720801
-0.2032184 -0.0050129774 0.42755508
-0.20261475 -0.0050171274 0.42790902
-0.20201509 -0.0050214077 0.4282741
-0.20141761 -0.0050257752 0.42864659
-0.2008238 -0.0050302683 0.42902982
-0.20023401 -0.0050348979 0.42942467
-0.19964813 -0.0050396617 0.42983097
-0.1990678 -0.0050446033 0.43025243
-0.1984957 -0.005049793 0.43069506
-0.19793114 -0.0050552157 0.43115756
-0.19737582 -0.0050609186 0.43164396
-0.19683261 -0.0050669783 0.43216079
-0.19630036 -0.0050733695 0.43270588
-0.1957801 -0.005080122 0.43328184
-0.19527416 -0.0050873025 0.43389425
-0.1947813 -0.005094883 0.43454078
-0.19430269 -0.0051028989 0.43522447
-0.19383796 -0.005111346 0.43594489
-0.19339001 -0.0051203058 0.43670908
-0.19295554 -0.0051296973 0.43751007
-0.19253625 -0.0051395711 0.43835223
-0.19213249 -0.0051499428 0.43923682
-0.19174679 -0.0051608863 0.4401702
-0.19137749 -0.0051723649 0.44114918
-0.19102849 -0.0051844893 0.44218326
-0.19070402 -0.0051973839 0.44328305
-0.19040503 -0.0052110851 0.4444516
-0.19013414 -0.0052256742 0.44569591
-0.18990491 -0.005241537 0.44704884
-0.18971774 -0.0052587008 0.44851273
-0.24745916 -0.0042598601 0.42938054
-0.24622744 -0.0042519653 0.42858472
-0.24504608 -0.0042448929 0.42787185
-0.24390364 -0.0042384518 0.42722261
-0.242791 -0.0042324895 0.42662165
-0.24170132 -0.0042268913 0.42605734
-0.24063139 -0.0042216033 0.42552435
-0.23957711 -0.0042165574 0.42501572
-0.23853509 -0.0042116949 0.42452562
-0.23749851 -0.0042068977 0.42404208
-0.23646079 -0.0042020492 0.42355338
-0.235412 -0.0041969726 0.42304164
-0.23433593 -0.0041913744 0.42247736
-0.23318148 -0.0041843331 0.42176762
-0.23178005 -0.0041727996 0.42060509
-0.23024212 -0.0041587246 0.41918638
-0.22900414 -0.004149993 0.41830623
-0.2279285 -0.0041441545 0.41771775
-0.22692429 -0.0041395808 0.41725671
-0.22600722 -0.0041365717 0.41695341
-0.22514249 -0.0041345032 0.41674492
-0.22432832 -0.0041333525 0.41662896
-0.22356053 -0.0041330517 0.41659862
-0.22283526 -0.0041335379 0.41664761
-0.22214827 -0.0041347393 0.41676873
-0.22148287 -0.0041363523 0.41693133
-0.22084065 -0.0041384106 0.41713879
-0.22021967 -0.0041408828 0.41738796
-0.21961534 -0.0041436856 0.41767049
-0.2190159 -0.0041466001 0.41796428
-0.21844444 -0.004150067 0.41831371
-0.21788551 -0.0041537965 0.41868964
-0.21733685 -0.0041577485 0.41908798
-0.21680871 -0.0041621216 0.41952878
-0.21630009 -0.0041669016 0.4200106
-0.21579906 -0.0041718623 0.42051062
-0.21529262 -0.0041767526 0.42100355
-0.21476881 -0.0041813399 0.4214659
-0.21422257 -0.0041855206 0.42188734
-0.21365468 -0.0041893073 0.42226902
-0.21307005 -0.0041927919 0.42262024
-0.21247454 -0.004196086 0.42295229
-0.21187069 -0.004199239 0.42327008
-0.21126127 -0.0042023039 0.42357901
-0.21064799 -0.0042053135 0.4238824
-0.21003184 -0.0042082882 0.42418221
-0.2094142 -0.0042112544 0.42448121
-0.20879565 -0.0042142239 0.42478055
-0.20817709 -0.0042172153 0.42508206
-0.20755903 -0.0042202394 0.42538685
-0.20694193 -0.0042233048 0.42569584
-0.20632632 -0.0042264238 0.42601022
-0.20571205 -0.0042295936 0.42632973
-0.20509925 -0.0042328178 0.42665473
-0.20448861 -0.0042361105 0.42698663
-0.20388015 -0.004239474 0.42732564
-0.20327412 -0.0042429133 0.42767233
-0.20267047 -0.0042464286 0.42802668
-0.20207036 -0.0042500459 0.42839125
-0.20147258 -0.00425374 0.4287636
-0.20087907 -0.0042575523 0.4291479
-0.20028897 -0.0042614671 0.42954251
-0.19970311 -0.0042655035 0.42994934
-0.19912401 -0.0042697154 0.43037391
-0.1985521 -0.0042741159 0.43081743
-0.19798814 -0.0042787222 0.43128175
-0.19743519 -0.0042836037 0.43177378
-0.19689249 -0.0042887474 0.43229225
-0.19636098 -0.0042941766 0.43283948
-0.19584277 -0.004299941 0.43342054
-0.19533856 -0.0043060603 0.43403736
-0.19484718 -0.0043125129 0.43468776
-0.19437011 -0.0043193358 0.43537545
-0.19390845 -0.0043265577 0.43610343
-0.19346139 -0.0043341652 0.43687025
-0.19302867 -0.0043421583 0.43767592
-0.19261082 -0.0043505523 0.43852201
-0.19221002 -0.0043594022 0.43941405
-0.19182713 -0.0043687341 0.44035465
-0.19146046 -0.0043785139 0.44134042
-0.19111463 -0.0043888539 0.44238266
-0.19079468 -0.0043998775 0.44349381
-0.19049849 -0.0044115437 0.44466975
-0.19023606 -0.0044240942 0.4459348
-0.19001204 -0.0044376482 0.447301
-0.18983674 -0.0044524609 0.44879407
-0.24762383 -0.0034876594 0.42966625
-0.24637818 -0.0034810104 0.4288471
-0.24518995 -0.0034751331 0.42812306
-0.24404098 -0.0034697771 0.4274632
-0.24292551 -0.0034648646 0.42685801
-0.24183448 -0.0034602708 0.42629206
-0.24076393 -0.0034559416 0.42575872
-0.23971021 -0.0034518272 0.42525184
-0.23866981 -0.0034478784 0.42476538
-0.23763919 -0.003444046 0.42429325
-0.23661092 -0.0034402234 0.42382231
-0.23557849 -0.0034363151 0.42334083
-0.23453128 -0.0034321651 0.42282957
-0.23344751 -0.003427451 0.42224881
-0.23225757 -0.0034211427 0.42147163
-0.23083127 -0.0034112995 0.420259
-0.22943544 -0.0034018436 0.41909406
-0.22831017 -0.0033963495 0.41841722
-0.22727701 -0.0033921942 0.4179053
-0.22634338 -0.0033895015 0.41757357
-0.22546858 -0.0033876747 0.4173485
-0.22463401 -0.0033864423 0.41719669
-0.22385252 -0.0033860046 0.41714275
-0.22311939 -0.0033862977 0.41717887
-0.22240603 -0.0033868938 0.4172523
-0.22172831 -0.0033880388 0.41739336
-0.22107579 -0.0033895778 0.41758296
-0.22044022 -0.0033913879 0.41780597
-0.2198219 -0.0033934771 0.41806334
-0.21922988 -0.0033959879 0.41837266
-0.21864222 -0.0033985837 0.41869247
-0.21807651 -0.00340154 0.41905665
-0.21753708 -0.0034049281 0.41947407
-0.21701224 -0.0034085694 0.41992265
-0.21649651 -0.0034123794 0.42039204
-0.21598153 -0.0034162279 0.42086616
-0.21545747 -0.0034199599 0.42132592
-0.21491383 -0.003423406 0.42175049
-0.21434906 -0.003426539 0.42213646
-0.21376689 -0.0034294154 0.42249081
-0.21317196 -0.0034321067 0.42282236
-0.21256791 -0.0034346699 0.42313814
-0.21195823 -0.0034371603 0.42344496
-0.21134415 -0.0034395973 0.42374519
-0.21072726 -0.0034420062 0.42404193
-0.21010798 -0.0034443932 0.42433602
-0.20948753 -0.0034467783 0.42462984
-0.20886706 -0.0034491809 0.42492583
-0.20824647 -0.003451599 0.42522374
-0.20762716 -0.0034540563 0.42552647
-0.20700869 -0.0034565458 0.42583317
-0.20639166 -0.003459078 0.42614514
-0.20577644 -0.0034616599 0.42646319
-0.20516346 -0.0034642986 0.42678827
-0.20455189 -0.0034669812 0.42711878
-0.20394281 -0.0034697263 0.42745695
-0.20333628 -0.0034725363 0.42780313
-0.20273243 -0.003475413 0.42815754
-0.20213173 -0.0034783662 0.42852136
-0.20153411 -0.0034813953 0.42889452
-0.20094036 -0.003484515 0.42927885
-0.20034985 -0.003487715 0.42967311
-0.19976501 -0.0034910389 0.43008259
-0.19918655 -0.0034945009 0.43050909
-0.19861476 -0.0034981074 0.43095338
-0.19805254 -0.0035019114 0.43142202
-0.19750048 -0.0035059259 0.43191659
-0.19695936 -0.0035101667 0.43243906
-0.19643006 -0.0035146533 0.43299177
-0.19591421 -0.0035194168 0.43357864
-0.19541094 -0.0035244457 0.43419817
-0.1949212 -0.0035297601 0.43485287
-0.19444786 -0.0035354155 0.43554962
-0.19398791 -0.0035413615 0.43628213
-0.19354238 -0.0035476198 0.43705314
-0.19311135 -0.0035541966 0.43786335
-0.19269814 -0.0035611563 0.43872079
-0.19229913 -0.0035684374 0.43961778
-0.19191891 -0.0035761287 0.44056532
-0.1915544 -0.0035841779 0.44155696
-0.19121562 -0.0035927778 0.44261643
-0.19089763 -0.0036018421 0.4437331
-0.19060569 -0.0036114762 0.44492
-0.19035195 -0.0036219188 0.44620648
-0.19013543 -0.0036331613 0.44759151
-0.18997283 -0.0036455342 0.44911581
-0.24781139 -0.0027146789 0.42999172
-0.24654847 -0.0027093238 0.42914352
-0.2453499 -0.0027046446 0.42840233
