# .PCD v0.7 - Point Cloud Data file format
VERSION 0.7
FIELDS x y z
SIZE 4 4 4
TYPE F F F
COUNT 1 1 1
WIDTH 1296
HEIGHT 1
VIEWPOINT 0 0 0 1 0 0 0
POINTS 1296
DATA ascii
-0.013864695 -0.07486935 0.43921983
-0.013076331 -0.074891716 0.43935102
-0.012288023 -0.074917294 0.43950111
-0.01149961 -0.074945733 0.43966791
-0.010711072 -0.074977502 0.43985429
-0.0099222166 -0.075011961 0.44005644
-0.0091329776 -0.075049251 0.44027519
-0.0083433315 -0.075089984 0.44051415
-0.0075531444 -0.075133905 0.44077185
-0.0067623924 -0.075181887 0.44105333
-0.005970954 -0.075234018 0.44135916
-0.005178785 -0.075291567 0.44169673
-0.0043858015 -0.075356044 0.44207498
-0.0035918502 -0.075428851 0.44250214
-0.0027967247 -0.075511567 0.44298738
-0.0020001151 -0.075604349 0.44353169
-0.0012016932 -0.075706676 0.44413197
-0.00040115084 -0.07581751 0.4447822
0.00040176202 -0.075933024 0.44545984
0.001207218 -0.076054737 0.44617388
0.002015407 -0.07618238 0.44692269
0.0028265943 -0.07631804 0.44771856
0.0036411956 -0.076465108 0.44858131
0.0044596 -0.076624036 0.44951364
0.0052821571 -0.076794438 0.4505133
0.0061091576 -0.07697539 0.45157486
0.0069408077 -0.077165447 0.45268986
0.0077780038 -0.077370673 0.45389378
0.0086231837 -0.077608652 0.4552899
0.0094853621 -0.077944927 0.45726267
-0.04745803 -0.077170879 0.45756367
-0.046357661 -0.076715775 0.45486525
-0.045376766 -0.076445542 0.45326298
-0.044435494 -0.076233372 0.45200494
-0.043510713 -0.076042086 0.45087078
-0.042596009 -0.075861461 0.44979984
-0.041691229 -0.075691849 0.44879413
-0.040796958 -0.075534962 0.44786391
-0.039912786 -0.075390816 0.44700927
-0.039037805 -0.075258449 0.44622442
-0.038170196 -0.075135015 0.44549257
-0.037308704 -0.075018577 0.44480217
-0.036452319 -0.074907519 0.44414365
-0.03560112 -0.074802354 0.44352013
-0.034756467 -0.074706428 0.44295135
-0.033918764 -0.074621283 0.44244653
-0.033087708 -0.074547008 0.44200611
-0.032263063 -0.074483864 0.44163173
-0.031443041 -0.074428461 0.44130325
-0.030626869 -0.074379541 0.44101316
-0.02981388 -0.07433594 0.44075465
-0.029003382 -0.074296333 0.44051981
-0.028195057 -0.07426022 0.44030571
-0.027388722 -0.074227408 0.44011113
-0.026584171 -0.074197613 0.43993446
-0.025781242 -0.074170649 0.4397746
-0.024979888 -0.074146651 0.43963233
-0.024180081 -0.074125826 0.43950883
-0.023381641 -0.074107915 0.43940264
-0.022584645 -0.074093483 0.43931708
-0.021788761 -0.074081786 0.43924773
-0.02099405 -0.074073352 0.43919769
-0.020200394 -0.074068114 0.43916664
-0.019407643 -0.074065901 0.43915355
-0.018615715 -0.074066781 0.43915874
-0.017824512 -0.074070752 0.43918228
-0.017033946 -0.07407786 0.43922442
-0.016243886 -0.07408797 0.43928438
-0.015454235 -0.074101076 0.43936211
-0.014664938 -0.074117392 0.43945882
-0.013875889 -0.07413689 0.43957445
-0.013086957 -0.074159421 0.43970805
-0.012298069 -0.074185126 0.43986043
-0.01150911 -0.074213915 0.44003114
-0.010720016 -0.074246034 0.44022158
-0.0099305809 -0.074280746 0.44042739
-0.0091408035 -0.074318707 0.44065249
-0.0083505474 -0.07435964 0.44089517
-0.0075597255 -0.074403614 0.44115591
-0.0067682769 -0.074451052 0.44143716
-0.0059761107 -0.074502178 0.44174033
-0.0051831836 -0.074558102 0.44207191
-0.0043894141 -0.074620038 0.44243914
-0.003594673 -0.074689314 0.4428499
-0.0027988066 -0.074768119 0.44331715
-0.0020015526 -0.074858069 0.44385046
-0.0012025571 -0.07495939 0.44445124
-0.00040144467 -0.07507015 0.44510797
0.00040207623 -0.075188257 0.44580823
0.0012082055 -0.075311475 0.44653881
0.0020171299 -0.075440653 0.44730476
0.0028291224 -0.075577982 0.44811901
0.0036445486 -0.075725622 0.4489944
0.0044638608 -0.075885631 0.44994313
0.0052875308 -0.076059096 0.45097163
0.0061158026 -0.076243676 0.45206603
0.0069488557 -0.076437414 0.45321476
0.0077874674 -0.076645076 0.45444605
0.008634584 -0.076888911 0.45589182
0.0094992053 -0.077232666 0.45793
-0.047569104 -0.076524213 0.45863459
-0.04643273 -0.076018184 0.45560181
-0.045442339 -0.07573723 0.45391798
-0.044495314 -0.075519569 0.45261344
-0.043565616 -0.075323731 0.45143971
-0.042646181 -0.075138509 0.45032963
-0.041737281 -0.074965023 0.44928986
-0.04083978 -0.074805535 0.44833401
-0.039953202 -0.074660026 0.4474619
-0.039075755 -0.07452593 0.44665822
-0.038205449 -0.074400082 0.44590399
-0.03734158 -0.07428164 0.44519413
-0.036482725 -0.074168175 0.4445141
-0.035629973 -0.074062303 0.44387957
-0.034784913 -0.073967919 0.4433139
-0.033947274 -0.07388524 0.44281837
-0.033116829 -0.073814616 0.44239509
-0.032292314 -0.07375405 0.44203213
-0.031472199 -0.073700719 0.44171247
-0.030655479 -0.073652774 0.44142514
-0.029841647 -0.073609397 0.44116515
-0.029030249 -0.073569812 0.44092789
-0.028220881 -0.073533282 0.44070897
-0.027413435 -0.073499791 0.44050825
-0.026607789 -0.073469266 0.44032532
-0.025803907 -0.073441885 0.44016123
-0.025001576 -0.073417328 0.44001403
-0.024200957 -0.073396347 0.43988827
-0.023401722 -0.07337828 0.43978
-0.022603901 -0.073363543 0.43969166
-0.021807237 -0.073351614 0.43962017
-0.021011841 -0.073343217 0.43956986
-0.020217471 -0.07333789 0.43953791
-0.019423997 -0.073335499 0.43952358
-0.018631363 -0.073336214 0.4395279
-0.017839516 -0.07334023 0.43955195
-0.017048262 -0.073347174 0.43959358
-0.01625756 -0.073357284 0.43965414
-0.015467275 -0.073370405 0.43973282
-0.014677327 -0.073386632 0.43983006
-0.013887635 -0.073406063 0.43994653
-0.013098106 -0.07342878 0.44008264
-0.01230861 -0.073454611 0.44023746
-0.011519042 -0.073483542 0.44041088
-0.01072932 -0.073515713 0.44060367
-0.0099393027 -0.073550835 0.4408142
-0.0091489535 -0.073589407 0.44104537
-0.0083580948 -0.07363084 0.44129366
-0.0075666341 -0.073675126 0.44155908
-0.0067745205 -0.073722728 0.44184437
-0.0059816362 -0.073773518 0.44214877
-0.0051879478 -0.073828489 0.44247824
-0.004393369 -0.073888473 0.44283777
-0.0035978344 -0.073955484 0.44323936
-0.0028011454 -0.074030273 0.44368762
-0.0020031752 -0.074117482 0.44421029
-0.0012035016 -0.074215934 0.44480032
-0.00040176525 -0.074326575 0.44546342
0.00040241031 -0.074445911 0.44617864
0.0012092659 -0.074571393 0.44693074
0.0020189944 -0.074702792 0.44771823
0.0028318451 -0.074841619 0.44855028
0.003648181 -0.074990384 0.44944188
0.0044685206 -0.07515239 0.45041284
0.0052933586 -0.075328566 0.45146871
0.006122943 -0.075516298 0.45259383
0.0069575785 -0.075714819 0.45378366
0.0077980123 -0.075928017 0.45506141
0.008646979 -0.076175764 0.45654625
0.0095154801 -0.076537564 0.4587146
-0.046518736 -0.075335652 0.45644572
-0.045514841 -0.075037979 0.45464218
-0.044560626 -0.074812792 0.4532778
-0.043625284 -0.07461147 0.45205802
-0.042700317 -0.074420549 0.45090127
-0.04178749 -0.074243791 0.44983032
-0.040886354 -0.074081212 0.4488453
-0.039996654 -0.073933214 0.44794858
-0.039116498 -0.073797107 0.44712391
-0.038243666 -0.073669381 0.44635007
-0.037376821 -0.073547937 0.44561428
-0.036515567 -0.073432408 0.44491428
-0.035661787 -0.073327042 0.44427592
-0.034816179 -0.073234037 0.44371238
-0.033978906 -0.073154584 0.44323099
-0.033148684 -0.07308685 0.44282064
-0.03232393 -0.07302814 0.44246489
-0.031503249 -0.072975881 0.44214827
-0.030685758 -0.072928496 0.44186115
-0.029870871 -0.072884925 0.44159719
-0.029058376 -0.072844967 0.44135511
-0.028247831 -0.072807789 0.44112983
-0.027439225 -0.072773598 0.44092268
-0.026632518 -0.072742544 0.44073454
-0.025827592 -0.072714604 0.44056526
-0.025024416 -0.072689965 0.44041598
-0.024222821 -0.072668463 0.44028568
-0.023422774 -0.072650298 0.44017562
-0.022624098 -0.072635263 0.44008452
-0.02182672 -0.072623454 0.44001296
-0.02103059 -0.072615057 0.43996209
-0.020235457 -0.072609581 0.43992892
-0.019441208 -0.072606966 0.43991306
-0.018647851 -0.072607592 0.43991685
-0.017855285 -0.072611496 0.43994051
-0.017063355 -0.072618462 0.43998274
-0.016271999 -0.072628677 0.44004461
-0.015481025 -0.072641738 0.44012374
-0.014690422 -0.072658032 0.4402225
-0.013900008 -0.072677188 0.44033852
-0.013109839 -0.072700016 0.44047683
-0.012319621 -0.072725505 0.44063127
-0.011529443 -0.072754763 0.44080853
-0.010739079 -0.072787091 0.44100443
-0.0099484269 -0.072822481 0.44121885
-0.0091574378 -0.072861351 0.44145435
-0.0083659515 -0.07290329 0.44170845
-0.0075738607 -0.07294824 0.44198078
-0.0067810593 -0.07299611 0.44227085
-0.0059874705 -0.073047139 0.44258001
-0.0051930211 -0.073101759 0.44291094
-0.004397626 -0.073160507 0.4432669
-0.0036012679 -0.073225781 0.44366238
-0.0028037538 -0.073298134 0.44410077
-0.0020049629 -0.073381647 0.44460672
-0.0012045556 -0.073477894 0.44518986
-0.00040211415 -0.073586889 0.44585028
0.00040277303 -0.073707461 0.4465808
0.0012104174 -0.073835462 0.44735631
0.0020210014 -0.073968649 0.4481633
0.0028347969 -0.074109688 0.44901782
0.0036521412 -0.074260205 0.44992977
0.0044735866 -0.074424215 0.45092347
0.0052996567 -0.074602857 0.45200583
0.0061308262 -0.074796081 0.45317656
0.0069671348 -0.074999154 0.45440695
0.0078094085 -0.075216934 0.45572641
0.0086609302 -0.075473823 0.45728287
0.0095349969 -0.07586541 0.45965543
-0.046619516 -0.074673735 0.45743456
-0.045594972 -0.074348561 0.45544261
-0.044632025 -0.074113734 0.45400411
-0.043690253 -0.073905937 0.45273122
-0.042759985 -0.073710069 0.45153135
-0.041841961 -0.073528111 0.45041671
-0.040936943 -0.073362246 0.44940066
-0.040044233 -0.073212184 0.44848144
-0.039160796 -0.073073238 0.44763029
-0.038284823 -0.072942667 0.44683042
-0.037414685 -0.072817832 0.44606569
-0.036551364 -0.072701067 0.44535044
-0.035696387 -0.072596028 0.44470698
-0.034850679 -0.072505437 0.44415206
-0.034013443 -0.072428621 0.44368151
-0.033183172 -0.072363302 0.44328135
-0.032357749 -0.07230559 0.44292784
-0.031536248 -0.072253935 0.4426114
-0.030717768 -0.072206706 0.44232208
-0.029901683 -0.072162725 0.44205269
-0.029087739 -0.072121657 0.4418011
-0.028275933 -0.072083719 0.4415687
-0.027466174 -0.072048947 0.44135571
-0.026658442 -0.07201758 0.44116357
-0.025852481 -0.071989216 0.44098979
-0.025048332 -0.071964256 0.44083691
-0.024245838 -0.071942568 0.44070405
-0.023444967 -0.071924396 0.44059271
-0.022645459 -0.071909264 0.44050002
-0.021847371 -0.071897715 0.44042927
-0.021050408 -0.071889132 0.4403767
-0.020254511 -0.071883656 0.44034317
-0.019459527 -0.071881115 0.44032758
-0.018665534 -0.071882159 0.44033399
-0.017872168 -0.071885824 0.44035646
-0.017079441 -0.07189253 0.44039753
-0.016287267 -0.071902327 0.44045752
-0.015495606 -0.071915507 0.44053826
-0.014704233 -0.071931519 0.44063637
-0.013913077 -0.07195048 0.44075254
-0.01312218 -0.071973167 0.44089147
-0.012331245 -0.071998559 0.44104704
-0.011540384 -0.072027914 0.44122687
-0.010749313 -0.072060212 0.4414247
-0.009957985 -0.072095811 0.44164279
-0.0091663115 -0.072134882 0.44188213
-0.0083741583 -0.072177269 0.44214177
-0.0075814025 -0.072222836 0.4424209
-0.0067879222 -0.072271407 0.44271845
-0.0059936126 -0.072322927 0.44303402
-0.0051983804 -0.072377451 0.44336805
-0.0044021928 -0.072436079 0.4437272
-0.0036049692 -0.072499938 0.44411835
-0.0028065944 -0.07257051 0.44455069
-0.0020069217 -0.072650567 0.44504109
-0.0012057059 -0.072744258 0.44561502
-0.00040249541 -0.072851673 0.446273
0.00040316308 -0.072972521 0.44701329
0.0012116568 -0.073103294 0.4478144
0.0020231868 -0.073239364 0.44864792
0.002837983 -0.073382132 0.4495225
0.0036564462 -0.073535196 0.45046014
0.004479087 -0.073701337 0.45147789
0.0053065694 -0.073883772 0.45259544
0.0061393129 -0.074081041 0.45380387
0.006977519 -0.07429006 0.45508423
0.0078220051 -0.074514888 0.45646149
0.0086762952 -0.074781403 0.45809409
-0.046744164 -0.07404606 0.45865762
-0.045684166 -0.073670864 0.45633355
-0.044710573 -0.073423788 0.45480311
-0.043761719 -0.073208854 0.45347178
-0.042824849 -0.073006175 0.45221633
-0.04190129 -0.072818749 0.45105535
-0.040992074 -0.072649322 0.45000589
-0.04009537 -0.072495669 0.44905415
-0.039208543 -0.072353907 0.44817606
-0.03832927 -0.072220407 0.44734913
-0.037455942 -0.072092623 0.44655758
-0.036590312 -0.071974352 0.44582498
-0.035734095 -0.071869694 0.44517672
-0.034888122 -0.071781307 0.44462922
-0.034050781 -0.071706943 0.4441686
-0.033219922 -0.071642965 0.44377232
-0.032393601 -0.071585864 0.44341859
-0.031571005 -0.071534306 0.44309923
-0.030751208 -0.071486577 0.44280359
-0.02993373 -0.071441837 0.44252646
-0.029118558 -0.0714003 0.44226918
-0.028305473 -0.071361683 0.44202998
-0.027494552 -0.071326442 0.44181171
-0.02668559 -0.071294338 0.44161284
-0.025878675 -0.071265891 0.44143662
-0.025073454 -0.071240447 0.44127902
-0.024270184 -0.071219064 0.44114658
-0.023468431 -0.071200833 0.44103363
-0.02266808 -0.071185723 0.44094005
-0.021869192 -0.071174279 0.44086915
-0.021071475 -0.071165927 0.44081742
-0.020274717 -0.071160279 0.44078246
-0.019479111 -0.071158387 0.44077072
-0.018684212 -0.07115902 0.44077465
-0.017890071 -0.071162723 0.4407976
-0.017096559 -0.071169391 0.4408389
-0.016303563 -0.071178973 0.44089824
-0.015511031 -0.071191654 0.4409768
-0.014718909 -0.071207695 0.44107613
-0.013926943 -0.071226366 0.44119179
-0.013135262 -0.071248844 0.44133103
-0.012343534 -0.071273953 0.44148657
-0.01155192 -0.071303234 0.44166791
-0.010760121 -0.071335614 0.44186851
-0.0099680377 -0.071371146 0.4420886
-0.0091756471 -0.07141047 0.44233218
-0.0083827805 -0.071453229 0.44259703
-0.007589282 -0.071499027 0.44288072
-0.0067950739 -0.071548134 0.44318488
-0.006000028 -0.071600333 0.44350824
-0.0052040354 -0.071655564 0.44385034
-0.0044070212 -0.07171426 0.4442139
-0.0036089174 -0.071777359 0.44460475
-0.0028096626 -0.071847089 0.44503668
-0.0020090712 -0.071924753 0.44551775
-0.0012069592 -0.072015241 0.44607824
-0.00040291264 -0.072121367 0.44673562
0.00040358826 -0.072242297 0.4474847
0.0012129867 -0.072374865 0.44830588
0.0020255265 -0.072513849 0.44916674
0.0028414507 -0.072659954 0.45007175
0.0036611049 -0.072815306 0.45103407
0.0044850931 -0.072984695 0.45208326
0.0053140931 -0.073170975 0.45323712
0.0061486396 -0.073373765 0.45449325
0.0069888886 -0.073588885 0.45582578
0.0078357952 -0.07382144 0.45726624
0.0086941421 -0.074107207 0.45903638
-0.045785062 -0.073008612 0.45734137
-0.044797022 -0.072743788 0.45568246
-0.043839727 -0.072519921 0.45428014
-0.042895921 -0.072310261 0.45296678
-0.041966405 -0.072117023 0.4517563
-0.04105207 -0.071942732 0.45066449
-0.040150855 -0.071784861 0.44967556
-0.039260283 -0.071639895 0.44876745
-0.038377326 -0.071503013 0.44791001
-0.037500549 -0.07137201 0.44708937
-0.036632638 -0.071252495 0.44634071
-0.035775367 -0.071148761 0.4456909
-0.034928724 -0.071061894 0.44514671
-0.034090716 -0.070988901 0.44468948
-0.033258904 -0.070925616 0.44429305
-0.032431494 -0.07086882 0.44393727
-0.031607524 -0.070816852 0.44361174
-0.030786261 -0.070768416 0.44330832
-0.029967412 -0.070723094 0.4430244
-0.029150756 -0.070680603 0.44275823
-0.028336361 -0.070641354 0.44251236
-0.027524235 -0.070605643 0.4422887
-0.026714209 -0.07057336 0.44208646
-0.025906198 -0.070544571 0.44190609
-0.025100032 -0.070519142 0.4417468
-0.024295853 -0.070497803 0.44161317
-0.023493256 -0.070479773 0.44150019
-0.022692116 -0.070464991 0.44140762
-0.02189232 -0.070453465 0.44133541
-0.021093708 -0.070445023 0.44128251
-0.020296155 -0.070439592 0.44124851
-0.019499609 -0.070437364 0.44123456
-0.018703857 -0.070437931 0.44123808
-0.017908854 -0.070441499 0.44126043
-0.017114524 -0.07044816 0.44130215
-0.016320728 -0.070457779 0.44136241
-0.01552737 -0.070470378 0.44144133
-0.014734415 -0.070486255 0.44154081
-0.013941662 -0.070504978 0.44165808
-0.013149103 -0.07052701 0.44179609
-0.012356546 -0.070551887 0.44195196
-0.011564075 -0.070580736 0.44213265
-0.010771492 -0.070613123 0.44233552
-0.0099786464 -0.070648819 0.44255912
-0.0091854325 -0.07068789 0.44280389
-0.0083917929 -0.070730828 0.44307286
-0.0075975601 -0.070777267 0.44336379
-0.0068025813 -0.070826881 0.44367453
-0.0060067712 -0.070879899 0.44400668
-0.0052099666 -0.070935704 0.44435623
-0.0044120927 -0.070994586 0.4447251
-0.0036131048 -0.071057729 0.44512063
-0.0028129127 -0.071126506 0.44555148
-0.0020113927 -0.071203306 0.44603255
-0.0012083283 -0.071291372 0.44658422
-0.00040336727 -0.071396008 0.4472397
0.00040404886 -0.071516648 0.44799539
0.0012144221 -0.0716509 0.44883639
0.0020280681 -0.071793608 0.44973034
0.0028451777 -0.071942352 0.45066211
0.0036661671 -0.072101288 0.45165771
0.0044916365 -0.072274514 0.45274284
0.0053223437 -0.072465762 0.45394084
0.0061588492 -0.072674423 0.45524794
0.0070013492 -0.072896399 0.45663846
0.007851107 -0.073139258 0.45815977
-0.045902766 -0.072369225 0.45851713
-0.044893049 -0.072076 0.45665929
-0.043925449 -0.071840689 0.4551684
-0.042974275 -0.071623787 0.45379418
-0.04203774 -0.071423344 0.45252421
-0.041116949 -0.071242243 0.45137677
-0.040211108 -0.071080245 0.45035037
-0.039316252 -0.070931382 0.44940722
-0.038429268 -0.07079076 0.44851625
-0.037548892 -0.070656516 0.44766572
-0.0366784 -0.070535384 0.44689828
-0.035819657 -0.07043191 0.44624269
-0.034972034 -0.070346043 0.44569865
-0.034133077 -0.07027398 0.44524205
-0.033300169 -0.070211202 0.44484431
-0.032471392 -0.070154242 0.4444834
-0.031646039 -0.070101984 0.44415233
-0.030823078 -0.070052452 0.44383848
-0.03000256 -0.070005976 0.44354403
-0.029184606 -0.069963098 0.44327235
-0.028368818 -0.06992314 0.44301921
-0.027555415 -0.069886923 0.44278973
-0.026744271 -0.069854438 0.44258392
-0.02593518 -0.069825485 0.44240049
-0.025128223 -0.069800623 0.44224295
-0.024323041 -0.069779217 0.44210732
-0.023519453 -0.06976109 0.44199246
-0.022717377 -0.06974633 0.44189897
-0.021916684 -0.069734901 0.44182655
-0.021116979 -0.069725871 0.44176936
-0.020318523 -0.069720425 0.44173482
-0.01952095 -0.069717683 0.44171745
-0.018724333 -0.069718264 0.44172114
-0.017928427 -0.069721662 0.44174266
-0.017133251 -0.069728345 0.44178504
-0.016338663 -0.069738194 0.44184744
-0.015544488 -0.069750905 0.44192797
-0.014750695 -0.069766805 0.44202867
-0.013957129 -0.069785647 0.44214806
-0.013163717 -0.069807589 0.44228709
-0.012370307 -0.069832377 0.44244415
-0.011576942 -0.069860861 0.4426246
-0.010783473 -0.069892883 0.44282749
-0.0099898027 -0.069928624 0.44305393
-0.0091957869 -0.069967948 0.44330308
-0.0084013091 -0.070010908 0.44357529
-0.0076062707 -0.070057757 0.44387209
-0.0068104933 -0.070108019 0.44419056
-0.0060138376 -0.070161439 0.44452903
-0.0052161794 -0.070217803 0.44488612
-0.0044174478 -0.070277579 0.44526485
-0.0036175193 -0.070340648 0.44566447
-0.0028163672 -0.070409179 0.44609866
-0.0020138458 -0.070484608 0.44657654
-0.0012098019 -0.070571773 0.44712883
-0.00040385482 -0.070674591 0.44778025
0.00040454959 -0.070796177 0.44855061
0.0012159884 -0.070932664 0.44941533
0.0020308082 -0.071078293 0.45033801
0.0028492308 -0.071230769 0.45130408
0.0036716496 -0.071393184 0.45233312
0.0044987355 -0.071570791 0.4534584
0.0053313645 -0.071768373 0.45471022
0.0061700558 -0.071983986 0.45607629
0.0070150932 -0.072214194 0.45753488
0.0078682257 -0.072470501 0.45915878
-0.046051063 -0.071773276 0.45999843
-0.045000423 -0.071422689 0.45775151
-0.044020861 -0.071173914 0.45615709
-0.043060567 -0.070947409 0.45470542
-0.042115759 -0.070738122 0.45336404
-0.04118802 -0.070549779 0.45215696
-0.040276449 -0.070382081 0.45108217
-0.03937703 -0.070229135 0.45010197
-0.038485684 -0.070084453 0.44917467
-0.037601549 -0.069946967 0.44829354
-0.036728002 -0.069823571 0.44750264
-0.035867371 -0.069719724 0.4468371
-0.035018407 -0.069634303 0.44628963
-0.034178168 -0.069562621 0.44583023
-0.033343606 -0.069499321 0.44542456
-0.032513458 -0.069442324 0.44505924
-0.031686261 -0.069388904 0.44471684
-0.030861771 -0.069338784 0.44439563
-0.03003972 -0.069291621 0.44409338
-0.029220143 -0.069247738 0.44381213
-0.028403122 -0.069207609 0.44355494
-0.027588395 -0.069170907 0.44331971
-0.026776034 -0.069138117 0.44310957
-0.02596599 -0.069109485 0.44292605
-0.02515786 -0.069084279 0.44276452
-0.024351692 -0.069062993 0.44262809
-0.023547066 -0.069044791 0.44251141
-0.02274386 -0.069029607 0.44241413
-0.02194204 -0.069017686 0.44233772
-0.021141319 -0.069008455 0.44227853
-0.020341737 -0.06900236 0.44223949
-0.019543154 -0.068999298 0.44221988
-0.018745553 -0.068999588 0.44222173
-0.017948786 -0.069003113 0.44224429
-0.017152688 -0.069009647 0.44228619
-0.016357254 -0.069019638 0.44235021
-0.015562311 -0.069032811 0.44243467
-0.014767667 -0.069048822 0.44253728
-0.013973328 -0.069068164 0.44266123
-0.01317906 -0.069090225 0.44280261
-0.012384821 -0.069115289 0.44296327
-0.011590498 -0.069143318 0.44314289
-0.010796108 -0.069175065 0.44334635
-0.010001554 -0.069210753 0.44357508
-0.0092066629 -0.069250122 0.44382739
-0.008411319 -0.069293246 0.44410381
-0.0076154172 -0.069340378 0.44440585
-0.0068187434 -0.069390744 0.44472864
-0.0060212356 -0.069444917 0.44507587
-0.0052227164 -0.069502309 0.44544366
-0.00442306 -0.069562674 0.44583055
-0.0036221703 -0.069626167 0.44623747
-0.0028200198 -0.069694772 0.44667721
-0.0020164805 -0.069770224 0.44716078
-0.0012113866 -0.069856629 0.44771454
-0.00040438739 -0.069959015 0.44837075
0.00040508941 -0.070080467 0.44914913
0.0012176814 -0.070219629 0.45004103
0.0020337908 -0.070369162 0.45099938
0.0028536215 -0.070525214 0.45199955
0.0036776145 -0.070691928 0.45306799
0.00450652 -0.070875265 0.45424303
0.0053413054 -0.071080446 0.45555806
0.0061824815 -0.071304619 0.4569948
0.0070302631 -0.071543269 0.45852429
-0.045124888 -0.070792258 0.45901757
-0.044126723 -0.070520282 0.45725408
-0.043156359 -0.070283212 0.45571694
-0.042201795 -0.070063174 0.45429021
-0.041265979 -0.069866158 0.45301276
-0.040347986 -0.069691978 0.45188335
-0.039443098 -0.069533706 0.45085713
-0.038547136 -0.069384843 0.44989192
-0.037658554 -0.069243148 0.44897315
-0.036781654 -0.069117174 0.44815633
-0.0359184 -0.069011755 0.44747281
-0.035067607 -0.068925984 0.44691667
-0.034225706 -0.068854071 0.44645035
-0.033389553 -0.068790525 0.44603834
-0.032557532 -0.068732567 0.44566253
-0.031728666 -0.068678506 0.44531202
-0.030902434 -0.068627484 0.44498119
-0.030078605 -0.068579219 0.44466823
-0.029257648 -0.068535037 0.44438174
-0.028439114 -0.068494201 0.44411698
-0.027623136 -0.068457335 0.44387794
-0.026809501 -0.068424247 0.44366339
-0.025998229 -0.068395339 0.44347596
-0.025189148 -0.068370543 0.44331518
-0.024381708 -0.068348728 0.44317371
-0.023575967 -0.068330348 0.44305453
-0.022771582 -0.068314746 0.44295338
-0.021968529 -0.068302155 0.44287172
-0.021166604 -0.068292253 0.44280753
-0.020365801 -0.068285331 0.44276264
-0.019566212 -0.06828209 0.44274163
-0.018767515 -0.068281814 0.44273984
-0.017969741 -0.068285018 0.44276062
-0.017172785 -0.068291776 0.44280443
-0.016376486 -0.068301931 0.44287029
-0.015580798 -0.068315804 0.44296026
-0.014785348 -0.068332277 0.44306707
-0.013990201 -0.068352126 0.44319576
-0.013195103 -0.068374626 0.44334164
-0.012400002 -0.06840001 0.44350624
-0.011604839 -0.068428539 0.44369119
-0.010809472 -0.068459988 0.44389513
-0.010013909 -0.068495132 0.44412303
-0.0092181079 -0.068534628 0.44437909
-0.008421855 -0.068577968 0.4446601
-0.0076250401 -0.068625361 0.44496742
-0.0068274974 -0.068676591 0.4452996
-0.0060290298 -0.068730935 0.44565198
-0.0052295714 -0.068788975 0.44602829
-0.0044289567 -0.068850145 0.44642493
-0.0036270772 -0.068914466 0.44684198
-0.0028238704 -0.068983115 0.44728711
-0.0020192687 -0.069058992 0.44777906
-0.0012130704 -0.069145016 0.44833684
-0.00040495736 -0.069247708 0.44900271
0.00040567733 -0.069370821 0.449801
0.0012195286 -0.069513135 0.45072374
0.0020370355 -0.069666617 0.45171893
0.0028583964 -0.069826543 0.45275587
0.0036841452 -0.069998756 0.45387253
0.0045150896 -0.070189126 0.45510685
0.0053522694 -0.070402928 0.45649317
0.006196212 -0.070636816 0.45800972
0.0070472495 -0.070887037 0.45963216
-0.044245802 -0.069883555 0.45848799
-0.043263249 -0.069633231 0.45684567
-0.042297933 -0.069401465 0.4553251
-0.04135197 -0.069192901 0.45395678
-0.040426195 -0.069010377 0.45275927
-0.039515078 -0.068845853 0.45167992
-0.03861412 -0.06869249 0.4506737
-0.037720721 -0.068546258 0.4497143
-0.036839362 -0.068415962 0.44885948
-0.035973087 -0.06830845 0.44815412
-0.03511982 -0.068221256 0.4475821
-0.034275781 -0.068148315 0.44710353
-0.03343793 -0.068084463 0.4466846
-0.032604024 -0.068025678 0.44629896
-0.031773292 -0.067970715 0.44593832
-0.030945025 -0.067918301 0.44559446
-0.030119715 -0.06786976 0.44527599
-0.029297139 -0.067824885 0.44498158
-0.028477076 -0.067783467 0.44470984
-0.027659666 -0.06774614 0.44446495
-0.02684477 -0.067712925 0.44424704
-0.026032273 -0.067683913 0.44405669
-0.025221908 -0.067658767 0.44389173
-0.02441334 -0.067636959 0.44374865
-0.023606256 -0.067617916 0.44362372
-0.022800563 -0.067601666 0.44351712
-0.021996124 -0.067588083 0.44342801
-0.02119289 -0.067577332 0.44335744
-0.020390756 -0.067569368 0.44330519
-0.01958981 -0.067564853 0.4432756
-0.018789984 -0.067563988 0.44326991
-0.017991289 -0.067567289 0.44329154
-0.0171935 -0.067574449 0.44333854
-0.016396426 -0.067585267 0.44340953
-0.015599917 -0.067599639 0.4435038
-0.01480374 -0.067617081 0.44361824
-0.014007844 -0.067637876 0.44375467
-0.013211908 -0.06766098 0.44390625
-0.012415942 -0.067686908 0.44407636
-0.011619845 -0.067715652 0.44426492
-0.010823552 -0.067747422 0.44447336
-0.010027036 -0.06778276 0.44470522
-0.009230217 -0.067822024 0.44496283
-0.008432975 -0.067865372 0.4452472
-0.0076351846 -0.067912959 0.44555941
-0.0068366285 -0.067964129 0.44589514
-0.0060372609 -0.0680198 0.44626039
-0.0052368045 -0.068078458 0.44664523
-0.0044351709 -0.06814035 0.44705129
-0.0036322381 -0.068205364 0.44747779
-0.0028279342 -0.068274409 0.44793081
-0.0020222035 -0.068350479 0.44842988
-0.0012148601 -0.068437122 0.4489983
-0.00040556918 -0.068541192 0.44968107
0.00040631316 -0.06866692 0.45050597
0.0012215368 -0.068813235 0.4514659
0.0020405487 -0.068970546 0.45249799
0.0028636206 -0.069135986 0.45358336
0.0036912574 -0.069313616 0.45474875
0.0045245541 -0.069513604 0.45606086
0.0053644646 -0.069738038 0.4575333
0.0062114485 -0.06998232 0.45913595
-0.044383407 -0.069271296 0.45991388
-0.043382738 -0.068999216 0.45810744
-0.042405371 -0.068754338 0.45648164
-0.041447781 -0.068532474 0.4550086
-0.040512148 -0.068338677 0.45372191
-0.039594229 -0.068167381 0.45258465
-0.038687114 -0.068007872 0.45152563
-0.03778854 -0.067856841 0.45052287
-0.036902014 -0.067721277 0.44962284
-0.0360316 -0.067609854 0.44888306
-0.035175283 -0.067520365 0.44828892
-0.034329019 -0.067446426 0.44779798
-0.033488877 -0.067381233 0.44736516
-0.032653026 -0.067321673 0.44696972
-0.031820238 -0.067265563 0.44659719
-0.03099023 -0.067212574 0.4462454
-0.030163072 -0.06716311 0.44591695
-0.029338736 -0.067117386 0.44561338
-0.028517032 -0.067075267 0.44533378
-0.027698142 -0.06703753 0.44508323
-0.026881967 -0.067004301 0.4448626
-0.026068218 -0.066975273 0.44466984
-0.025256412 -0.066949539 0.44449899
-0.024446461 -0.066927202 0.44435069
-0.023637969 -0.066907473 0.44421971
-0.022830846 -0.066890374 0.44410619
-0.022024909 -0.066875637 0.44400832
-0.021220209 -0.066863678 0.44392893
-0.020416602 -0.066854365 0.44386712
-0.019614257 -0.066848591 0.44382876
-0.018813094 -0.066846527 0.44381508
-0.018013358 -0.066849574 0.44383529
-0.017214727 -0.066857196 0.44388589
-0.016416922 -0.066868924 0.4439638
-0.015619807 -0.066884816 0.44406927
-0.01482294 -0.066903539 0.4441936
-0.014026217 -0.066925094 0.44433671
-0.013229464 -0.066949107 0.44449612
-0.01243256 -0.066975407 0.44467074
-0.011635591 -0.067004956 0.44486693
-0.010838305 -0.067036927 0.44507918
-0.010040773 -0.067072369 0.4453145
-0.009242937 -0.06711176 0.44557604
-0.0084446846 -0.067155346 0.44586542
-0.0076458887 -0.067203343 0.44618407
-0.0068463208 -0.067255035 0.44652727
-0.0060458793 -0.067310795 0.44689748
-0.0052444232 -0.067370668 0.44729501
-0.004441706 -0.067433171 0.44771001
-0.003637661 -0.067498818 0.44814587
-0.0028322267 -0.067568839 0.44861072
-0.0020253207 -0.067645706 0.44912109
-0.0012167668 -0.067733347 0.44970298
-0.00040622879 -0.067840211 0.45041245
0.00040700569 -0.067969948 0.45127383
0.0012237299 -0.068120964 0.45227647
0.0020444139 -0.068283424 0.45335507
0.0028693392 -0.068454236 0.45448914
0.0036991742 -0.068640232 0.45572403
0.0045350636 -0.06885051 0.45712015
0.0053780875 -0.069087744 0.4586952
-0.0435181 -0.068385586 0.45953679
-0.042526443 -0.068124883 0.45778495
-0.041555002 -0.067886882 0.45618564
-0.040607598 -0.067679331 0.45479092
-0.039681166 -0.067498893 0.45357841
-0.03876761 -0.067333221 0.45246512
-0.037862904 -0.067176118 0.45140946
-0.036970206 -0.067033887 0.4504537
-0.036094509 -0.066916786 0.44966677
-0.035234403 -0.06682387 0.44904241
-0.034385081 -0.066747509 0.44852927
-0.033542562 -0.066680998 0.44808233
-0.032704558 -0.066620395 0.44767508
-0.031869847 -0.066563606 0.44729349
-0.031037884 -0.066509753 0.4469316
-0.030208813 -0.066459388 0.44659317
-0.029382596 -0.066412717 0.44627953
-0.02855926 -0.066370115 0.44599324
-0.027738815 -0.066331945 0.4457368
-0.026921166 -0.066298395 0.44551131
-0.026105868 -0.066268742 0.44531205
-0.025292676 -0.066242717 0.4451372
-0.024481194 -0.06621962 0.44498199
-0.023671284 -0.066199355 0.4448458
-0.022862606 -0.066181228 0.44472399
-0.022055149 -0.066165447 0.44461796
-0.021248799 -0.066151924 0.44452706
-0.020443566 -0.06614095 0.44445333
-0.019639645 -0.066133499 0.44440326
-0.018837214 -0.066130646 0.44438407
-0.018036256 -0.066132933 0.44439948
-0.017236788 -0.066141166 0.44445476
-0.016438289 -0.066154085 0.4445416
-0.015640544 -0.066171527 0.44465882
-0.014843099 -0.066192195 0.44479769
-0.014045515 -0.066214569 0.44494805
-0.013247967 -0.066239834 0.4451178
-0.012450173 -0.066267051 0.4453007
-0.011652132 -0.066296607 0.44549933
-0.010853807 -0.066328824 0.44571579
-0.010055212 -0.066364408 0.44595489
-0.0092562875 -0.066403799 0.44621962
-0.0084570274 -0.06644807 0.44651711
-0.0076571777 -0.066496544 0.44684285
-0.0068565672 -0.066549033 0.44719556
-0.0060550156 -0.066605173 0.4475728
-0.0052524414 -0.066665605 0.44797888
-0.0044485964 -0.06672895 0.44840455
-0.0036433961 -0.066795595 0.44885239
-0.0028367678 -0.066866666 0.44933
-0.0020286292 -0.066944763 0.44985479
-0.0012188152 -0.067034833 0.45046005
-0.00040694067 -0.067145206 0.45120174
0.00040776274 -0.067280851 0.45211324
0.0012261498 -0.067438237 0.45317084
0.0020486419 -0.067605183 0.45429268
0.0028756277 -0.067782655 0.45548522
0.0037079013 -0.067978196 0.45679921
0.0045468765 -0.068203151 0.45831087
-0.042664599 -0.067517765 0.45927215
-0.041677184 -0.067261197 0.45752692
-0.040714968 -0.067035757 0.45599341
-0.039777182 -0.066842064 0.45467591
-0.038856041 -0.066668786 0.4534972
-0.037944868 -0.066505522 0.45238665
-0.037044872 -0.066355102 0.45136344
-0.036162302 -0.066229835 0.45051137
-0.035297431 -0.066131964 0.44984564
-0.034444652 -0.066052683 0.44930634
-0.033599328 -0.065984227 0.44884065
-0.03275907 -0.065922573 0.44842127
-0.031922258 -0.065864913 0.44802907
-0.031088138 -0.065809958 0.44765523
-0.030257173 -0.065758921 0.44730809
-0.029429009 -0.065711349 0.4469845
-0.02860382 -0.06566792 0.4466891
-0.027781663 -0.065629147 0.44642532
-0.026962336 -0.065594934 0.44619262
-0.026145523 -0.06556493 0.44598851
-0.025330758 -0.06553831 0.44580743
-0.024517853 -0.065514915 0.44564831
-0.023706367 -0.065493859 0.44550508
-0.02289623 -0.065475181 0.44537804
-0.02208711 -0.065458164 0.44526225
-0.021279164 -0.065443471 0.4451623
-0.020472074 -0.065430358 0.4450731
-0.019666499 -0.065421209 0.44501087
-0.018862331 -0.065416165 0.4449766
-0.018060101 -0.0654177 0.44498703
-0.017259985 -0.065427385 0.44505292
-0.016461082 -0.065442838 0.445158
-0.015662635 -0.065461785 0.44528687
-0.014864299 -0.065483265 0.44543299
-0.014065968 -0.065507226 0.44559598
-0.013267391 -0.065532871 0.44577044
-0.012468592 -0.065560661 0.44595948
-0.011669545 -0.065590896 0.44616511
-0.01087018 -0.065623678 0.44638816
-0.010070502 -0.065659672 0.44663295
-0.0092704454 -0.065699242 0.44690216
-0.008470037 -0.065743618 0.44720399
-0.007669094 -0.065792754 0.44753823
-0.0068673398 -0.065845668 0.44789818
-0.006064672 -0.06590277 0.44828659
-0.0052609313 -0.065963984 0.44870299
-0.0044558654 -0.06602782 0.44913721
-0.003649435 -0.066095322 0.44959638
-0.0028415471 -0.066167459 0.45008704
-0.0020321358 -0.066247627 0.45063239
-0.0012210035 -0.066341184 0.45126879
-0.00040771285 -0.066457197 0.45205793
0.00040858967 -0.066600114 0.45303008
0.0012287904 -0.06676428 0.45414677
0.0020532967 -0.066937476 0.45532489
0.0028825887 -0.067123137 0.45658782
0.0037177932 -0.067333363 0.45801783
0.004560275 -0.067574978 0.45966136
-0.041817423 -0.066659458 0.45906648
-0.040836543 -0.066410944 0.45735502
-0.039884489 -0.066200033 0.45590252
-0.038953718 -0.066016302 0.45463723
-0.038035743 -0.065846823 0.45347005
-0.037127774 -0.065687597 0.45237353
-0.036236562 -0.065551527 0.45143646
-0.035365023 -0.065445617 0.45070705
-0.034507759 -0.065361753 0.45012951
-0.033659332 -0.065290995 0.44964221
-0.032816663 -0.065228179 0.44920963
-0.031977519 -0.065169372 0.44880465
-0.031141371 -0.065113775 0.44842175
-0.030308239 -0.065061688 0.44806305
-0.029478144 -0.065013438 0.44773078
-0.02865088 -0.064968899 0.44742402
-0.027826844 -0.064929299 0.44715133
-0.02700578 -0.06489449 0.44691157
-0.026187267 -0.064863846 0.44670057
-0.025370974 -0.064836934 0.44651523
-0.024556445 -0.064812914 0.4463498
-0.023743475 -0.064791515 0.44620243
-0.022931799 -0.064772271 0.44606993
-0.022121198 -0.064754784 0.44594947
-0.021311566 -0.064738907 0.44584015
-0.020503122 -0.064725548 0.44574812
-0.019695787 -0.06471473 0.44567361
-0.018889487 -0.064706542 0.44561723
-0.018085031 -0.064704224 0.44560128
-0.017285202 -0.064719014 0.44570312
-0.016485618 -0.06473621 0.44582155
-0.015686279 -0.064756177 0.44595909
-0.014887067 -0.064778857 0.44611526
-0.014087683 -0.06480334 0.44628388
-0.01328802 -0.064829431 0.44646356
-0.012488075 -0.064857423 0.44665632
-0.011687909 -0.064888045 0.44686723
-0.010887386 -0.064921081 0.44709474
-0.010086527 -0.064957239 0.44734371
-0.0092853429 -0.064997405 0.44762033
-0.0084838001 -0.065042466 0.44793066
-0.0076816822 -0.065092146 0.44827282
-0.0068787634 -0.065145932 0.44864324
-0.0060748942 -0.06520386 0.44904217
-0.0052698972 -0.065265648 0.44946766
-0.0044635735 -0.065330483 0.44991416
-0.0036558281 -0.065398701 0.45038396
-0.0028466196 -0.065472253 0.45089048
-0.0020358646 -0.065554842 0.45145926
-0.0012233615 -0.065653734 0.4521403
-0.0004085564 -0.065777577 0.45299321
0.00040950676 -0.06593059 0.45404693
0.0012317076 -0.066101648 0.45522496
0.0020584362 -0.066281646 0.45646459
0.0028903831 -0.066478811 0.45782241
0.0037289748 -0.066707216 0.45939538
-0.040979143 -0.065814987 0.4589521
-0.04000672 -0.065578029 0.45729968
-0.039062947 -0.065379038 0.45591205
-0.038136523 -0.065201148 0.45467159
-0.037220497 -0.065033615 0.45350328
-0.036318842 -0.064884223 0.45246154
-0.035438497 -0.064766914 0.45164347
-0.034575712 -0.064676918 0.45101592
-0.033723395 -0.064602651 0.45049801
-0.032877535 -0.064537384 0.45004287
-0.032036096 -0.064477712 0.44962677
-0.031197716 -0.064421259 0.44923308
-0.030362351 -0.064368181 0.448863
-0.029530035 -0.064318843 0.44851893
-0.028700933 -0.064273916 0.44820565
-0.027874608 -0.064232789 0.44791886
-0.027051505 -0.064196855 0.44766825
-0.026231274 -0.064165734 0.44745123
-0.025413316 -0.064138368 0.44726041
-0.024597192 -0.064113997 0.44709045
-0.023782672 -0.064092286 0.44693908
-0.022969624 -0.06407316 0.44680569
-0.022157706 -0.064055912 0.44668543
-0.02134677 -0.064040311 0.44657663
-0.020536862 -0.064026691 0.44648165
-0.019728374 -0.064016566 0.44641101
-0.018921347 -0.064010516 0.44636884
-0.018116409 -0.064011313 0.44637439
-0.017314048 -0.064021714 0.44644693
-0.016512798 -0.064037442 0.4465566
-0.015712034 -0.064056754 0.4466913
-0.014911509 -0.064079188 0.44684774
-0.014110794 -0.06410332 0.44701603
-0.013309848 -0.064129263 0.44719693
-0.012508689 -0.064157471 0.44739363
-0.011707251 -0.064188026 0.44760671
-0.010905514 -0.064221352 0.44783911
-0.01010344 -0.064257883 0.4480938
-0.009301086 -0.064298809 0.44837922
-0.0084983427 -0.064344592 0.44869849
-0.0076949988 -0.064394988 0.44904992
-0.0068908511 -0.06444972 0.4494316
-0.006085726 -0.064508699 0.44984284
-0.0052793943 -0.064571053 0.45027769
-0.0044717239 -0.064636737 0.45073572
-0.0036626011 -0.064705953 0.4512184
-0.0028520264 -0.06478174 0.45174688
-0.0020398926 -0.064868584 0.45235249
-0.001225926 -0.064974077 0.45308813
-0.00040949622 -0.065109901 0.45403525
0.00041053194 -0.065274581 0.45518363
0.0012349462 -0.065452151 0.45642188
0.0020642078 -0.065641806 0.45774445
0.0028993678 -0.065857068 0.45924553
-0.040150501 -0.064985864 0.45894316
-0.039186858 -0.064761437 0.45735824
-0.038248565 -0.064570159 0.45600739
-0.037324503 -0.064395025 0.45477054
-0.03641184 -0.064232126 0.45362011
-0.035519712 -0.06409879 0.4526785
-0.034648847 -0.063998461 0.45196992
-0.03379155 -0.063918956 0.45140845
-0.032942325 -0.06385117 0.45092976
-0.032098103 -0.063789897 0.45049703
-0.031257391 -0.063732602 0.45009241
-0.030419858 -0.063678905 0.44971317
-0.029585194 -0.063628428 0.4493567
-0.028753683 -0.063582085 0.44902942
-0.027925314 -0.063540205 0.44873366
-0.027100081 -0.063503169 0.44847211
-0.026277706 -0.063470766 0.44824326
-0.025457855 -0.063442588 0.44804427
-0.024640195 -0.06341821 0.44787207
-0.02382426 -0.063396759 0.44772059
-0.023009731 -0.063377678 0.44758585
-0.022196509 -0.063360944 0.44746768
-0.021384371 -0.063346155 0.44736323
-0.020573558 -0.063334286 0.44727939
-0.019764008 -0.063325495 0.44721732
-0.018956034 -0.063321218 0.44718713
-0.018149966 -0.063323215 0.44720122
-0.017345574 -0.063331515 0.44725981
-0.016542401 -0.063345291 0.44735712
-0.015739882 -0.06336312 0.44748303
-0.014937589 -0.063383825 0.44762924
-0.014135377 -0.063407265 0.4477948
-0.013332988 -0.063432701 0.44797444
-0.012530424 -0.063460536 0.44817099
-0.011727641 -0.063491024 0.44838631
-0.010924656 -0.06352485 0.44862521
-0.010121378 -0.063562259 0.44888937
-0.0093177492 -0.063603766 0.44918254
-0.0085137337 -0.063650295 0.44951111
-0.0077091339 -0.063701786 0.44987479
-0.0069036689 -0.063757412 0.45026761
-0.0060971794 -0.063817143 0.45068944
-0.0052894512 -0.063880295 0.45113543
-0.0044803377 -0.063946642 0.45160398
-0.0036697886 -0.064017422 0.45210385
-0.0028577978 -0.064096324 0.45266107
-0.0020442505 -0.064189464 0.45331883
-0.0012287963 -0.064307004 0.45414895
-0.0004105609 -0.064458057 0.45521572
0.00041167418 -0.064632848 0.4564501
0.0012385484 -0.064817369 0.45775321
0.0020707767 -0.065022387 0.4592011
-0.039332122 -0.06417346 0.45905364
-0.038375799 -0.063959666 0.45752427
-0.03744103 -0.063773185 0.45619032
-0.036517862 -0.063598521 0.45494092
-0.035611924 -0.063446529 0.45385367
-0.034729276 -0.063329853 0.45301905
-0.033864979 -0.063241832 0.45238939
-0.033011388 -0.063169941 0.45187512
-0.032163989 -0.063106559 0.45142174
-0.03132084 -0.063048445 0.45100603
-0.030480778 -0.062993608 0.45061377
-0.02964367 -0.062942035 0.45024487
-0.028809983 -0.062895037 0.44990864
-0.027979165 -0.062851749 0.449599
-0.027151542 -0.062813267 0.44932374
-0.026326897 -0.062779523 0.44908234
-0.025505258 -0.062751032 0.44887853
-0.024685655 -0.062725842 0.44869837
-0.023868075 -0.062704265 0.448544
-0.023052052 -0.0626854 0.44840908
-0.022237452 -0.06266918 0.44829306
-0.021424223 -0.062655747 0.44819692
-0.020612324 -0.062645301 0.4481222
-0.019801771 -0.06263826 0.44807184
-0.018992711 -0.062635534 0.44805235
-0.018185148 -0.062637731 0.44806808
-0.017379032 -0.062645346 0.44812256
-0.01657393 -0.062657543 0.44820979
-0.015769459 -0.062673494 0.44832388
-0.014965283 -0.062692404 0.44845915
-0.014161382 -0.062714688 0.44861859
-0.013357427 -0.062739432 0.44879556
-0.012553398 -0.062766992 0.44899273
-0.011749225 -0.062797584 0.44921154
-0.010944821 -0.062831379 0.44945329
-0.010140274 -0.062869698 0.44972742
-0.0093354443 -0.062912777 0.45003554
-0.0085301669 -0.062960759 0.45037878
-0.0077241543 -0.063012838 0.45075133
-0.0069173211 -0.063069694 0.45115802
-0.0061093541 -0.063129991 0.45158938
-0.0053001284 -0.063193835 0.45204607
-0.0044894898 -0.063260995 0.45252645
-0.0036774706 -0.063334219 0.45305026
-0.0028640295 -0.063417792 0.45364812
-0.0020490622 -0.063520923 0.45438585
-0.0012320458 -0.063655704 0.45534995
-0.00041176178 -0.063823074 0.45654723
0.00041294834 -0.064006992 0.45786285
0.001242673 -0.064204775 0.45927763
-0.03852402 -0.06337823 0.45929143
-0.037572831 -0.063171901 0.45779622
-0.036640078 -0.062987998 0.45646349
-0.035719123 -0.062816389 0.45521986
-0.034820549 -0.062676989 0.45420966
-0.033945322 -0.062573902 0.45346263
-0.033085518 -0.062494863 0.45288983
-0.032234181 -0.062428225 0.45240691
-0.031387918 -0.062368199 0.45197192
-0.030545553 -0.062312927 0.45157138
-0.029706061 -0.062260646 0.4511925
-0.028869633 -0.062212024 0.45084015
-0.028036375 -0.062167615 0.45051831
-0.027206343 -0.062127918 0.45023063
-0.026379343 -0.062092915 0.44997698
-0.025555268 -0.062062792 0.44975868
-0.024733717 -0.062037028 0.44957197
-0.023914315 -0.062015086 0.44941297
-0.023096697 -0.0619964 0.44927755
-0.022280663 -0.061980754 0.44916415
-0.021466142 -0.061968297 0.44907388
-0.020653045 -0.061959133 0.44900748
-0.019841239 -0.061953258 0.44896489
-0.019030835 -0.061951444 0.44895175
-0.018221676 -0.061953697 0.44896808
-0.0174137 -0.061960377 0.44901648
-0.016606722 -0.061971426 0.44909656
-0.015800301 -0.061985794 0.44920069
-0.01499438 -0.062003788 0.44933107
-0.014188761 -0.062025156 0.44948593
-0.013383227 -0.062049508 0.44966242
-0.012577641 -0.06207674 0.44985977
-0.011772069 -0.062107816 0.45008495
-0.010966264 -0.062142164 0.45033386
-0.010160412 -0.062181719 0.45062053
-0.0093542431 -0.062226053 0.4509418
-0.0085475761 -0.062275201 0.45129797
-0.00774016 -0.062328659 0.45168537
-0.0069317929 -0.062386137 0.45210192
-0.0061222534 -0.062446982 0.45254284
-0.005311429 -0.062511429 0.4530099
-0.0044992445 -0.062580399 0.45350972
-0.0036857466 -0.062657692 0.45406982
-0.002870932 -0.062750369 0.45474145
-0.0020545647 -0.062869675 0.45560604
-0.0012358183 -0.063026734 0.45674419
-0.00041312695 -0.063208424 0.45806089
0.0004143962 -0.063402623 0.45946819
-0.037726499 -0.062601112 0.45966855
-0.036778145 -0.062398877 0.45818356
-0.035846017 -0.0622155 0.45683706
-0.034928616 -0.062049657 0.45561931
-0.034036491 -0.061921809 0.45468053
-0.03316649 -0.061828889 0.45399824
-0.032309379 -0.061755899 0.4534623
-0.031459529 -0.061693359 0.45300308
-0.030614426 -0.061637044 0.45258957
-0.029772367 -0.061583936 0.45219961
-0.028933477 -0.061534576 0.45183715
-0.028097609 -0.061488971 0.45150229
-0.027264938 -0.061447844 0.45120031
-0.026435295 -0.061411224 0.4509314
-0.025608616 -0.061379381 0.45069757
-0.024784651 -0.061352171 0.45049778
-0.023963261 -0.061329704 0.45033282
-0.023143807 -0.061310787 0.45019391
-0.022326048 -0.061295152 0.45007911
-0.021509945 -0.061283048 0.44999024
-0.020695329 -0.061274406 0.44992676
-0.01988213 -0.061269421 0.44989017
-0.019070152 -0.061267935 0.44987926
-0.018259425 -0.061270516 0.44989821
-0.017449711 -0.06127689 0.449945
-0.016640844 -0.061287012 0.45001933
-0.01583272 -0.061301045 0.45012239
-0.015024999 -0.061318237 0.45024863
-0.014217535 -0.061338507 0.45039746
-0.013410374 -0.06136262 0.45057452
-0.012603314 -0.061390333 0.45077801
-0.011796277 -0.061421994 0.4510105
-0.010989204 -0.061458141 0.45127591
-0.010181942 -0.061498933 0.45157543
-0.0093743484 -0.061544634 0.451911
-0.0085661747 -0.06159487 0.4522799
-0.0077571748 -0.061649125 0.45267826
-0.0069472007 -0.061707489 0.45310682
-0.0061359783 -0.061768848 0.45355737
-0.005323505 -0.061834559 0.45403987
-0.0045097903 -0.06190712 0.45457268
-0.0036948712 -0.061991729 0.45519394
-0.0028787844 -0.06209949 0.45598522
-0.0020610795 -0.062244602 0.45705074
-0.0012402011 -0.062423453 0.45836401
-0.00041467531 -0.062615976 0.45977765
-0.035992157 -0.061641738 0.45869952
-0.035060171 -0.061458416 0.45733535
-0.034145575 -0.061297476 0.45613775
-0.033258263 -0.061178781 0.45525447
-0.032391977 -0.061093725 0.45462155
-0.031536445 -0.061025064 0.45411062
-0.030687567 -0.060965963 0.45367083
-0.02984288 -0.060912177 0.45327058
-0.029001428 -0.060862154 0.45289832
-0.028162859 -0.06081545 0.4525508
-0.027327491 -0.060773078 0.45223549
-0.026495254 -0.060735274 0.45195419
-0.025665816 -0.060701691 0.45170426
-0.024839167 -0.060672719 0.45148867
-0.024015129 -0.060648378 0.45130754
-0.02319346 -0.060628518 0.45115978
-0.02237403 -0.060613282 0.45104638
-0.021556083 -0.060601067 0.45095548
-0.02073974 -0.060592577 0.4508923
-0.019924797 -0.060587648 0.45085564
-0.019111229 -0.060586661 0.45084828
-0.018298697 -0.060589019 0.45086583
-0.017487168 -0.060595073 0.4509109
-0.016676508 -0.06060487 0.45098379
-0.015866525 -0.060618266 0.45108348
-0.01505712 -0.060635429 0.45121118
-0.014248069 -0.060656067 0.45136476
-0.013439268 -0.060680334 0.45154533
-0.012630682 -0.060708757 0.45175686
-0.011822186 -0.060741581 0.45200109
-0.01101373 -0.060779475 0.45228308
-0.010205023 -0.060821936 0.45259905
-0.0093958573 -0.060868818 0.45294791
-0.0085859988 -0.060919706 0.45332661
-0.0077753109 -0.060974807 0.45373663
-0.0069635515 -0.06103348 0.45417324
-0.0061506033 -0.061095994 0.45463842
-0.0053365235 -0.06116477 0.45515022
-0.0045213578 -0.061243847 0.45573866
-0.003705319 -0.061343614 0.45648107
-0.0028882544 -0.061478559 0.45748523
-0.0020688898 -0.061652917 0.4587827
-0.035216115 -0.060903165 0.45936954
-0.034283143 -0.060718339 0.45797548
-0.033370957 -0.060562108 0.45679709
-0.032486007 -0.060448643 0.45594126
-0.031621046 -0.06036745 0.45532885
-0.030766349 -0.060302045 0.45483553
-0.029918009 -0.060245857 0.45441172
-0.029073792 -0.060195033 0.45402837
-0.028232774 -0.060148083 0.45367426
-0.027394626 -0.060104627 0.45334649
-0.026559534 -0.060065404 0.45305064
-0.025727382 -0.060030561 0.45278782
-0.024897968 -0.060000021 0.45255747
-0.024071198 -0.059974004 0.45236123
-0.023247052 -0.059952922 0.45220223
-0.022424979 -0.059935853 0.45207348
-0.021605 -0.059923302 0.4519788
-0.020786587 -0.05991428 0.45191076
-0.019969767 -0.059909303 0.45187321
-0.019154206 -0.059907835 0.45186216
-0.018339891 -0.059910309 0.45188081
-0.017526558 -0.05991637 0.45192653
-0.016714158 -0.059926368 0.45200193
-0.015902387 -0.059939764 0.45210299
-0.01509121 -0.059956968 0.45223275
-0.01428046 -0.05997793 0.45239085
-0.013470247 -0.060003828 0.4525862
-0.012660172 -0.060033716 0.45281163
-0.011850198 -0.060068246 0.45307207
-0.011040112 -0.060107276 0.45336646
-0.010229741 -0.060150877 0.45369533
-0.009418834 -0.060198635 0.45405555
-0.0086072143 -0.060250498 0.45444673
-0.00779464 -0.060305897 0.45486459
-0.0069809854 -0.060364991 0.45531031
-0.0061663855 -0.060430579 0.455805
-0.0053508789 -0.060506094 0.45637459
-0.0045347358 -0.060600556 0.4570871
-0.0037181356 -0.060729548 0.45806003
-0.0029000489 -0.060901027 0.45935342
-0.033517987 -0.060001336 0.4588097
-0.032603972 -0.059842732 0.4575969
-0.031718593 -0.059729822 0.45673352
-0.030853817 -0.059650712 0.4561286
-0.029999167 -0.059587386 0.45564437
-0.029150922 -0.059533574 0.45523289
-0.028307198 -0.05948614 0.45487016
-0.027466401 -0.059442211 0.45453426
-0.026628569 -0.05940219 0.45422825
-0.025793441 -0.059365857 0.45395041
-0.0249613 -0.059334237 0.45370862
-0.024131794 -0.059306949 0.45349997
-0.023304958 -0.059284542 0.45332861
-0.022480166 -0.059265889 0.45318601
-0.02165748 -0.059251595 0.45307669
-0.020836907 -0.059242185 0.45300475
-0.020017836 -0.059236452 0.45296091
-0.019200152 -0.059234507 0.45294604
-0.018383753 -0.059236534 0.45296153
-0.017568476 -0.059242539 0.45300743
-0.016754355 -0.059253208 0.45308903
-0.015940877 -0.059267361 0.45319724
-0.015127903 -0.059285022 0.4533323
-0.014315652 -0.059307698 0.45350569
-0.013503769 -0.059334744 0.45371249
-0.012691955 -0.059365597 0.45394841
-0.011880322 -0.059401613 0.45422381
-0.011068391 -0.059441358 0.45452774
-0.010256218 -0.059486061 0.45486957
-0.0094434172 -0.059534583 0.45524061
-0.0086297588 -0.059586432 0.45563707
-0.0078152791 -0.059642922 0.45606902
