# .PCD v0.7 - Point Cloud Data file format
VERSION 0.7
FIELDS x y z
SIZE 4 4 4
TYPE F F F
COUNT 1 1 1
WIDTH 71
HEIGHT 1
VIEWPOINT 0 0 0 1 0 0 0
POINTS 71
DATA ascii
-0.0053898944 -0.059288837 0.45970219
-0.032764874 -0.05930857 0.4598552
-0.019497231 -0.056002684 0.45995438
-0.026121046 -0.05680291 0.45971608
-0.010229741 -0.060150877 0.45369533
-0.029918009 -0.060245857 0.45441172
-0.00041467531 -0.062615976 0.45977765
0.004560275 -0.067574978 0.45966136
0.00040567733 -0.069370821 0.449801
-0.037726499 -0.062601112 0.45966855
-0.044383407 -0.069271296 0.45991388
-0.038547136 -0.069384843 0.44989192
-0.00040556918 -0.068541192 0.44968107
-0.01988213 -0.061269421 0.44989017
-0.028809983 -0.062895037 0.44990864
-0.010771492 -0.070613123 0.44233552
-0.029967412 -0.070723094 0.4430244
0.010363322 -0.079175778 0.45961973
-0.03213498 -0.079742357 0.43987846
-0.048471496 -0.079128683 0.45934632
-0.00040385482 -0.070674591 0.44778025
-0.0059507624 -0.079740211 0.43986663
0.0060875183 -0.079949409 0.44997531
-0.019441208 -0.072606966 0.43991306
-0.03937703 -0.070229135 0.45010197
-0.0297415 -0.076534793 0.43968463
0.011201424 -0.086707316 0.4599908
-0.0003989641 -0.08976692 0.4423576
0.0095349969 -0.07586541 0.45965543
-0.039316252 -0.070931382 0.44940722
-0.0043650693 -0.088491857 0.43998525
-0.044204116 -0.079891846 0.44965133
-0.010656023 -0.089589529 0.4375937
-0.029641261 -0.089714214 0.43820274
0.0068980712 -0.087240309 0.4499025
-0.048223738 -0.089440607 0.45699841
-0.033719465 -0.089257404 0.43984678
-0.019439563 -0.10116508 0.43987584
-0.040985424 -0.099420086 0.44993287
-0.010133955 -0.10985207 0.44944715
-0.030535331 -0.095571622 0.43969506
-0.046806678 -0.097341321 0.45927104
-0.00041222744 -0.10924027 0.45706353
-0.040130645 -0.10012393 0.44944921
0.0078705912 -0.099003747 0.45929679
-0.039194304 -0.099804051 0.44801328
0.0020264883 -0.10010853 0.44938004
-0.010724602 -0.09969908 0.44040993
-0.045044221 -0.087247819 0.44994122
-0.012299741 -0.099588223 0.43992022
-0.02737904 -0.098802619 0.43995553
0.0028396272 -0.099386953 0.44978294
0.0094423406 -0.089907505 0.45518875
-0.039619122 -0.089243077 0.44372034
-0.0099178515 -0.097988367 0.43986282
-0.01501148 -0.11157181 0.44984353
-0.041842766 -0.1064712 0.45934469
-0.00040231927 -0.099372864 0.4460777
-0.038418867 -0.10947312 0.45803776
-0.024203788 -0.1003862 0.43993974
-0.0077105132 -0.10916463 0.44995528
0.0029032365 -0.10741975 0.45985833
-0.0304274 -0.10913295 0.44982466
-0.023122823 -0.11155748 0.44978574
-0.028809005 -0.10996113 0.44989336
0.010364113 -0.091618769 0.45965484
-0.029855102 -0.09991508 0.44136408
-0.031936642 -0.11488897 0.45987332
-0.0086927786 -0.11548977 0.45896438
-0.014493648 -0.11719149 0.45914444
-0.024468342 -0.11736509 0.45982459
