# .PCD v0.7 - Point Cloud Data file format
VERSION 0.7
FIELDS x y z
SIZE 4 4 4
TYPE F F F
COUNT 1 1 1
WIDTH 103
HEIGHT 1
VIEWPOINT 0 0 0 1 0 0 0
POINTS 103
DATA ascii
-0.08051493 -0.011066033 0.42309085
-0.070265204 -0.018046254 0.42572474
-0.070117131 -0.049473509 0.39463681
-0.067723073 -0.019513428 0.42423165
-0.11055149 -0.019596083 0.40995207
-0.097729728 -0.019834448 0.39984998
-0.080466829 -0.020567754 0.40008447
-0.10987426 -0.020210985 0.40744075
-0.070489235 -0.020297946 0.40919384
-0.11733405 -0.022867018 0.41564196
-0.12070967 -0.028028561 0.41436133
-0.11940929 -0.028465992 0.40989751
-0.12013403 -0.029941099 0.40984759
-0.078959599 -0.021272222 0.39976108
-0.10996941 -0.025599435 0.39977139
-0.11363164 -0.029941034 0.39997089
-0.089376256 -0.020459626 0.39798114
-0.099802874 -0.020537054 0.39948729
-0.084938645 -0.0072369245 0.42231852
-0.099931248 -0.030014684 0.39152053
-0.080210149 -0.030034637 0.39178079
-0.12316732 -0.036094353 0.41257906
-0.056440804 -0.035985745 0.41999739
-0.058051988 -0.039564092 0.40997475
-0.119619 -0.030548852 0.4080905
-0.1220464 -0.037240744 0.40882427
-0.11650718 -0.037152443 0.39993539
-0.092028894 -0.0064382353 0.41991132
-0.10305594 -0.039745122 0.38998246
-0.067662746 -0.021814765 0.4099569
-0.056114931 -0.049243715 0.42325372
-0.060300808 -0.059560921 0.41018069
-0.070507646 -0.030422082 0.39683473
-0.068898901 -0.027775997 0.39996189
-0.056300092 -0.049498741 0.41895032
-0.060253933 -0.058775309 0.40986183
-0.079842634 -0.035524696 0.38998568
-0.093567885 -0.0071975295 0.42001957
-0.10972764 -0.030380616 0.39629385
-0.058048353 -0.046216842 0.40994909
-0.12179948 -0.049676523 0.40799713
-0.089664586 -0.030591447 0.38987055
-0.059441999 -0.066344939 0.42520794
-0.060379893 -0.04940173 0.40574023
-0.059448048 -0.06626375 0.41983402
-0.064539671 -0.049396284 0.39977294
-0.099305421 -0.049477257 0.3890686
-0.080661878 -0.010982133 0.4198831
-0.097498894 -0.010916864 0.41738766
-0.10234383 -0.048885886 0.3899495
-0.062489726 -0.068405911 0.40997899
-0.069315374 -0.018559854 0.41996989
-0.079119667 -0.049581658 0.38988957
-0.10974027 -0.049365368 0.39377418
-0.059500203 -0.055065405 0.40976253
-0.10023469 -0.053810202 0.38995352
-0.060145643 -0.069224231 0.41941768
-0.070480376 -0.059747327 0.39668125
-0.065528303 -0.021076353 0.42488605
-0.080132492 -0.059658114 0.3914015
-0.11996772 -0.058332928 0.40677693
-0.089738064 -0.0056796242 0.41982472
-0.099513985 -0.034109034 0.38988575
-0.06023268 -0.031409681 0.40971726
-0.057714485 -0.058478914 0.42378691
-0.079839073 -0.051701955 0.38996831
-0.067006983 -0.020064238 0.41974592
-0.089599431 -0.059381582 0.38958725
-0.11504135 -0.058061622 0.39985541
-0.11642497 -0.049381491 0.3996532
-0.076093264 -0.014764365 0.41974917
-0.089914784 -0.049330678 0.38791597
-0.12170009 -0.057335906 0.41014239
-0.059417449 -0.027983703 0.42503235
-0.066717245 -0.0587833 0.39985824
-0.099541254 -0.055222534 0.38999259
-0.069601558 -0.068159036 0.39985389
-0.058113966 -0.031173715 0.42672023
-0.070287436 -0.06956654 0.39965272
-0.089822575 -0.01911886 0.39996853
-0.093912594 -0.060849734 0.3899889
-0.11008368 -0.017658474 0.41657671
-0.12011354 -0.066154845 0.40977767
-0.089780122 -0.013670224 0.40965059
-0.099549584 -0.069790989 0.3928012
-0.11998431 -0.048504297 0.40436006
-0.058556776 -0.029845066 0.41887566
-0.10947563 -0.059551895 0.39538372
-0.12047927 -0.067097686 0.41102538
-0.099756502 -0.059571907 0.39083591
-0.12137485 -0.056444835 0.40904629
-0.10903462 -0.018850053 0.40980956
-0.11288799 -0.067444265 0.39989233
-0.060400475 -0.03001496 0.41085863
-0.089663535 -0.060830556 0.38986599
-0.099437386 -0.015155884 0.40986148
-0.10935362 -0.069914617 0.39753285
-0.064568684 -0.036432609 0.39995265
-0.057866067 -0.058622483 0.41934571
-0.10591577 -0.015453902 0.4179208
-0.11919884 -0.069747932 0.4091751
-0.079468712 -0.015893742 0.40982398
-0.089371301 -0.069589511 0.39166722
