# .PCD v0.7 - Point Cloud Data file format
VERSION 0.7
FIELDS x y z
SIZE 4 4 4
TYPE F F F
COUNT 1 1 1
WIDTH 1313
HEIGHT 1
VIEWPOINT 0 0 0 1 0 0 0
POINTS 1313
DATA ascii
-0.074658528 -0.035029359 0.39231658
-0.074015118 -0.035059791 0.39265743
-0.073373407 -0.035091631 0.39301401
-0.072733611 -0.035125013 0.39338788
-0.072095625 -0.035159934 0.39377898
-0.071459323 -0.035196383 0.39418721
-0.070825443 -0.035234768 0.39461708
-0.070193172 -0.035274744 0.3950648
-0.069562815 -0.035316508 0.39553255
-0.068934552 -0.03536021 0.39602199
-0.068308398 -0.035405926 0.396534
-0.067684479 -0.035453774 0.3970699
-0.067062721 -0.035503794 0.3976301
-0.066443108 -0.035556044 0.39821526
-0.065825827 -0.035610694 0.39882734
-0.065211505 -0.035668172 0.39947107
-0.064599782 -0.035728369 0.40014526
-0.063991003 -0.03579158 0.40085319
-0.063385643 -0.035858162 0.4015989
-0.062783584 -0.035928179 0.40238306
-0.062186107 -0.036002483 0.40321523
-0.061592795 -0.036080986 0.40409446
-0.061004866 -0.036164563 0.40503046
-0.060422573 -0.036253542 0.40602702
-0.059847169 -0.036348894 0.40709493
-0.059279811 -0.036451563 0.40824476
-0.058722708 -0.036563195 0.40949503
-0.058177721 -0.036685314 0.41086271
-0.057650361 -0.036821842 0.41239178
-0.057146717 -0.036977287 0.41413271
-0.056678433 -0.037160031 0.41617939
-0.056272339 -0.037389003 0.41874379
-0.056035139 -0.037737951 0.42265186
-0.12316732 -0.036094353 0.41257906
-0.12066935 -0.035577286 0.40666869
-0.11921306 -0.035362896 0.40421811
-0.11795712 -0.035205662 0.40242085
-0.11680788 -0.035078526 0.4009676
-0.1157281 -0.034970794 0.39973617
-0.11469913 -0.034877166 0.39866593
-0.11371069 -0.034794755 0.39772394
-0.1127525 -0.034720611 0.39687642
-0.11181997 -0.034653474 0.39610898
-0.11090953 -0.03459236 0.39541045
-0.11001853 -0.034536559 0.39477262
-0.1091442 -0.034485303 0.39418671
-0.10828508 -0.034438208 0.39364839
-0.1074395 -0.034394823 0.39315248
-0.10660672 -0.034354988 0.39269716
-0.10578443 -0.034318026 0.39227465
-0.10497219 -0.034283847 0.39188397
-0.10416942 -0.034252319 0.39152357
-0.10337506 -0.034223143 0.39119008
-0.10258884 -0.03419628 0.39088303
-0.10181002 -0.034171529 0.39060012
-0.10103835 -0.03414885 0.39034086
-0.10027291 -0.034127973 0.39010224
-0.099513985 -0.034109034 0.38988575
-0.098761089 -0.034091908 0.38968998
-0.098013498 -0.034076378 0.38951248
-0.097271524 -0.03406259 0.38935488
-0.096534558 -0.034050371 0.3892152
-0.095802136 -0.034039587 0.38909194
-0.095074564 -0.034030378 0.38898668
-0.094351254 -0.03402257 0.38889742
-0.093631953 -0.034016103 0.38882348
-0.092916556 -0.034010965 0.38876477
-0.09220507 -0.034007192 0.38872164
-0.09149731 -0.034004748 0.38869369
-0.090792902 -0.034003519 0.38867965
-0.090091869 -0.034003545 0.38867995
-0.089394167 -0.034004841 0.38869476
-0.088699594 -0.034007356 0.38872349
-0.088007882 -0.034011014 0.38876534
-0.087319441 -0.034016009 0.38882241
-0.086633615 -0.034022108 0.38889214
-0.085950494 -0.034029379 0.38897526
-0.085270107 -0.034037862 0.38907221
-0.084592372 -0.034047551 0.38918298
-0.083916999 -0.034058362 0.38930655
-0.083244137 -0.034070384 0.38944396
-0.082573585 -0.034083564 0.38959461
-0.08190541 -0.034097962 0.38975918
-0.081239469 -0.034113545 0.38993731
-0.080575764 -0.034130346 0.39012936
-0.079914011 -0.03414828 0.39033434
-0.07925453 -0.03416751 0.39055416
-0.078597151 -0.034187999 0.39078835
-0.077941753 -0.034209728 0.39103675
-0.077288285 -0.03423271 0.39129943
-0.076636851 -0.034257025 0.39157736
-0.075987436 -0.034282703 0.39187089
-0.075339809 -0.034309678 0.39217922
-0.074694082 -0.034338038 0.39250338
-0.074050389 -0.034367885 0.39284456
-0.073408492 -0.034399148 0.39320192
-0.072768539 -0.034431946 0.3935768
-0.072130345 -0.034466226 0.39396864
-0.071494065 -0.034502111 0.39437884
-0.070859961 -0.034539782 0.39480942
-0.070227638 -0.034579091 0.39525878
-0.069597222 -0.034620158 0.39572817
-0.0689689 -0.034663126 0.39621934
-0.06834282 -0.034708135 0.39673382
-0.067718737 -0.034755122 0.39727089
-0.06709674 -0.034804191 0.3978318
-0.066477224 -0.034855627 0.39841974
-0.065860122 -0.034909461 0.3990351
-0.06524612 -0.034966152 0.39968309
-0.064634465 -0.035025381 0.40036011
-0.064026199 -0.035087802 0.40107363
-0.063421309 -0.035153527 0.40182489
-0.062820092 -0.035222828 0.40261704
-0.062222794 -0.035295971 0.40345311
-0.061629958 -0.035373408 0.40433827
-0.061042629 -0.035455897 0.40528119
-0.060461108 -0.035543803 0.40628597
-0.059886429 -0.035637937 0.40736198
-0.059320364 -0.035739601 0.40852404
-0.058764566 -0.035850082 0.40978691
-0.058222409 -0.035971809 0.41117832
-0.057698492 -0.036108088 0.41273609
-0.057199366 -0.036263648 0.41451424
-0.056738362 -0.036447819 0.41661942
-0.056347974 -0.036682907 0.41930661
-0.056179248 -0.037070662 0.42373884
-0.12092528 -0.034917634 0.40753123
-0.11938977 -0.034685101 0.40481728
-0.1181039 -0.034522679 0.40292159
-0.11693664 -0.034393128 0.4014096
-0.1158447 -0.034284256 0.40013894
-0.11480582 -0.03418982 0.39903674
-0.11380862 -0.034106683 0.39806643
-0.11284529 -0.03403271 0.39720306
-0.11190847 -0.03396583 0.39642251
-0.11099409 -0.033904944 0.3957119
-0.11009969 -0.033849418 0.39506385
-0.10922249 -0.033798493 0.39446947
-0.10836009 -0.033751503 0.39392105
-0.10751209 -0.033708408 0.3934181
-0.10667622 -0.033668574 0.39295319
-0.10585181 -0.033631843 0.39252448
-0.10503826 -0.033598095 0.39213058
-0.10423387 -0.03356684 0.3917658
-0.10343821 -0.033537984 0.39142904
-0.10265069 -0.033511393 0.39111868
-0.10187066 -0.033486895 0.39083275
-0.10109754 -0.033464342 0.39056954
-0.10033144 -0.033443812 0.39032993
-0.099571288 -0.033424992 0.39011025
-0.098817296 -0.033407982 0.38991174
-0.098068625 -0.033392545 0.38973156
-0.097325437 -0.033378761 0.38957068
-0.096587315 -0.033366527 0.3894279
-0.095854156 -0.033355843 0.38930321
-0.095125601 -0.033346616 0.3891955
-0.094401434 -0.033338796 0.38910425
-0.093681417 -0.03333234 0.38902891
-0.092965536 -0.03332727 0.38896972
-0.092253424 -0.033323478 0.38892549
-0.091544949 -0.03332096 0.38889608
-0.090839967 -0.033319678 0.38888115
-0.090138488 -0.033319674 0.38888109
-0.089440249 -0.033320878 0.38889512
-0.088745117 -0.033323266 0.38892299
-0.088053033 -0.033326846 0.38896477
-0.08736404 -0.033331662 0.38902101
-0.086677805 -0.033337619 0.38909051
-0.085994191 -0.033344686 0.389173
-0.085313506 -0.033353016 0.38927022
-0.084635243 -0.033362441 0.38938022
-0.083959498 -0.033373021 0.38950372
-0.08328633 -0.033384819 0.38964137
-0.082615502 -0.033397757 0.38979238
-0.081946917 -0.033411834 0.38995668
-0.081280604 -0.033427086 0.39013472
-0.080616534 -0.03344354 0.39032674
-0.079954654 -0.033461198 0.39053285
-0.079294786 -0.033480022 0.39075252
-0.078637138 -0.033500124 0.39098716
-0.077981435 -0.033521432 0.39123583
-0.077327706 -0.033543982 0.39149904
-0.076676041 -0.03356785 0.3917776
-0.07602644 -0.033593081 0.39207205
-0.075378545 -0.033619538 0.39238086
-0.074732676 -0.033647414 0.39270622
-0.074088737 -0.033676699 0.39304799
-0.073446684 -0.033707414 0.39340648
-0.072806537 -0.033739615 0.39378229
-0.072168343 -0.033773363 0.39417616
-0.071531966 -0.033808641 0.39458793
-0.070897758 -0.033845663 0.39502001
-0.070265271 -0.033884268 0.39547056
-0.069634862 -0.033924676 0.39594221
-0.069006421 -0.033966891 0.3964349
-0.068380095 -0.034011044 0.39695019
-0.067756005 -0.034057248 0.39748949
-0.06713447 -0.034105744 0.39805549
-0.06651517 -0.034156438 0.39864713
-0.065898389 -0.034209546 0.39926696
-0.065284446 -0.034265317 0.3999179
-0.064673312 -0.034323826 0.40060076
-0.0640653 -0.034385331 0.40131858
-0.063460805 -0.034450155 0.40207514
-0.062859952 -0.034518469 0.40287247
-0.062263366 -0.034590758 0.40371618
-0.061670933 -0.034667093 0.40460709
-0.061084542 -0.034748692 0.40555945
-0.060503941 -0.034835603 0.4065738
-0.059930664 -0.034928914 0.40766287
-0.059365757 -0.035029482 0.40883663
-0.058812618 -0.035139617 0.41012201
-0.058273669 -0.035261139 0.41154033
-0.057753161 -0.035397097 0.41312715
-0.057259653 -0.035553381 0.41495115
-0.056807507 -0.035739824 0.41712716
-0.056440804 -0.035985745 0.41999739
-0.056418702 -0.036461066 0.42554495
-0.12124773 -0.034273677 0.40861791
-0.11959942 -0.034014512 0.40552813
-0.11826919 -0.033843182 0.40348551
-0.11708019 -0.033710394 0.40190238
-0.11597371 -0.033599861 0.40058455
-0.1149239 -0.03350446 0.39944717
-0.11391845 -0.033420868 0.39845058
-0.11294703 -0.033346266 0.39756116
-0.11200472 -0.033279356 0.39676344
-0.11108655 -0.033218808 0.39604157
-0.11018843 -0.03316351 0.39538229
-0.10930742 -0.033112671 0.39477617
-0.10844258 -0.033066101 0.39422095
-0.10759145 -0.033023119 0.39370853
-0.10675317 -0.032983538 0.39323664
-0.10592628 -0.03294697 0.39280066
-0.10510987 -0.032913189 0.39239794
-0.1043039 -0.032882247 0.39202902
-0.10350652 -0.032853603 0.39168754
-0.10271728 -0.032827172 0.39137241
-0.10193598 -0.032802925 0.39108333
-0.10116169 -0.032780617 0.39081737
-0.10039413 -0.032760192 0.39057383
-0.099632852 -0.032741535 0.39035144
-0.098877855 -0.032724697 0.3901507
-0.098128341 -0.03270945 0.38996887
-0.097384304 -0.032695811 0.3898063
-0.096645229 -0.032683659 0.3896614
-0.095911145 -0.032673027 0.38953465
-0.095181502 -0.032663763 0.3894242
-0.094456248 -0.032655876 0.38933018
-0.093735337 -0.032649387 0.38925281
-0.093018517 -0.032644235 0.38919139
-0.092305563 -0.032640371 0.38914531
-0.091596447 -0.032637812 0.38911483
-0.090890974 -0.032636527 0.38909951
-0.090188883 -0.032636445 0.3890985
-0.089490056 -0.032637551 0.3891117
-0.088794336 -0.032639816 0.3891387
-0.088101864 -0.032643322 0.38918048
-0.087412216 -0.032647938 0.38923553
-0.086725399 -0.032653693 0.38930416
-0.086041443 -0.03266063 0.38938683
-0.085360341 -0.032668773 0.38948393
-0.0846816 -0.03267796 0.38959348
-0.084005408 -0.032688297 0.38971671
-0.083331883 -0.032699853 0.38985446
-0.082660682 -0.032712527 0.39000556
-0.081991643 -0.03272628 0.39016953
-0.081325062 -0.032741256 0.39034811
-0.080660678 -0.032757394 0.39054048
-0.079998523 -0.032774728 0.39074713
-0.079338282 -0.032793157 0.39096686
-0.078680396 -0.032812901 0.39120224
-0.078024417 -0.032833803 0.39145148
-0.07737042 -0.032855932 0.39171529
-0.076718457 -0.032879341 0.39199436
-0.076068617 -0.0329041 0.39228955
-0.07542073 -0.032930177 0.39260045
-0.074774422 -0.032957446 0.39292556
-0.074130371 -0.032986242 0.39326888
-0.073488146 -0.033016413 0.39362857
-0.072847739 -0.033048 0.39400515
-0.072209656 -0.033081271 0.39440182
-0.071573123 -0.033115923 0.39481494
-0.070938781 -0.033152297 0.39524859
-0.070306189 -0.033190232 0.39570087
-0.06967587 -0.033230029 0.39617535
-0.069047488 -0.033271588 0.39667082
-0.068421081 -0.033314977 0.39718813
-0.067797229 -0.033360541 0.39773133
-0.067175813 -0.033408292 0.39830065
-0.066556796 -0.033458281 0.3988966
-0.065940164 -0.033510577 0.3995201
-0.065326594 -0.033565596 0.40017605
-0.064715892 -0.033623341 0.40086451
-0.064108297 -0.033684023 0.40158793
-0.063504025 -0.033747856 0.40234897
-0.062903777 -0.033815324 0.40315336
-0.06230744 -0.033886503 0.40400195
-0.061716497 -0.033962332 0.40490603
-0.061130811 -0.034042906 0.40586665
-0.0605512 -0.03412886 0.40689138
-0.059979562 -0.034221467 0.40799549
-0.05941762 -0.034321979 0.40919381
-0.058866885 -0.034431573 0.41050041
-0.058331016 -0.034552768 0.41194531
-0.057815526 -0.034689315 0.41357327
-0.057328302 -0.034846615 0.41544864
-0.05688997 -0.035038192 0.41773266
-0.056552447 -0.035297833 0.42082816
-0.1217081 -0.033663943 0.41016939
-0.11984768 -0.033352107 0.40636992
-0.118462 -0.033169359 0.40414327
-0.11724161 -0.033030916 0.40245646
-0.11611636 -0.032917723 0.40107727
-0.11505495 -0.03282132 0.39990267
-0.11403967 -0.032736938 0.39887458
-0.11306053 -0.03266193 0.39796066
-0.11211111 -0.032594606 0.39714035
-0.11118699 -0.032533813 0.39639965
-0.1102845 -0.032478604 0.39572698
-0.10939993 -0.032427993 0.39511028
-0.10853194 -0.032381661 0.39454579
-0.10767771 -0.03233885 0.39402416
-0.1068367 -0.032299466 0.39354432
-0.1060074 -0.032263119 0.39310145
-0.10518846 -0.032229461 0.39269134
-0.10438001 -0.032198582 0.39231509
-0.10358033 -0.032170001 0.39196685
-0.10278963 -0.032143839 0.39164808
-0.10200672 -0.032119762 0.39135474
-0.10123105 -0.032097649 0.3910853
-0.10046205 -0.032077357 0.39083806
-0.099699676 -0.032058906 0.39061326
-0.098943405 -0.032042172 0.39040935
-0.098192722 -0.032027017 0.39022473
-0.097447574 -0.032013461 0.39005956
-0.096707508 -0.032001395 0.38991252
-0.09597227 -0.031990755 0.38978291
-0.095241867 -0.031981587 0.38967118
-0.094515733 -0.031973723 0.38957539
-0.093794137 -0.03196729 0.38949698
-0.0930764 -0.031962086 0.38943356
-0.092362605 -0.031958163 0.38938579
-0.091652535 -0.031955484 0.38935313
-0.090946242 -0.031954087 0.38933611
-0.090243258 -0.031953838 0.3893331
-0.089543723 -0.031954821 0.38934505
-0.088847533 -0.031957019 0.38937184
-0.088154405 -0.031960361 0.38941258
-0.087464228 -0.031964839 0.38946712
-0.086776868 -0.031970426 0.38953519
-0.086092472 -0.031977203 0.38961777
-0.085410722 -0.031985085 0.38971382
-0.084731616 -0.031994093 0.38982359
-0.084055036 -0.032004219 0.38994694
-0.083380908 -0.032015454 0.39008382
-0.08270929 -0.032027852 0.39023489
-0.082039855 -0.032041319 0.39039895
-0.081373028 -0.032056041 0.39057836
-0.08070834 -0.032071874 0.39077127
-0.080045685 -0.032088798 0.39097747
-0.079385161 -0.032106888 0.39119789
-0.078727111 -0.032126311 0.39143452
-0.078070804 -0.0321468 0.3916842
-0.077416629 -0.032168552 0.39194924
-0.07676433 -0.032191493 0.39222872
-0.076114245 -0.032215796 0.39252487
-0.075466171 -0.032241419 0.39283702
-0.074819684 -0.032268204 0.39316341
-0.074175365 -0.032296453 0.39350757
-0.073532954 -0.03232608 0.39386857
-0.072892651 -0.032357227 0.39424807
-0.072254106 -0.032389771 0.39464462
-0.071617752 -0.032423958 0.39506114
-0.070983239 -0.032459673 0.39549628
-0.070350476 -0.032496918 0.39595011
-0.069720238 -0.032536112 0.39642763
-0.069092162 -0.032577131 0.39692745
-0.068466187 -0.032620016 0.39744997
-0.067842372 -0.032664843 0.39799616
-0.067220978 -0.032711815 0.39856845
-0.066602103 -0.032761034 0.39916816
-0.065985993 -0.032812707 0.39979774
-0.065372571 -0.032866873 0.40045771
-0.064762294 -0.032923847 0.40115193
-0.064154737 -0.032983508 0.40187883
-0.063551694 -0.033046883 0.40265098
-0.062951595 -0.033113264 0.40345982
-0.062356479 -0.033183858 0.40431994
-0.061766185 -0.033258714 0.40523201
-0.061181471 -0.033338409 0.406203
-0.060603719 -0.033423871 0.40724429
-0.060034256 -0.033516057 0.40836754
-0.059474286 -0.033615902 0.40958405
-0.058926556 -0.033725262 0.41091654
-0.058395017 -0.033846792 0.4123973
-0.057884742 -0.033983946 0.4140684
-0.057406306 -0.034143619 0.4160139
-0.056985471 -0.034342237 0.4184339
-0.056691471 -0.034623653 0.42186272
-0.12014645 -0.032700408 0.40738297
-0.11868241 -0.032500718 0.40489522
-0.1174247 -0.032355413 0.40308499
-0.11627612 -0.03223855 0.40162909
-0.11519983 -0.032140393 0.40040624
-0.11417297 -0.032054871 0.39934081
-0.11318499 -0.031979252 0.39839873
-0.11222748 -0.031911328 0.39755258
-0.11129721 -0.031850327 0.39679262
-0.1103889 -0.031794861 0.39610162
-0.10950058 -0.031744469 0.39547381
-0.10862847 -0.031698145 0.39489672
-0.10777103 -0.03165552 0.39436567
-0.10692715 -0.031616334 0.39387751
-0.10609489 -0.031580083 0.39342591
-0.10527378 -0.031546686 0.39300984
-0.10446285 -0.031515907 0.3926264
-0.10366111 -0.031487502 0.39227253
-0.10286776 -0.031461272 0.39194575
-0.10208289 -0.031437293 0.39164698
-0.10130543 -0.031415273 0.39137265
-0.1005352 -0.031395201 0.39112264
-0.099771261 -0.031376828 0.39089373
-0.099013716 -0.031360216 0.39068678
-0.098261781 -0.031345155 0.39049914
-0.097515419 -0.03133167 0.39033115
-0.096774392 -0.031319711 0.39018217
-0.096038178 -0.03130915 0.39005059
-0.095306702 -0.031299986 0.38993645
-0.094579734 -0.031292178 0.38983917
-0.093857095 -0.031285699 0.38975844
-0.093138337 -0.031280421 0.38969269
-0.092423849 -0.031276513 0.389644
-0.091713116 -0.03127382 0.38961047
-0.091005929 -0.031272307 0.3895916
-0.090302363 -0.031272024 0.38958809
-0.089601971 -0.031272843 0.38959831
-0.088905044 -0.031274896 0.38962388
-0.088211089 -0.031278037 0.38966298
-0.087520204 -0.031282324 0.38971639
-0.086832277 -0.031287745 0.38978392
-0.086147316 -0.031294331 0.38986596
-0.085465007 -0.031301998 0.38996151
-0.084785365 -0.031310778 0.39007089
-0.08410836 -0.031320687 0.39019433
-0.083433926 -0.031331725 0.39033186
-0.082761705 -0.031343795 0.39048222
-0.082092017 -0.031357039 0.39064717
-0.081424609 -0.031371385 0.39082593
-0.08075957 -0.031386908 0.39101931
-0.080096565 -0.031403497 0.39122599
-0.079435743 -0.031421248 0.39144713
-0.078777343 -0.031440284 0.39168426
-0.07812082 -0.031460423 0.39193514
-0.077466391 -0.031481773 0.39220116
-0.076813973 -0.031504348 0.39248237
-0.076163501 -0.031528149 0.39277887
-0.075515047 -0.031553239 0.39309144
-0.074868552 -0.031579629 0.39342022
-0.074223951 -0.03160733 0.39376533
-0.073581494 -0.031636488 0.39412859
-0.07294102 -0.031667076 0.39450967
-0.072302498 -0.031699125 0.39490891
-0.071665943 -0.031732678 0.39532694
-0.071031258 -0.031767748 0.39576381
-0.070399106 -0.03180467 0.39622381
-0.069768764 -0.031843182 0.39670357
-0.069140695 -0.031883534 0.39720628
-0.068514578 -0.031925641 0.39773086
-0.067891054 -0.031969864 0.39828178
-0.067269959 -0.032016184 0.39885885
-0.066651419 -0.032064736 0.39946371
-0.066035651 -0.032115698 0.40009862
-0.065422334 -0.032168992 0.40076256
-0.064812668 -0.032225296 0.40146396
-0.064205848 -0.032284297 0.402199
-0.063602746 -0.032346539 0.40297443
-0.063004173 -0.032412551 0.40379679
-0.062409703 -0.03248224 0.40466502
-0.061820153 -0.032556176 0.40558609
-0.061237291 -0.032635443 0.40657359
-0.060661539 -0.032720465 0.40763283
-0.060094118 -0.032812126 0.40877473
-0.059537411 -0.032911986 0.41001877
-0.058992844 -0.033021152 0.41137877
-0.058466233 -0.033143278 0.41290024
-0.05796282 -0.033281878 0.4146269
-0.057497751 -0.033446405 0.41667658
-0.057098038 -0.033653811 0.41926047
-0.05687974 -0.033975147 0.4232637
-0.12052614 -0.032066587 0.4086704
-0.11893786 -0.031838749 0.40576673
-0.11763187 -0.031684127 0.40379614
-0.11645501 -0.031562574 0.40224701
-0.11535897 -0.031461537 0.40095937
-0.11431868 -0.031374529 0.39985049
-0.11332063 -0.031298079 0.39887616
-0.11235582 -0.031229893 0.39800718
-0.11141813 -0.031168414 0.39722368
-0.11050354 -0.031112647 0.39651296
-0.10960889 -0.031061802 0.39586496
-0.10873277 -0.031015577 0.39527586
-0.10787179 -0.030973088 0.39473435
-0.10702454 -0.030934004 0.39423627
-0.10618953 -0.030897958 0.39377686
-0.10536576 -0.030864719 0.39335325
-0.10455188 -0.030833945 0.39296106
-0.10374808 -0.030805746 0.39260167
-0.10295273 -0.03077968 0.39226949
-0.10216565 -0.030755751 0.39196452
-0.10138594 -0.030733716 0.3916837
-0.10061384 -0.030713698 0.39142859
-0.099848382 -0.03069544 0.39119589
-0.099089399 -0.030678924 0.3909854
-0.098336242 -0.030663989 0.39079508
-0.097588532 -0.030650549 0.39062378
-0.096846141 -0.030638596 0.39047146
-0.096108772 -0.030628068 0.39033729
-0.095376126 -0.030618904 0.39022049
-0.094648048 -0.030611077 0.39012074
-0.093924619 -0.030604651 0.39003885
-0.093205109 -0.030599413 0.38997209
-0.09248957 -0.030595411 0.38992107
-0.091778032 -0.030592676 0.38988623
-0.091070026 -0.030591089 0.38986599
-0.090365596 -0.030590689 0.3898609
-0.089664586 -0.030591447 0.38987055
-0.088966914 -0.030593367 0.38989502
-0.088272221 -0.030596348 0.38993302
-0.087580696 -0.030600484 0.38998574
-0.086892232 -0.030605767 0.39005306
-0.086206518 -0.030612111 0.39013392
-0.085523553 -0.030619543 0.39022863
-0.084843241 -0.030628057 0.39033714
-0.084165707 -0.030637726 0.39046037
-0.083490722 -0.030648494 0.39059758
-0.082818024 -0.03066029 0.39074793
-0.082147896 -0.030673249 0.39091307
-0.081480063 -0.030687297 0.39109212
-0.080814607 -0.030702492 0.39128578
-0.080151372 -0.030718809 0.39149371
-0.079490043 -0.03073615 0.39171472
-0.078831211 -0.030754779 0.39195213
-0.078174584 -0.030774608 0.39220485
-0.077519841 -0.030795554 0.39247179
-0.076867037 -0.03081766 0.39275351
-0.076216251 -0.030840995 0.39305091
-0.07556767 -0.030865667 0.39336535
-0.074921206 -0.030891681 0.39369687
-0.074276567 -0.030918952 0.39404443
-0.073633924 -0.030947592 0.39440942
-0.072993465 -0.030977713 0.3947933
-0.072354734 -0.031009173 0.39519423
-0.07171832 -0.031042257 0.39561588
-0.07108371 -0.031076798 0.39605609
-0.070451371 -0.031113042 0.39651799
-0.069821037 -0.031150926 0.39700079
-0.069193117 -0.031190678 0.39750743
-0.068567388 -0.031232266 0.39803743
-0.067944065 -0.031275842 0.39859277
-0.067323089 -0.03132144 0.39917389
-0.066704556 -0.031369172 0.39978221
-0.066089094 -0.031419404 0.40042239
-0.065476522 -0.031472139 0.4010945
-0.064867176 -0.03152762 0.40180156
-0.06426096 -0.031585895 0.40254423
-0.063658968 -0.0316476 0.40333065
-0.063060865 -0.031712692 0.40416017
-0.062467463 -0.031781692 0.40503955
-0.061879735 -0.031855248 0.40597698
-0.061298884 -0.03193415 0.40698254
-0.060725257 -0.032018773 0.408061
-0.060160238 -0.032110065 0.40922448
-0.059606634 -0.032209795 0.41049549
-0.059066989 -0.032319672 0.41189581
-0.058545649 -0.032442492 0.41346109
-0.058051668 -0.03258384 0.41526246
-0.057601202 -0.032753624 0.41742629
-0.057232954 -0.032975279 0.42025113
-0.057217952 -0.033409141 0.42578045
-0.1210843 -0.031474512 0.41056296
-0.11923922 -0.031185642 0.40679485
-0.11786856 -0.031018041 0.40460861
-0.11665536 -0.030890048 0.40293902
-0.11553542 -0.030785298 0.40157264
-0.11447907 -0.030696282 0.40041149
-0.11346917 -0.030618664 0.39939901
-0.11249473 -0.030549686 0.39849925
-0.11154901 -0.030487673 0.39769033
-0.11062846 -0.030431777 0.39696121
-0.10972764 -0.030380616 0.39629385
-0.10884573 -0.030334057 0.39568651
-0.1079804 -0.030291531 0.3951318
-0.1071296 -0.030252546 0.39462325
-0.10629107 -0.030216524 0.39415339
-0.10546411 -0.03018333 0.39372039
-0.10464805 -0.030152829 0.39332253
-0.1038416 -0.030124696 0.39295554
-0.10304388 -0.030098727 0.39261681
-0.10225442 -0.030074829 0.39230508
-0.10147277 -0.03005291 0.39201915
-0.10069856 -0.030032903 0.39175817
-0.099931248 -0.030014684 0.39152053
-0.099170387 -0.029998159 0.39130497
-0.098415717 -0.029983284 0.39111093
-0.097666837 -0.02996997 0.39093724
-0.096922904 -0.029957987 0.39078096
-0.096184373 -0.029947516 0.39064434
-0.095450751 -0.029938428 0.39052582
-0.094721667 -0.029930638 0.39042419
-0.093997061 -0.029924158 0.39033967
-0.093276434 -0.029918855 0.3902705
-0.092559949 -0.029914811 0.39021775
-0.091847464 -0.029912008 0.39018118
-0.091138601 -0.029910352 0.39015958
-0.090433426 -0.029909888 0.39015353
-0.089731529 -0.02991051 0.39016163
-0.08903306 -0.029912291 0.39018488
-0.0883376 -0.029915122 0.3902218
-0.087645575 -0.029919174 0.39027464
-0.086956434 -0.029924279 0.39034125
-0.086270027 -0.029930418 0.39042133
-0.085586429 -0.02993764 0.39051554
-0.084905669 -0.029945984 0.39062437
-0.084227547 -0.029955404 0.39074725
-0.08355204 -0.029965922 0.39088446
-0.082878888 -0.029977469 0.39103508
-0.082208037 -0.029990057 0.39119926
-0.081539884 -0.030003853 0.39137924
-0.080873981 -0.030018726 0.39157325
-0.080210149 -0.030034637 0.39178079
-0.07954856 -0.030051678 0.39200309
-0.078889266 -0.030069899 0.39224076
-0.078232303 -0.030089347 0.39249444
-0.077577233 -0.030109886 0.39276236
-0.076924205 -0.030131601 0.3930456
-0.076273359 -0.030154584 0.39334542
-0.075624518 -0.030178796 0.39366126
-0.074977793 -0.030204324 0.39399424
-0.07433299 -0.03023112 0.39434376
-0.073690392 -0.030259339 0.39471188
-0.073049702 -0.030288901 0.39509749
-0.07241112 -0.030319927 0.39550221
-0.071774475 -0.030352391 0.39592567
-0.071139961 -0.030386414 0.39636949
-0.070507646 -0.030422082 0.39683473
-0.069877468 -0.03045941 0.39732164
-0.06924966 -0.030498555 0.39783227
-0.068623938 -0.030539449 0.39836571
-0.068000682 -0.030582316 0.39892489
-0.067380182 -0.030627355 0.39951238
-0.066762224 -0.030674534 0.4001278
-0.066147164 -0.030724093 0.40077427
-0.065535039 -0.030776123 0.40145296
-0.064926282 -0.030830918 0.40216771
-0.064321235 -0.030888727 0.4029218
-0.063719653 -0.030949546 0.40371513
-0.0631226 -0.031013994 0.4045558
-0.062530808 -0.031082565 0.40545028
-0.061945345 -0.031155944 0.40640745
-0.061365921 -0.031234151 0.40742761
-0.060794771 -0.031318519 0.40852812
-0.06023268 -0.031409681 0.40971726
-0.059683166 -0.031509746 0.41102254
-0.059148505 -0.031620272 0.41246426
-0.058634199 -0.031744629 0.41408646
-0.058152623 -0.031890146 0.41598463
-0.057721466 -0.032067481 0.41829783
-0.057401996 -0.032312382 0.42149237
-0.119619 -0.030548852 0.4080905
-0.1181412 -0.030358266 0.40554452
-0.11688166 -0.030221738 0.40372071
-0.11573299 -0.030112347 0.40225938
-0.11465631 -0.03002042 0.40103137
-0.11363164 -0.029941034 0.39997089
-0.11264617 -0.02987103 0.39903572
-0.11169168 -0.029808389 0.39819893
-0.11076329 -0.029751951 0.39744499
-0.10985651 -0.029700618 0.39675927
-0.10896897 -0.029653849 0.3961345
-0.10809851 -0.029611144 0.39556402
-0.10724334 -0.029572086 0.39504224
-0.10640088 -0.029536031 0.39456061
-0.10557084 -0.029502962 0.39411885
-0.10475148 -0.029472452 0.39371127
-0.10394196 -0.029444311 0.39333534
-0.10314178 -0.029418448 0.39298984
-0.10235007 -0.029394656 0.39267203
-0.1015665 -0.029372891 0.39238128
-0.10078986 -0.029352838 0.39211339
-0.10002052 -0.02933464 0.39187029
-0.099258073 -0.029318219 0.39165094
-0.098501436 -0.029303296 0.39145157
-0.097750925 -0.029289987 0.3912738
-0.09700568 -0.029278079 0.39111471
-0.096265763 -0.029267613 0.39097491
-0.095530845 -0.029258525 0.39085349
-0.094800524 -0.029250721 0.39074925
-0.094074547 -0.029244147 0.39066145
-0.093352765 -0.029238792 0.39058989
-0.092635371 -0.029234735 0.39053571
-0.09192194 -0.029231882 0.3904976
-0.091212131 -0.029230142 0.39047435
-0.090506002 -0.029229565 0.39046663
-0.089803204 -0.029230062 0.39047328
-0.089103863 -0.029231701 0.39049518
-0.088407837 -0.029234463 0.39053208
-0.087715074 -0.029238358 0.39058411
-0.087025054 -0.029243238 0.39064929
-0.086337999 -0.029249199 0.39072892
-0.085653812 -0.02925624 0.39082298
-0.084972501 -0.029264389 0.39093184
-0.084293708 -0.029273547 0.39105418
-0.08361759 -0.029283799 0.39119112
-0.082943968 -0.029295105 0.39134216
-0.082272641 -0.029307421 0.3915067
-0.081604041 -0.029320933 0.39168718
-0.080937654 -0.02933548 0.39188153
-0.080273464 -0.029351091 0.39209005
-0.079611629 -0.029367846 0.39231387
-0.07895188 -0.029385677 0.39255208
-0.078294419 -0.02940469 0.39280608
-0.077639163 -0.029424887 0.39307588
-0.076985896 -0.029446218 0.39336082
-0.076334834 -0.029468797 0.39366245
-0.075685702 -0.02949255 0.39397976
-0.075038873 -0.029517662 0.39431521
-0.074393772 -0.029543938 0.39466622
-0.073750898 -0.029571615 0.39503595
-0.073110297 -0.029600753 0.3954252
-0.072471477 -0.029631194 0.39583185
-0.07183481 -0.029663131 0.39625847
-0.071200527 -0.029696703 0.39670697
-0.070568025 -0.029731706 0.39717454
-0.06993793 -0.02976845 0.39766541
-0.069310591 -0.029807145 0.3981823
-0.06868498 -0.0298474 0.39872006
-0.068062097 -0.029889703 0.39928517
-0.067441821 -0.029934069 0.39987785
-0.066824444 -0.029980697 0.40050071
-0.066209912 -0.030029632 0.40115443
-0.065598324 -0.030081 0.40184063
-0.064990357 -0.030135194 0.40256459
-0.064386174 -0.030192386 0.4033286
-0.063785881 -0.030252732 0.40413475
-0.063190006 -0.030316593 0.40498784
-0.062600061 -0.030384826 0.40589932
-0.062016234 -0.030457675 0.40687251
-0.061439116 -0.030535607 0.40791357
-0.060870659 -0.030619785 0.40903807
-0.060312528 -0.030711288 0.41026041
-0.05976719 -0.030811658 0.41160122
-0.059238967 -0.030923486 0.41309509
-0.058734965 -0.031050969 0.41479808
-0.058267225 -0.031201158 0.4168044
-0.057864096 -0.031390328 0.41933143
-0.057631068 -0.031678006 0.42317441
-0.12013403 -0.029941099 0.40984759
-0.11846209 -0.02970721 0.40664601
-0.11713951 -0.029558569 0.40461135
-0.11595511 -0.029443149 0.40303141
-0.11485324 -0.029347358 0.4017202
-0.11381021 -0.029265482 0.40059945
-0.11281216 -0.029194202 0.39962372
-0.11184733 -0.029130654 0.39875385
-0.11091008 -0.029073516 0.39797172
-0.10999577 -0.029021684 0.39726222
-0.10910233 -0.028974717 0.39661932
-0.10822555 -0.02893158 0.39602885
-0.10736578 -0.028892452 0.39549324
-0.1065191 -0.028856345 0.39499897
-0.1056856 -0.028823344 0.39454725
-0.10486256 -0.028792772 0.39412877
-0.10404994 -0.028764658 0.39374393
-0.10324714 -0.028738894 0.39339125
-0.10245291 -0.028715175 0.39306659
-0.10166661 -0.028693361 0.392768
-0.10088788 -0.028673397 0.39249471
-0.1001164 -0.028655224 0.39224595
-0.099351503 -0.028638689 0.3920196
-0.09859331 -0.028623864 0.39181668
-0.097841047 -0.028610559 0.39163455
-0.097094253 -0.028598672 0.39147183
-0.096352823 -0.0285882 0.39132848
-0.095616408 -0.028579075 0.39120358
-0.09488485 -0.028571274 0.3910968
-0.094157748 -0.02856471 0.39100695
-0.09343496 -0.028559364 0.39093378
-0.092716478 -0.028555265 0.39087766
-0.092001788 -0.028552279 0.39083678
-0.091290809 -0.028550409 0.39081118
-0.090583682 -0.02854972 0.39080176
-0.089880161 -0.028550168 0.3908079
-0.089179888 -0.028551664 0.39082837
-0.088483065 -0.028554296 0.3908644
-0.087789461 -0.028558018 0.39091533
-0.087098695 -0.02856273 0.39097986
-0.086410843 -0.028568482 0.39105859
-0.085726112 -0.028575372 0.39115289
-0.085044138 -0.028583299 0.3912614
-0.084364668 -0.02859221 0.39138338
-0.083687842 -0.028602175 0.39151978
-0.083013825 -0.028613277 0.39167175
-0.082341932 -0.028625308 0.39183643
-0.08167278 -0.028638508 0.39201713
-0.081005774 -0.028652696 0.39221135
-0.080341436 -0.028668089 0.39242205
-0.079679072 -0.028684465 0.39264622
-0.079019137 -0.028702019 0.39288649
-0.078361094 -0.028720584 0.39314061
-0.077705383 -0.028740348 0.39341116
-0.077052198 -0.028761419 0.39369959
-0.07640063 -0.028783493 0.39400175
-0.075751439 -0.028806884 0.39432195
-0.075104423 -0.028831555 0.39465964
-0.074459262 -0.028857417 0.39501366
-0.073816195 -0.028884599 0.39538574
-0.073175482 -0.028913241 0.39577779
-0.072536655 -0.028943196 0.39618784
-0.071899928 -0.028974598 0.39661768
-0.071265757 -0.029007671 0.39707041
-0.070633397 -0.029042158 0.39754248
-0.070003435 -0.029078351 0.39803791
-0.069376104 -0.029116396 0.39855868
-0.06875094 -0.029156158 0.39910296
-0.068128318 -0.029197851 0.39967367
-0.067508601 -0.029241694 0.40027383
-0.066891775 -0.029287748 0.40090424
-0.066277549 -0.029335963 0.40156421
-0.065666929 -0.029386856 0.40226087
-0.065059654 -0.029440403 0.40299383
-0.064456493 -0.029497037 0.40376908
-0.063857391 -0.029556852 0.40458784
-0.063263662 -0.029620558 0.40545988
-0.062675342 -0.029688319 0.40638742
-0.062093504 -0.029760793 0.40737948
-0.061519172 -0.02983864 0.40844509
-0.060954463 -0.0299231 0.40960121
-0.060400475 -0.03001496 0.41085863
-0.059861116 -0.030116461 0.41224805
-0.059340704 -0.03023017 0.41380453
-0.058847934 -0.030361036 0.41559589
-0.05840034 -0.030518889 0.41775665
-0.058038585 -0.03072631 0.42059591
-0.058113966 -0.031173715 0.42672023
-0.12136128 -0.029500127 0.41403443
-0.11886366 -0.029071916 0.40802449
-0.11743844 -0.028902294 0.40564385
-0.11620439 -0.028777888 0.40389782
-0.11507352 -0.028677629 0.40249068
-0.11400858 -0.028592627 0.40129769
-0.11299409 -0.028519275 0.40026817
-0.11201703 -0.028454486 0.39935887
-0.11107002 -0.028396543 0.39854562
-0.11014757 -0.028344162 0.39781046
-0.10924672 -0.02829669 0.3971442
-0.10836393 -0.028253302 0.39653525
-0.10749837 -0.028213857 0.39598164
-0.10664701 -0.028177639 0.39547333
-0.1058091 -0.028144509 0.39500833
-0.10498239 -0.02811393 0.39457914
-0.10416657 -0.028085867 0.3941853
-0.1033602 -0.028059985 0.39382204
-0.10256314 -0.028036291 0.39348948
-0.10177422 -0.028014507 0.39318377
-0.10099319 -0.027994603 0.3929044
-0.10021923 -0.027976392 0.39264882
-0.099452429 -0.027959935 0.39241785
-0.098692499 -0.027945189 0.39221087
-0.097938374 -0.027931884 0.39202413
-0.097189888 -0.027920004 0.39185742
-0.096446782 -0.027909508 0.3917101
-0.09570875 -0.027900338 0.39158139
-0.094975501 -0.027892435 0.39147046
-0.094247058 -0.027885834 0.39137784
-0.09352304 -0.027880454 0.39130232
-0.092803173 -0.027876239 0.39124316
-0.092087314 -0.027873173 0.39120013
-0.091375448 -0.027871275 0.39117351
-0.090667173 -0.027870454 0.39116198
-0.089962609 -0.027870769 0.39116639
-0.089261562 -0.027872188 0.3911863
-0.0885638 -0.027874663 0.39122105
-0.08786907 -0.027878139 0.39126983
-0.0871775 -0.027882684 0.39133361
-0.086488903 -0.027888257 0.39141184
-0.085803501 -0.027894964 0.39150599
-0.085120715 -0.027902642 0.39161372
-0.084440716 -0.027911367 0.39173618
-0.083763473 -0.027921157 0.3918736
-0.083088614 -0.027931917 0.39202461
-0.082416527 -0.027943799 0.39219138
-0.081746764 -0.027956687 0.39237225
-0.081079453 -0.02797064 0.39256808
-0.08041434 -0.027985608 0.39277816
-0.079751767 -0.028001731 0.39300445
-0.079091482 -0.028018957 0.3932462
-0.078433245 -0.028037224 0.39350259
-0.077777192 -0.028056614 0.39377472
-0.077123307 -0.02807715 0.39406294
-0.076471545 -0.028098846 0.39436746
-0.075822175 -0.02812184 0.39469019
-0.075174838 -0.028146029 0.39502966
-0.074529342 -0.028171377 0.39538544
-0.073886231 -0.028198127 0.39576086
-0.07324554 -0.028226331 0.3961567
-0.07260678 -0.028255843 0.39657089
-0.071970165 -0.028286779 0.39700511
-0.0713358 -0.028319236 0.39746064
-0.070703663 -0.028353246 0.39793795
-0.070073865 -0.028388897 0.39843833
-0.069446772 -0.028426398 0.39896464
-0.068822317 -0.028465774 0.3995173
-0.068200015 -0.028506884 0.40009427
-0.067580566 -0.028550079 0.40070051
-0.066964529 -0.028595662 0.40134028
-0.066351056 -0.028643353 0.40200961
-0.065741301 -0.028693719 0.40271649
-0.065135404 -0.02874691 0.40346304
-0.064533331 -0.028803011 0.40425041
-0.063936047 -0.028862558 0.40508616
-0.063343458 -0.028925624 0.40597129
-0.062757209 -0.028993096 0.40691826
-0.062178154 -0.029065529 0.40793484
-0.061607357 -0.0291436 0.40903059
-0.061046615 -0.02922838 0.41022047
-0.06049756 -0.029320903 0.41151902
-0.059965018 -0.029423829 0.4129636
-0.059454471 -0.029540271 0.41459787
-0.058978017 -0.029676838 0.41651458
-0.058556776 -0.029845066 0.41887566
-0.058265194 -0.030084642 0.42223811
-0.11940929 -0.028465992 0.40989751
-0.11779226 -0.028255465 0.40686601
-0.11649105 -0.02811853 0.4048942
-0.11532032 -0.02801156 0.4033539
-0.11422937 -0.027922735 0.40207484
-0.11319535 -0.02784678 0.40098113
-0.11220361 -0.027780315 0.40002406
-0.11124483 -0.027721202 0.39917287
-0.11031302 -0.027668087 0.39840803
-0.1094036 -0.027619926 0.39771453
-0.10851416 -0.027576206 0.39708498
-0.10764208 -0.027536346 0.39651102
-0.10678557 -0.027499961 0.39598709
-0.10594266 -0.027466614 0.39550692
-0.10511209 -0.027436037 0.39506662
-0.10429224 -0.027407859 0.39466086
-0.10348242 -0.027381947 0.39428774
-0.10268194 -0.027358163 0.39394528
-0.1018903 -0.027336422 0.3936322
-0.10110665 -0.027316535 0.39334583
-0.10033027 -0.027298342 0.39308387
-0.0995612 -0.027281895 0.39284703
-0.098798901 -0.02726708 0.39263371
-0.098042808 -0.027253779 0.39244217
-0.097292468 -0.027241891 0.39227101
-0.096547484 -0.027231341 0.39211908
-0.095807873 -0.027222164 0.39198694
-0.095073126 -0.02721424 0.39187285
-0.094343103 -0.027207563 0.39177668
-0.093617633 -0.027202105 0.39169809
-0.092896625 -0.027197871 0.39163715
-0.09217944 -0.027194701 0.39159149
-0.091466434 -0.027192723 0.391563
-0.090756983 -0.027191781 0.39154944
-0.090051226 -0.027191939 0.3915517
-0.089349136 -0.027193215 0.39157009
-0.088650301 -0.027195511 0.39160314
-0.087954827 -0.027198883 0.39165169
-0.087262526 -0.027203297 0.39171526
-0.086573251 -0.027208736 0.39179358
-0.085886866 -0.027215179 0.39188635
-0.085203432 -0.027222672 0.39199427
-0.084522955 -0.027231246 0.39211771
-0.083844945 -0.027240762 0.39225474
-0.083169475 -0.027251273 0.39240611
-0.08249674 -0.027262872 0.39257312
-0.08182653 -0.02727551 0.39275509
-0.081158839 -0.027289217 0.39295247
-0.080493294 -0.027303893 0.3931638
-0.079830147 -0.027319651 0.39339072
-0.079169445 -0.027336534 0.39363381
-0.078510843 -0.027354456 0.3938919
-0.077854425 -0.027373474 0.39416572
-0.077200331 -0.027393667 0.39445651
-0.076548308 -0.027414976 0.39476335
-0.075898573 -0.027437512 0.39508784
-0.075250886 -0.027461225 0.39542931
-0.074605338 -0.027486177 0.39578861
-0.073962227 -0.027512521 0.39616793
-0.073321246 -0.027540175 0.39656615
-0.072682381 -0.027569178 0.3969838
-0.072045833 -0.027599648 0.39742252
-0.071411595 -0.027631624 0.39788297
-0.070779614 -0.027665127 0.39836541
-0.070150211 -0.02770034 0.39887246
-0.06952323 -0.027737247 0.3994039
-0.068898901 -0.027775997 0.39996189
-0.068277463 -0.027816743 0.40054861
-0.067658782 -0.027859498 0.40116426
-0.067043133 -0.02790444 0.40181139
-0.066430993 -0.027951838 0.40249392
-0.065822236 -0.028001726 0.40321228
-0.065217704 -0.028054541 0.4039728
-0.064617023 -0.02811023 0.4047747
-0.064021036 -0.028169256 0.40562463
-0.06343089 -0.028232247 0.40653166
-0.062846772 -0.028299423 0.40749899
-0.062270578 -0.028371802 0.4085412
-0.061704122 -0.028450403 0.40967304
-0.061147969 -0.02853572 0.41090155
-0.060605686 -0.028629681 0.41225454
-0.060081843 -0.028734794 0.41376814
-0.059583761 -0.028855028 0.41549945
-0.059128214 -0.028999187 0.41757527
-0.058749225 -0.0291851 0.42025232
-0.058632638 -0.029507928 0.42490092
-0.12070967 -0.028028561 0.41436133
-0.11823931 -0.027626006 0.40841013
-0.11682716 -0.027467201 0.40606242
-0.11560161 -0.027350537 0.40433773
-0.11447622 -0.027256243 0.40294373
-0.1134186 -0.027176982 0.40177196
-0.11240951 -0.027108401 0.40075812
-0.11143655 -0.027047707 0.39986083
-0.1104928 -0.026993357 0.39905733
-0.10957462 -0.026944578 0.3983362
-0.10867696 -0.026900239 0.39768073
-0.10779853 -0.026860099 0.39708734
-0.10693612 -0.026823441 0.39654538
-0.10608801 -0.0267899 0.39604953
-0.10525234 -0.026759071 0.39559376
-0.1044281 -0.02673074 0.39517495
-0.10361457 -0.026704786 0.39479125
-0.10281033 -0.026680881 0.39443785
-0.1020153 -0.026659051 0.39411512
-0.10122888 -0.026639178 0.39382133
-0.10045018 -0.026621073 0.39355367
-0.099678844 -0.026604673 0.39331123
-0.098914117 -0.026589816 0.39309159
-0.09815567 -0.026576445 0.39289391
-0.097403169 -0.026564501 0.39271733
-0.096656501 -0.026553983 0.39256185
-0.095914915 -0.026544718 0.39242488
-0.095178455 -0.026536744 0.39230698
-0.094446756 -0.026529988 0.39220712
-0.09371981 -0.026524475 0.39212561
-0.092996977 -0.026520049 0.39206019
-0.09227857 -0.026516831 0.3920126
-0.091564342 -0.02651477 0.39198214
-0.090853512 -0.026513672 0.3919659
-0.090146981 -0.026513819 0.39196807
-0.089443684 -0.026514925 0.39198443
-0.088744096 -0.02651716 0.39201748
-0.088047832 -0.026520431 0.39206582
-0.08735463 -0.026524687 0.39212874
-0.08666461 -0.026529983 0.39220703
-0.08597748 -0.02653626 0.39229983
-0.085293248 -0.026543541 0.39240748
-0.084611796 -0.026551818 0.39252985
-0.083933204 -0.026561141 0.39266765
-0.083257087 -0.026571412 0.39281949
-0.082583807 -0.02658277 0.39298743
-0.081912979 -0.026595123 0.39317003
-0.081244543 -0.026608475 0.39336741
-0.080578439 -0.026622834 0.39357969
-0.079915039 -0.026638348 0.39380905
-0.0792538 -0.026654866 0.39405325
-0.078594744 -0.026672425 0.39431283
-0.077938251 -0.026691183 0.39459014
-0.077283792 -0.026710989 0.39488295
-0.076631553 -0.026731938 0.39519265
-0.075981595 -0.026754083 0.39552003
-0.075333863 -0.026777439 0.39586532
-0.074688189 -0.026801981 0.39622813
-0.074044846 -0.026827844 0.39661047
-0.073403828 -0.026855059 0.3970128
-0.072765142 -0.026883673 0.39743581
-0.072128482 -0.026913613 0.39787844
-0.071494095 -0.02694501 0.39834261
-0.070862435 -0.026978083 0.39883155
-0.070233375 -0.027012836 0.39934531
-0.069606557 -0.02704918 0.39988261
-0.068982616 -0.027087415 0.40044785
-0.068361714 -0.027127665 0.40104288
-0.067743815 -0.027169978 0.40166843
-0.067129046 -0.027214477 0.40232629
-0.066518031 -0.027261488 0.40302128
-0.065910339 -0.027310915 0.40375197
-0.065307178 -0.027363343 0.40452704
-0.064708322 -0.027418779 0.4053466
-0.064114816 -0.02747778 0.40621883
-0.063526735 -0.02754049 0.40714592
-0.062946275 -0.027608017 0.40814418
-0.06237362 -0.0276806 0.40921724
-0.061810654 -0.027759276 0.41038033
-0.061260976 -0.027845897 0.41166091
-0.060726888 -0.027941821 0.41307899
-0.060214456 -0.028050212 0.4146814
-0.059733212 -0.028176043 0.41654164
-0.059306983 -0.028331362 0.41883779
-0.059000775 -0.028548762 0.42205173
-0.1188755 -0.027033992 0.41060761
-0.11723339 -0.026827702 0.40747437
-0.11592839 -0.026696442 0.40548071
-0.11475684 -0.026594443 0.4039315
-0.11366925 -0.026510719 0.40265983
-0.11263791 -0.026439125 0.40157244
-0.11164872 -0.02637656 0.40062216
-0.11069173 -0.026320836 0.39977577
-0.1097623 -0.026270978 0.39901853
-0.10885589 -0.026226006 0.39833546
-0.10796993 -0.026185399 0.3977187
-0.10710047 -0.026148275 0.39715484
-0.10624555 -0.026114225 0.39663768
-0.10540486 -0.026083237 0.39616701
-0.10457592 -0.026054753 0.39573437
-0.10375781 -0.026028594 0.39533705
-0.10294961 -0.026004573 0.39497221
-0.10215177 -0.025982853 0.39464232
-0.10136214 -0.025962934 0.39433977
-0.10058054 -0.025944805 0.39406443
-0.099806085 -0.025928272 0.39381331
-0.099039033 -0.025913438 0.39358801
-0.098277964 -0.025899969 0.39338341
-0.097523063 -0.02588794 0.39320073
-0.096774295 -0.025877375 0.39304027
-0.096030705 -0.025868049 0.39289862
-0.095292337 -0.025860002 0.3927764
-0.094558813 -0.025853159 0.39267245
-0.093830101 -0.025847537 0.39258707
-0.093105987 -0.025843106 0.39251977
-0.092386462 -0.025839891 0.39247093
-0.091670789 -0.025837712 0.39243785
-0.090959303 -0.025836689 0.39242229
-0.090251394 -0.025836673 0.39242205
-0.089547008 -0.025837673 0.39243725
-0.088846259 -0.02583975 0.39246878
-0.088148639 -0.025842773 0.39251471
-0.087454505 -0.025846878 0.39257705
-0.086763486 -0.025851978 0.39265451
-0.086075455 -0.025858058 0.39274687
-0.0853903 -0.02586511 0.39285398
-0.08470805 -0.025873171 0.3929764
-0.084028617 -0.025882233 0.39311403
-0.083351843 -0.025892274 0.39326656
-0.082677834 -0.025903355 0.39343485
-0.082006246 -0.025915395 0.39361772
-0.081337407 -0.02592852 0.39381707
-0.080670834 -0.025942601 0.39403096
-0.080006696 -0.025957728 0.3942607
-0.079345092 -0.025973955 0.39450717
-0.078685664 -0.025991192 0.39476898
-0.078028791 -0.026009597 0.39504853
-0.077373981 -0.026029035 0.39534375
-0.076721579 -0.026049651 0.39565688
-0.076071382 -0.026071411 0.39598739
-0.075423464 -0.026094375 0.39633617
-0.074777819 -0.026118567 0.39670363
-0.074134409 -0.026144018 0.3970902
-0.073493257 -0.02617077 0.39749649
-0.072854556 -0.026198927 0.39792418
-0.072218314 -0.026228542 0.39837396
-0.071584478 -0.026259633 0.39884621
-0.070953093 -0.026292263 0.39934179
-0.070323907 -0.026326386 0.39986008
-0.069698133 -0.026362505 0.40040869
-0.069074601 -0.026400242 0.40098184
-0.068454117 -0.02643995 0.40158495
-0.067836836 -0.026481759 0.40221998
-0.067223072 -0.026525861 0.40288982
-0.066612668 -0.026572265 0.40359464
-0.066006675 -0.026621476 0.40434209
-0.065405153 -0.026673611 0.40513393
-0.064808659 -0.026728995 0.40597513
-0.06421753 -0.026787885 0.40686959
-0.063632794 -0.026850833 0.40782568
-0.063055798 -0.026918557 0.40885431
-0.062487822 -0.026991781 0.4099665
-0.061930135 -0.027071256 0.41117361
-0.061387807 -0.027159454 0.4125132
-0.060863506 -0.02725789 0.41400829
-0.060366429 -0.027371114 0.415728
-0.059909284 -0.027505521 0.41776946
-0.059530325 -0.027679706 0.42041507
-0.059417449 -0.027983703 0.42503235
-0.11776445 -0.026210897 0.40932024
-0.11631757 -0.026052201 0.40684196
-0.11508112 -0.025938919 0.4050729
-0.11395438 -0.025849076 0.40366989
-0.11289483 -0.025773419 0.40248838
-0.11188445 -0.025708079 0.40146801
-0.11091235 -0.02565074 0.40057257
-0.10996941 -0.025599435 0.39977139
-0.10905323 -0.025553728 0.3990576
-0.1081575 -0.025512235 0.39840963
-0.10728016 -0.025474552 0.39782116
-0.1064186 -0.025440138 0.39728373
-0.10557168 -0.025408776 0.39679399
-0.10473672 -0.025379887 0.39634284
-0.10391441 -0.025353687 0.39593369
-0.1031027 -0.02532973 0.39555955
-0.10230031 -0.025307743 0.3952162
-0.10150731 -0.025287785 0.39490452
-0.10072222 -0.025269531 0.39461946
-0.099944882 -0.025252977 0.39436096
-0.099174447 -0.02523794 0.39412615
-0.098410882 -0.025224451 0.39391547
-0.097653329 -0.025212316 0.39372596
-0.096901663 -0.025201531 0.39355755
-0.096156396 -0.025192266 0.39341286
-0.095416471 -0.025184274 0.39328805
-0.09468127 -0.025177415 0.39318097
-0.09395121 -0.025171835 0.39309379
-0.093225449 -0.025167327 0.3930234
-0.092504092 -0.025163949 0.39297065
-0.091786854 -0.025161646 0.39293471
-0.091073789 -0.025160462 0.3929162
-0.090364456 -0.0251603 0.39291367
-0.089658678 -0.025161132 0.39292666
-0.088956736 -0.025163062 0.39295679
-0.088258103 -0.025165966 0.39300215
-0.087562762 -0.025169862 0.39306301
-0.086870573 -0.025174737 0.39313912
-0.086181648 -0.025180645 0.39323139
-0.085495561 -0.025187489 0.39333826
-0.084812284 -0.02519528 0.39345995
-0.084132053 -0.025204116 0.39359793
-0.083454691 -0.02521397 0.3937518
-0.082779936 -0.025224786 0.39392072
-0.082107723 -0.025236573 0.39410478
-0.081437841 -0.025249286 0.39430332
-0.080770798 -0.025263112 0.39451924
-0.080106378 -0.025278011 0.39475191
-0.079444356 -0.025293943 0.3950007
-0.078784391 -0.025310822 0.3952643
-0.078127235 -0.025328919 0.39554691
-0.077472083 -0.02534801 0.39584503
-0.076819524 -0.025368307 0.396162
-0.076168716 -0.025389571 0.39649406
-0.075520813 -0.025412219 0.39684772
-0.074875236 -0.025436085 0.39722043
-0.074231952 -0.025461201 0.39761266
-0.073590964 -0.025487602 0.39802495
-0.072952367 -0.025515359 0.39845842
-0.072316125 -0.025544502 0.39891353
-0.07168258 -0.025575191 0.39939278
-0.071051687 -0.025607461 0.39989671
-0.070423216 -0.025641274 0.40042475
-0.069797881 -0.025676941 0.40098175
-0.069175318 -0.025714386 0.40156651
-0.068555653 -0.025753712 0.40218064
-0.067939684 -0.025795281 0.4028298
-0.06732659 -0.025838854 0.40351024
-0.066718288 -0.025885237 0.40423459
-0.066113576 -0.025934055 0.40499696
-0.065513708 -0.025985884 0.40580633
-0.06491936 -0.0260411 0.4066686
-0.064331502 -0.026100209 0.40759167
-0.063750401 -0.026163459 0.40857941
-0.063178211 -0.026231889 0.40964803
-0.062615409 -0.026305882 0.41080356
-0.062065646 -0.02638719 0.41207331
-0.061531965 -0.026477391 0.41348192
-0.061021082 -0.026579736 0.41508016
-0.060544599 -0.026699793 0.41695502
-0.060124617 -0.0268481 0.41927105
-0.059838485 -0.027060715 0.42259136
-0.11863155 -0.025660116 0.41233405
-0.11681294 -0.025426159 0.40857458
-0.11546613 -0.025292581 0.4064281
-0.11428346 -0.025193479 0.40483564
-0.11318833 -0.025112523 0.40353474
-0.112151 -0.025043428 0.40242445
-0.1111576 -0.024983302 0.40145829
-0.11020085 -0.024930684 0.40061277
-0.10927149 -0.024883607 0.39985627
-0.10836491 -0.024841126 0.39917365
-0.10747831 -0.024802687 0.39855596
-0.10660839 -0.024767606 0.39799225
-0.10575464 -0.024735831 0.39748165
-0.10491449 -0.024706824 0.39701554
-0.10408678 -0.02468037 0.39659044
-0.10327008 -0.024656178 0.3962017
-0.10246304 -0.024633972 0.39584488
-0.10166586 -0.024613841 0.39552137
-0.10087658 -0.02459535 0.39522424
-0.10009566 -0.02457865 0.3949559
-0.099322155 -0.024563543 0.39471316
-0.098556004 -0.024550052 0.39449635
-0.097796425 -0.024538012 0.3943029
-0.097042374 -0.024527192 0.39412904
-0.09629456 -0.024517803 0.39397815
-0.095552392 -0.024509722 0.3938483
-0.094815239 -0.024502814 0.39373729
-0.094082512 -0.024496958 0.39364317
-0.093354948 -0.024492363 0.39356935
-0.092631966 -0.024488909 0.39351386
-0.091912955 -0.024486464 0.39347455
-0.091198109 -0.024485094 0.39345255
-0.090487249 -0.024484785 0.39344758
-0.089780211 -0.024485512 0.39345926
-0.089077078 -0.024487324 0.39348838
-0.088377193 -0.024490066 0.39353243
-0.087680921 -0.02449386 0.3935934
-0.086987756 -0.024498593 0.39366946
-0.086297944 -0.024504354 0.39376205
-0.085611008 -0.024511036 0.3938694
-0.084927209 -0.024518734 0.39399311
-0.084246136 -0.024527356 0.39413166
-0.083567835 -0.024536939 0.39428565
-0.082892276 -0.024547497 0.39445531
