# .PCD v0.7 - Point Cloud Data file format
VERSION 0.7
FIELDS x y z
SIZE 4 4 4
TYPE F F F
COUNT 1 1 1
WIDTH 1340
HEIGHT 1
VIEWPOINT 0 0 0 1 0 0 0
POINTS 1340
DATA ascii
0.082124941 -0.06969168 0.36277807
0.082983188 -0.069863319 0.36367151
0.038807392 -0.069985978 0.36776319
0.039379641 -0.069824405 0.36691415
0.039956339 -0.06967593 0.36613393
0.04053475 -0.069535218 0.36539453
0.041116755 -0.069405079 0.36471069
0.041700374 -0.06928172 0.36406246
0.042285748 -0.069165058 0.36344942
0.042873047 -0.069055058 0.36287138
0.043461829 -0.06895072 0.36232311
0.044052087 -0.068851784 0.3618032
0.044643778 -0.068757936 0.36131006
0.045236863 -0.068668909 0.36084223
0.04583139 -0.068584561 0.36039901
0.046427067 -0.068504274 0.35997713
0.047023885 -0.068427861 0.35957557
0.047622196 -0.068355665 0.35919622
0.048221856 -0.068287328 0.3588371
0.048822924 -0.068222761 0.35849783
0.049425151 -0.068161488 0.35817581
0.050028704 -0.068103589 0.35787159
0.05063365 -0.068049051 0.35758498
0.051239941 -0.067997657 0.35731494
0.051847581 -0.067949317 0.35706091
0.052456453 -0.06790375 0.35682148
0.053067125 -0.067861594 0.35659996
0.053679399 -0.067822471 0.35639438
0.054293185 -0.067786165 0.35620359
0.054908507 -0.0677526 0.35602722
0.055525526 -0.067721888 0.35586581
0.056144211 -0.067693882 0.35571864
0.056764565 -0.067668498 0.35558525
0.057386816 -0.067645907 0.35546657
0.058011077 -0.067626171 0.35536286
0.058637232 -0.067609049 0.35527286
0.059265513 -0.067594722 0.35519758
0.059895735 -0.06758289 0.35513541
0.060528442 -0.067574084 0.35508913
0.061163366 -0.067567907 0.35505667
0.061800677 -0.067564473 0.35503861
0.06244044 -0.067563757 0.35503489
0.063082911 -0.067565963 0.35504645
0.06372799 -0.06757088 0.35507232
0.064376011 -0.067578793 0.35511389
0.06502676 -0.067589387 0.35516956
0.065680869 -0.06760323 0.35524231
0.066338629 -0.067620531 0.35533321
0.06699945 -0.067640595 0.35543865
0.067664243 -0.067664243 0.35556293
0.068332583 -0.067690961 0.35570329
0.069004737 -0.067720927 0.35586077
0.069681823 -0.06775514 0.35604054
0.070363194 -0.067792848 0.35623869
0.071049482 -0.067834571 0.35645795
0.07174059 -0.067880116 0.35669726
0.072437882 -0.067930639 0.35696277
0.073141158 -0.067985833 0.35725281
0.073850073 -0.068045266 0.3575651
0.074566416 -0.068110451 0.35790765
0.075290397 -0.068181433 0.35828063
0.076022007 -0.068258055 0.35868329
0.076763146 -0.068341866 0.35912371
0.077514164 -0.068433002 0.3596026
0.078276426 -0.068532474 0.3601253
0.079050861 -0.068640873 0.36069492
0.079838939 -0.068759248 0.36131695
0.080644794 -0.068890899 0.36200875
0.081469752 -0.069036618 0.36277446
0.082317837 -0.069199458 0.36363018
0.083194882 -0.069383875 0.36459923
0.084109902 -0.06959682 0.36571825
0.085076652 -0.069848925 0.36704299
0.037766267 -0.069850884 0.37056577
0.038326796 -0.069654785 0.36952543
0.038893037 -0.069475599 0.36857483
0.039463226 -0.069309361 0.36769295
0.040037591 -0.069155835 0.36687848
0.040614635 -0.06901186 0.36611465
0.041194797 -0.068877704 0.36540294
0.04177656 -0.068750404 0.36472762
0.042361047 -0.068631463 0.36409661
0.042946987 -0.068518475 0.3634972
0.04353473 -0.068411723 0.36293086
0.04412432 -0.068310983 0.36239645
0.0447153 -0.068215311 0.36188889
0.045307945 -0.068124898 0.36140925
0.045901854 -0.068038918 0.36095312
0.046497285 -0.067957573 0.36052155
0.047094226 -0.067880645 0.36011344
0.047692522 -0.067807734 0.35972667
0.048291929 -0.067738339 0.35935852
0.048892684 -0.067672655 0.35901004
0.049495146 -0.067611016 0.35868305
0.050098941 -0.067552768 0.35837403
0.050704002 -0.067497686 0.35808182
0.05131048 -0.067445852 0.35780683
0.0519186 -0.067397438 0.35755
0.052528165 -0.067352064 0.35730928
0.053139251 -0.067309715 0.35708463
0.053751763 -0.067270167 0.35687482
0.054365873 -0.06723354 0.35668048
0.054981846 -0.067200035 0.35650274
0.05559954 -0.067169391 0.35634017
0.056218933 -0.067141466 0.35619205
0.056839999 -0.067116156 0.35605776
0.057463136 -0.067093834 0.35593933
0.058088049 -0.067074046 0.35583436
0.058715094 -0.067057133 0.35574463
0.059344131 -0.067042828 0.35566875
0.059975419 -0.067031354 0.35560787
0.060609162 -0.06702283 0.35556266
0.061245069 -0.067016855 0.35553098
0.061883513 -0.067013748 0.3555145
0.062524572 -0.067013517 0.35551324
0.063168332 -0.067016147 0.35552722
0.063814469 -0.067021228 0.35555416
0.064463779 -0.067029506 0.35559806
0.065116346 -0.067040965 0.35565889
0.065772161 -0.067055516 0.35573608
0.066431239 -0.067073092 0.3558293
0.067093901 -0.067093901 0.35593972
0.067759924 -0.067117646 0.35606569
0.068430506 -0.067145422 0.35621303
0.069105081 -0.067176566 0.35637826
0.069784112 -0.067211427 0.35656318
0.070467569 -0.067249872 0.35676715
0.071156442 -0.06729275 0.3569946
0.071850479 -0.067339689 0.35724363
0.072550118 -0.067391001 0.35751584
0.073256157 -0.067447297 0.35781452
0.073969029 -0.067508854 0.35814106
0.074688613 -0.06757541 0.35849416
0.075417094 -0.067648806 0.35888353
0.076153539 -0.067728043 0.35930389
0.076900147 -0.067814901 0.35976467
0.077656507 -0.067908823 0.36026296
0.078425124 -0.068011835 0.36080942
0.079207547 -0.06812501 0.36140984
0.080005147 -0.068249293 0.36206916
0.080821015 -0.068387017 0.36279979
0.08165969 -0.068541668 0.36362025
0.082525037 -0.068716072 0.36454546
0.083425045 -0.068916343 0.36560792
0.084371157 -0.06915126 0.36685419
0.085389234 -0.06944105 0.36839154
0.086531959 -0.069826946 0.37043878
0.036787596 -0.069862686 0.37420931
0.037321072 -0.069598757 0.37279564
0.03786733 -0.069367588 0.37155738
0.038422622 -0.069160715 0.37044933
0.038984261 -0.068972155 0.36943933
0.039551515 -0.068799697 0.36851558
0.040123127 -0.068640389 0.36766228
0.040697511 -0.06849093 0.36686173
0.041275341 -0.068351962 0.36611736
0.041855522 -0.068221204 0.36541697
0.04243838 -0.068098798 0.36476132
0.043023176 -0.067983188 0.36414206
0.043609858 -0.067873992 0.36355716
0.044198591 -0.067771174 0.36300644
0.044788964 -0.06767384 0.36248508
0.045380902 -0.067581631 0.3619912
0.045974582 -0.067494601 0.36152503
0.046569694 -0.067412071 0.36108297
0.047166213 -0.06733384 0.36066392
0.047764327 -0.067259975 0.36026827
0.048363924 -0.067190148 0.35989428
0.048965015 -0.067124225 0.35954115
0.049567565 -0.067061998 0.35920787
0.050171301 -0.06700296 0.35889164
0.050776545 -0.066947415 0.35859412
0.051383581 -0.066895604 0.3583166
0.051991962 -0.066846803 0.3580552
0.052602008 -0.066801324 0.35781157
0.053213403 -0.066758633 0.35758293
0.05382672 -0.066719346 0.35737249
0.054441426 -0.066682689 0.35717615
0.055057894 -0.066649035 0.35699585
0.055676084 -0.066618204 0.35683075
0.056296177 -0.066590339 0.35668147
0.056918141 -0.066565283 0.35654727
0.057542138 -0.066543147 0.35642868
0.058168016 -0.066523641 0.35632423
0.058796044 -0.066507004 0.35623509
0.059426166 -0.066493064 0.35616043
0.06005837 -0.066481724 0.35609969
0.060692992 -0.066473275 0.35605446
0.061330296 -0.066467911 0.35602573
0.061969839 -0.066465057 0.35601044
0.062612012 -0.066465057 0.35601044
0.063256964 -0.066467978 0.35602608
0.063904457 -0.066473477 0.35605553
0.064555541 -0.066482566 0.35610422
0.065209664 -0.066494584 0.3561686
0.065867059 -0.066509664 0.35624936
0.066527747 -0.066527747 0.35634619
0.06719207 -0.066549085 0.35646051
0.067860365 -0.06657391 0.35659349
0.068532802 -0.066602297 0.35674554
0.069209203 -0.066633977 0.35691521
0.069890618 -0.066669852 0.35710737
0.070576973 -0.066709742 0.35732105
0.071268156 -0.066753432 0.35755506
0.071965016 -0.066801608 0.35781309
0.072668441 -0.066854961 0.35809889
0.073377669 -0.066912681 0.35840803
0.074093908 -0.066975713 0.35874569
0.074818105 -0.067044795 0.35911572
0.075550392 -0.067119874 0.35951787
0.076291725 -0.067201644 0.35995585
0.077043995 -0.067291588 0.36043763
0.077806756 -0.067389116 0.36096001
0.078583062 -0.067496657 0.36153603
0.079373688 -0.067614622 0.36216789
0.080182336 -0.067745894 0.36287102
0.081010997 -0.067891806 0.36365262
0.081864633 -0.068056144 0.36453283
0.082750186 -0.068244182 0.36554003
0.08367873 -0.068464413 0.36671969
0.084669083 -0.068731375 0.36814961
0.08576382 -0.069078252 0.37000763
0.087121569 -0.069629975 0.37296286
0.036431972 -0.069799572 0.3775188
0.036921255 -0.069439054 0.3755689
0.03744128 -0.06914831 0.37399638
0.037977595 -0.068897404 0.37263933
0.038525857 -0.068676524 0.37144467
0.039081965 -0.068476945 0.37036523
0.039644554 -0.06829524 0.36938244
0.040212221 -0.068128146 0.36847869
0.04078364 -0.067972735 0.36763814
0.04135922 -0.067829117 0.36686137
0.041937314 -0.067694083 0.36613104
0.042518564 -0.067568265 0.3654505
0.043101706 -0.067449234 0.36480671
0.043687709 -0.067338198 0.36420617
0.044275392 -0.067233004 0.36363721
0.044864915 -0.067133628 0.36309975
0.04545657 -0.067040265 0.36259475
0.04604977 -0.066951789 0.36211625
0.04664436 -0.066867791 0.36166191
0.047240853 -0.066788793 0.36123466
0.047839195 -0.066714525 0.36083296
0.048438624 -0.066643745 0.36045015
0.049039442 -0.066576727 0.36008766
0.049642216 -0.066514082 0.35974884
0.050246567 -0.066455141 0.35943004
0.050852321 -0.06639953 0.35912928
0.051459406 -0.066347033 0.35884535
0.052068353 -0.066298217 0.3585813
0.052678611 -0.066252239 0.35833266
0.053290881 -0.066209882 0.35810354
0.053904682 -0.066170417 0.3578901
0.054520108 -0.066133857 0.35769236
0.055137202 -0.066100158 0.35751009
0.055756271 -0.066069573 0.35734466
0.056377169 -0.066041827 0.3571946
0.056999896 -0.066016823 0.35705939
0.057624709 -0.065994777 0.35694015
0.058251563 -0.065975524 0.35683602
0.058880318 -0.065958828 0.35674569
0.059511274 -0.065944925 0.3566705
0.06014483 -0.065934174 0.35661235
0.060780711 -0.065926164 0.35656905
0.061418924 -0.065920837 0.3565402
0.062059809 -0.065918446 0.3565273
0.062703289 -0.06591884 0.35652941
0.063349321 -0.065921888 0.3565459
0.063998833 -0.065928444 0.35658136
0.064651184 -0.065937772 0.35663182
0.065306768 -0.065950178 0.35669893
0.065965734 -0.065965734 0.35678303
0.06662827 -0.065984517 0.35688463
0.067294836 -0.066006899 0.35700569
0.067965016 -0.066032358 0.3571434
0.068639487 -0.066061474 0.35730088
0.069318481 -0.066094369 0.35747877
0.070002526 -0.066131413 0.35767916
0.070691273 -0.066172197 0.35789973
0.071385682 -0.06621749 0.3581447
0.07208582 -0.06626723 0.35841373
0.072792105 -0.066321701 0.35870832
0.073505342 -0.066381477 0.35903165
0.074225448 -0.066446356 0.35938257
0.074954145 -0.066517748 0.35976866
0.075691454 -0.066595487 0.36018914
0.076438881 -0.066680729 0.36065018
0.07719671 -0.066773526 0.36115208
0.077966429 -0.066874966 0.36170074
0.078751542 -0.066987827 0.36231115
0.079552464 -0.067112155 0.36298361
0.080371998 -0.067250036 0.36372936
0.081215702 -0.067405745 0.36457151
0.082088642 -0.067583017 0.36553031
0.083001032 -0.067789689 0.36664811
0.08396697 -0.068036474 0.36798289
0.085022666 -0.068351552 0.36968702
0.086271994 -0.068816178 0.37220001
0.036637437 -0.069508411 0.37964788
0.037081156 -0.069059402 0.37719545
0.037577488 -0.068722792 0.37535694
0.038099423 -0.068444096 0.3738347
0.038637523 -0.068203628 0.37252131
0.039186068 -0.067989506 0.37135178
0.039743159 -0.067797154 0.37030119
0.040305927 -0.067620687 0.36933735
0.040874124 -0.06745892 0.36845377
0.041446771 -0.067309551 0.36763796
0.042022649 -0.067170061 0.36687607
0.04260201 -0.067040376 0.36616772
0.043183878 -0.06691853 0.36550221
0.04376854 -0.06680461 0.36488003
0.044355135 -0.066696979 0.36429214
0.044944253 -0.066596225 0.36374184
0.045535251 -0.066501126 0.36322239
0.046127684 -0.06641078 0.36272895
0.046722438 -0.066326261 0.36226732
0.047318891 -0.066246442 0.36183137
0.047916718 -0.066170707 0.36141768
0.048516445 -0.066099584 0.36102924
0.049117912 -0.066032693 0.36066386
0.049720734 -0.065969341 0.36031786
0.050325088 -0.065909632 0.35999173
0.05093107 -0.065853551 0.35968542
0.051538792 -0.065801099 0.35939893
0.052148126 -0.065751985 0.35913068
0.052758869 -0.065705828 0.35887858
0.053371463 -0.065663077 0.35864505
0.053985886 -0.065623567 0.35842925
0.054602109 -0.065587148 0.35823035
0.055219974 -0.065553539 0.35804677
0.055839438 -0.065522574 0.35787767
0.056461029 -0.065494791 0.35772592
0.057084508 -0.065469801 0.35758942
0.057710245 -0.065447934 0.35746998
0.058338054 -0.065428868 0.35736585
0.058967739 -0.065412305 0.35727537
0.059599802 -0.065398701 0.35720107
0.060234189 -0.06538792 0.35714218
0.060870934 -0.065379888 0.35709834
0.061510429 -0.065374956 0.3570714
0.06215252 -0.065372854 0.35705993
0.062797405 -0.065373711 0.35706457
0.063445024 -0.065377362 0.35708451
0.064095765 -0.065384127 0.35712147
0.064749971 -0.065394245 0.35717675
0.065407008 -0.065407008 0.35724646
0.066067763 -0.065423198 0.35733488
0.066732392 -0.065442875 0.35744235
0.067400761 -0.065465815 0.35756764
0.068073206 -0.065492235 0.35771194
0.068750247 -0.065522529 0.35787743
0.069431618 -0.06555637 0.35806224
0.070118293 -0.065594539 0.3582707
0.070810191 -0.065636843 0.35850179
0.07150735 -0.065683223 0.35875511
0.07221131 -0.06573496 0.3590377
0.072921224 -0.065791152 0.3593446
0.073638774 -0.065853171 0.35968336
0.074363902 -0.065920837 0.36005294
0.075097688 -0.065994941 0.36045766
0.075840019 -0.066075213 0.36089611
0.076593734 -0.06616395 0.36138079
0.077359542 -0.066261545 0.36191386
0.078137867 -0.066368148 0.36249608
0.078932196 -0.066486456 0.36314228
0.079744987 -0.066618241 0.36386207
0.080579251 -0.066765666 0.3646673
0.081440598 -0.066932961 0.36558104
0.082337476 -0.067126535 0.36663833
0.083283864 -0.067357071 0.36789748
0.084308043 -0.067646369 0.36947763
0.085483298 -0.068051413 0.37168992
0.037020091 -0.069542415 0.38361305
0.037283689 -0.06875249 0.37925565
0.037736535 -0.06833373 0.37694564
0.038235895 -0.068012521 0.37517378
0.038759895 -0.067745559 0.37370116
0.039298579 -0.067512944 0.37241799
0.039848261 -0.067306727 0.37128046
0.040405955 -0.067120634 0.37025392
0.040970176 -0.066951267 0.36931965
0.041539174 -0.066794991 0.36845759
0.042112757 -0.066650897 0.36766276
0.042690061 -0.06651707 0.36692452
0.043270264 -0.066391781 0.36623338
0.043853458 -0.066274777 0.36558795
0.044439271 -0.066165134 0.36498317
0.045027524 -0.066062279 0.36441579
0.04561758 -0.065964989 0.36387911
0.046210308 -0.065874271 0.36337867
0.046804737 -0.065788478 0.36290541
0.047400702 -0.065707177 0.36245695
0.047998611 -0.065630749 0.36203536
0.048598237 -0.065558694 0.36163789
0.049199354 -0.065490529 0.36126187
0.049802464 -0.065426767 0.36091012
0.050407253 -0.065366827 0.36057949
0.051013377 -0.065310121 0.36026669
0.051621377 -0.065257214 0.35997483
0.052230902 -0.065207526 0.35970074
0.052842297 -0.065161362 0.35944608
0.053455397 -0.065118395 0.35920906
0.054070096 -0.065078378 0.35898834
0.05468655 -0.0650414 0.35878435
0.05530512 -0.065007776 0.35859886
0.05592541 -0.064976923 0.35842869
0.056547701 -0.064949073 0.35827506
0.057171777 -0.064923882 0.35813609
0.057798263 -0.064901963 0.35801518
0.058426805 -0.064882807 0.3579095
0.05905766 -0.06486661 0.35782018
0.059690583 -0.064853013 0.35774517
0.060325742 -0.064842105 0.357685
0.060964093 -0.064834826 0.35764486
0.061604697 -0.064830072 0.35761863
0.062247816 -0.064828038 0.35760739
0.062893704 -0.064828895 0.35761213
0.063543297 -0.064833514 0.35763761
0.064195514 -0.064840697 0.35767722
0.064850882 -0.064850882 0.35773343
0.065509826 -0.064864404 0.35780802
0.066172779 -0.064881608 0.35790288
0.06683939 -0.064902015 0.35801548
0.067509867 -0.06492576 0.35814646
0.068184927 -0.064953409 0.35829899
0.068864234 -0.06498456 0.3584708
0.069548145 -0.065019429 0.35866317
0.070237741 -0.065058917 0.358881
0.070932783 -0.065102689 0.35912246
0.071633942 -0.065151237 0.35939023
0.072341241 -0.065204434 0.35968369
0.073055595 -0.065262996 0.36000675
0.073777616 -0.065327317 0.36036155
0.074507721 -0.065397605 0.36074927
0.075246982 -0.065474644 0.36117426
0.07599695 -0.065559603 0.3616429
0.076757655 -0.065652288 0.36215419
0.077531666 -0.065754704 0.36271912
0.078320183 -0.065867603 0.3633419
0.079126887 -0.065993793 0.36403799
0.079953037 -0.066133991 0.36481136
0.080805488 -0.066293485 0.36569116
0.081691243 -0.066477492 0.36670619
0.082621269 -0.066694282 0.36790204
0.08361946 -0.066962197 0.36937994
0.084741153 -0.067323998 0.37137574
0.086351447 -0.068065256 0.37546471
0.037615474 -0.068674125 0.38263062
0.037936199 -0.068011746 0.37894008
0.038394641 -0.067615345 0.37673143
0.038896412 -0.067307703 0.37501734
0.03942211 -0.067051284 0.37358865
0.039962426 -0.066827923 0.37234417
0.0405134 -0.066629477 0.3712385
0.041072484 -0.066450603 0.37024188
0.041638166 -0.066287965 0.36933568
0.042208396 -0.066137567 0.36849773
0.042783469 -0.065999307 0.36772737
0.04336169 -0.065870047 0.3670072
0.043943785 -0.065750472 0.36634097
0.044528 -0.065637566 0.3657119
0.045115627 -0.065532915 0.36512882
0.045705136 -0.065433972 0.3645775
0.046297006 -0.065341167 0.36406043
0.0468909 -0.065253772 0.36357349
0.047486465 -0.065171085 0.36311278
0.04808414 -0.065093495 0.36268049
0.048683636 -0.065020427 0.36227337
0.049284846 -0.064951554 0.36188963
0.049887791 -0.064886734 0.36152849
0.050492529 -0.064825892 0.36118948
0.051098745 -0.064768471 0.36086956
0.051707 -0.06471505 0.36057192
0.052316699 -0.064664744 0.3602916
0.052928273 -0.064617954 0.36003092
0.053541522 -0.064574324 0.35978782
0.054156806 -0.064534158 0.35956404
0.054773908 -0.064497083 0.35935748
0.055392623 -0.064462759 0.35916623
0.056013431 -0.064431638 0.35899282
0.056636464 -0.06440375 0.35883746
0.057261344 -0.064378574 0.35869718
0.057888273 -0.064356238 0.35857272
0.058517776 -0.064337224 0.35846677
0.059149232 -0.064320751 0.35837498
0.059783269 -0.064307407 0.35830066
0.060419627 -0.064296819 0.35824168
0.061058763 -0.064289391 0.35820025
0.061700542 -0.064284854 0.35817501
0.062345028 -0.064283215 0.35816586
0.062992565 -0.06428472 0.35817423
0.063643277 -0.064289398 0.35820031
0.064297013 -0.064297013 0.35824272
0.064954184 -0.064307876 0.35830325
0.06561511 -0.064322203 0.35838309
0.066279665 -0.064339772 0.35848099
0.066948265 -0.064360894 0.35859865
0.067621149 -0.06438569 0.35873681
0.068298437 -0.064414166 0.35889548
0.068980694 -0.064446755 0.35907704
0.069667712 -0.064483136 0.35927975
0.070360593 -0.064524233 0.35950872
0.071058825 -0.064569436 0.35976058
0.071763843 -0.064619936 0.36004195
0.072475277 -0.064675249 0.36035013
0.073194504 -0.064736478 0.36069128
0.073921651 -0.064803563 0.36106506
0.074657492 -0.064877033 0.36147442
0.075403944 -0.064958379 0.36192766
0.076160707 -0.06504713 0.36242214
0.076930061 -0.065145031 0.36296761
0.077713698 -0.065253273 0.36357072
0.078514822 -0.065374263 0.36424485
0.079335146 -0.065509103 0.36499614
0.080180101 -0.0656619 0.36584744
0.081054978 -0.065836497 0.36682025
0.081973225 -0.066043206 0.36797199
0.082951993 -0.066294961 0.36937469
0.084038712 -0.0666283 0.37123194
0.085431196 -0.067196868 0.37439984
0.038248457 -0.067882396 0.38205916
0.038592201 -0.067280211 0.37866989
0.039056696 -0.066905819 0.37656274
0.039561499 -0.066612095 0.37490958
0.040088952 -0.066365741 0.37352306
0.040631268 -0.066151738 0.37231857
0.041184038 -0.065961428 0.37124747
0.041744623 -0.065789528 0.37027997
0.042311449 -0.065632716 0.3693974
0.042883433 -0.065488651 0.36858657
0.043459859 -0.065355666 0.36783808
0.044039644 -0.065231651 0.36714011
0.044622727 -0.065116122 0.36648989
0.045208815 -0.065008298 0.36588299
0.045797225 -0.064906858 0.3653121
0.046388194 -0.06481187 0.36477748
0.046981141 -0.06472227 0.36427319
0.047576286 -0.06463813 0.3637996
0.048173357 -0.064558856 0.36335343
0.048772119 -0.064483948 0.36293182
0.049373478 -0.064414404 0.36254042
0.049975961 -0.064348131 0.36216745
0.050580435 -0.064286105 0.36181831
0.051186826 -0.064228058 0.36149162
0.051794745 -0.064173363 0.36118379
0.052404579 -0.064122371 0.3608968
0.053016298 -0.064074911 0.36062968
0.053629924 -0.064030878 0.36038184
0.054245248 -0.0639899 0.36015123
0.054862484 -0.063952126 0.35993862
0.055482052 -0.06391792 0.3597461
0.056102991 -0.063886069 0.35956681
0.056726482 -0.063857809 0.35940778
0.057352006 -0.063832454 0.35926509
0.057979703 -0.063810065 0.35913906
0.058609579 -0.063790537 0.35902914
0.0592421 -0.06377428 0.35893765
0.059877016 -0.063760929 0.35886252
0.060514234 -0.063750289 0.35880262
0.061154425 -0.063742973 0.35876143
0.061797485 -0.063738763 0.35873777
0.062443323 -0.063737482 0.35873055
0.063092142 -0.06373924 0.35874045
0.063744321 -0.063744321 0.35876903
0.064399689 -0.063752457 0.35881481
0.06505888 -0.063764177 0.35888079
0.065721519 -0.063779011 0.35896426
0.066388145 -0.063797392 0.35906771
0.067058951 -0.063819386 0.35919154
0.067734286 -0.063845232 0.359337
0.068414181 -0.063874848 0.35950369
0.069099076 -0.06390854 0.35969329
0.069789566 -0.063946724 0.35990819
0.070485368 -0.063989021 0.36014625
0.071187787 -0.064036503 0.36041349
0.071896635 -0.064088859 0.36070818
0.07261277 -0.064146705 0.36103377
0.073336981 -0.064210601 0.36139339
0.074070007 -0.064281017 0.3617897
0.07481236 -0.064358234 0.36222428
0.075565822 -0.064443581 0.36270463
0.076331779 -0.064538032 0.36323622
0.077111244 -0.064642198 0.36382249
0.077907331 -0.064758413 0.36447659
0.078722514 -0.064888433 0.36520839
0.079560645 -0.065035053 0.36603358
0.080429509 -0.065204173 0.36698544
0.081337281 -0.065401815 0.36809781
0.082302153 -0.065641798 0.36944851
0.083364822 -0.065955304 0.37121299
0.084672086 -0.066455781 0.37402982
0.03889202 -0.067114547 0.38161173
0.039255764 -0.06656412 0.37848204
0.039723869 -0.066206455 0.37644833
0.040232223 -0.065926753 0.37485796
0.040762335 -0.065691367 0.37351957
0.04130673 -0.065486275 0.37235343
0.041861035 -0.065303214 0.37131256
0.042423356 -0.065138221 0.37037441
0.04299153 -0.064987198 0.36951569
0.043564558 -0.064848006 0.36872426
0.044141702 -0.064719036 0.36799094
0.044722773 -0.064599566 0.3673116
0.045306865 -0.064487875 0.36667654
0.045893881 -0.064383499 0.36608309
0.046483289 -0.064285398 0.36552528
0.047075301 -0.064193591 0.36500326
0.047669366 -0.064107075 0.36451134
0.048265751 -0.064025998 0.36405033
0.04886397 -0.063949488 0.3636153
0.049464487 -0.063877977 0.36320868
0.050066404 -0.063810125 0.36282286
0.050670717 -0.063747033 0.36246413
0.05127665 -0.063687555 0.36212596
0.051884536 -0.063631982 0.36180994
0.052494496 -0.063580289 0.36151603
0.053105831 -0.063531518 0.36123872
0.053719237 -0.063486375 0.36098203
0.05433511 -0.063445188 0.36074784
0.054952674 -0.063406929 0.36053032
0.055572346 -0.063371979 0.36033157
0.056194104 -0.06334018 0.36015075
0.0568178 -0.063311264 0.35998636
0.057444267 -0.063286059 0.35984305
0.058072925 -0.063263796 0.35971648
0.05870359 -0.063244201 0.35960504
0.059337154 -0.063228115 0.35951358
0.059972964 -0.063214742 0.35943756
0.060611393 -0.063204393 0.3593787
0.061252981 -0.063197523 0.35933962
0.061897404 -0.063193686 0.35931781
0.062544711 -0.063192844 0.35931301
0.063195489 -0.063195489 0.35932809
0.063849047 -0.063200831 0.35935846
0.064506523 -0.063209906 0.35941005
0.065167509 -0.063222207 0.35947999
0.065832257 -0.063237883 0.3595691
0.066501096 -0.063257135 0.3596786
0.067174032 -0.063279882 0.35980794
0.067852102 -0.06330698 0.35996202
0.068534702 -0.063337758 0.36013702
0.069222741 -0.063372932 0.36033699
0.069916271 -0.063412428 0.36056158
0.070615873 -0.063456662 0.36081308
0.071321763 -0.063505679 0.36109182
0.072034471 -0.063559823 0.36139968
0.072755888 -0.063620619 0.36174536
0.073485523 -0.063687451 0.36212537
0.074224576 -0.063761197 0.36254469
0.074973866 -0.063842379 0.36300626
0.075734921 -0.063932076 0.36351627
0.076510757 -0.064032607 0.36408791
0.077302009 -0.064144216 0.36472252
0.078112334 -0.06426964 0.36543566
0.078945413 -0.064411528 0.36624244
0.079807952 -0.064574905 0.36717138
0.080707416 -0.064765207 0.36825347
0.081662089 -0.064996354 0.36956775
0.082707077 -0.065295063 0.37126619
0.083966687 -0.065757044 0.37389302
0.039550897 -0.066376723 0.38132754
0.039927404 -0.065863155 0.37837714
0.040400319 -0.065523207 0.37642416
0.040911239 -0.065255113 0.37488401
0.041443698 -0.065029539 0.37358811
0.041989226 -0.064831361 0.37244961
0.042544503 -0.064654246 0.37143207
0.043107439 -0.064494073 0.37051192
0.043676574 -0.06434793 0.36967233
0.044250485 -0.064213112 0.3688978
0.044828385 -0.064087987 0.36817899
0.045409966 -0.063971706 0.36751094
0.045995157 -0.063863777 0.36689094
0.046582703 -0.063762136 0.36630702
0.047173083 -0.063667171 0.36576143
0.047765866 -0.063578017 0.36524925
0.048361041 -0.063494429 0.36476904
0.048958249 -0.063415721 0.36431688
0.049557585 -0.063341811 0.36389229
0.050159182 -0.063272692 0.3634952
0.050762851 -0.063207932 0.36312318
0.051368281 -0.063146994 0.36277309
0.051976152 -0.063090548 0.36244881
0.052585762 -0.063037589 0.36214456
0.053197857 -0.06298887 0.36186469
0.053811673 -0.062943354 0.36160317
0.054427564 -0.062901318 0.36136168
0.055045944 -0.062863119 0.36114225
0.055666447 -0.062828213 0.36094171
0.056288775 -0.062796146 0.3607575
0.056913648 -0.062767617 0.36059362
0.057541061 -0.062742516 0.36044937
0.058170833 -0.062720507 0.36032295
0.058803014 -0.062701553 0.36021408
0.059437886 -0.062685862 0.3601239
0.060075138 -0.06267298 0.36004993
0.060715187 -0.062663265 0.35999411
0.061358292 -0.062656879 0.35995743
0.06200441 -0.062653668 0.35993898
0.062653527 -0.062653527 0.35993814
0.063306116 -0.06265682 0.35995707
0.063961804 -0.062663086 0.35999307
0.06462127 -0.062672891 0.3600494
0.065284424 -0.062686034 0.36012492
0.06595166 -0.062702805 0.36022127
0.066623017 -0.06272313 0.36033803
0.067298904 -0.062747285 0.36047679
0.067979425 -0.062775254 0.36063749
0.06866499 -0.062807314 0.36082166
0.069356106 -0.0628438 0.36103123
0.070053138 -0.062884904 0.36126742
0.070756413 -0.062930815 0.36153117
0.071466222 -0.062981643 0.36182317
0.072183535 -0.063038111 0.36214754
0.072910003 -0.063101478 0.36251161
0.073645286 -0.06317129 0.36291265
0.074390881 -0.063248634 0.36335698
0.075147398 -0.063333832 0.36384645
0.07591787 -0.063429222 0.36439443
0.076703638 -0.063535631 0.36500576
0.077507399 -0.063655011 0.3656916
0.078334577 -0.063791446 0.3664754
0.079189099 -0.063947685 0.36737296
0.080081679 -0.064131804 0.3684307
0.081027478 -0.064355157 0.36971384
0.082060106 -0.064643264 0.371369
0.083291903 -0.065082334 0.37389141
0.040228259 -0.065671772 0.38122824
0.040611975 -0.065183923 0.37839624
0.041087847 -0.064857677 0.37650236
0.041599616 -0.064597778 0.37499362
0.042132154 -0.064377926 0.3737174
0.042678375 -0.06418559 0.37260085
0.043233916 -0.064013004 0.37159899
0.043796815 -0.063856423 0.37069002
0.044365905 -0.063713446 0.36986002
0.044940162 -0.063582011 0.36909702
0.045518711 -0.063460395 0.36839104
0.04610043 -0.063346639 0.36773068
0.046685725 -0.063240945 0.36711714
0.047274079 -0.0631423 0.36654451
0.047865335 -0.063050203 0.36600986
0.048458911 -0.06296362 0.36550725
0.04905542 -0.062883124 0.36503994
0.049653985 -0.062807359 0.36460015
0.050255261 -0.062736958 0.36419147
0.050858758 -0.062671117 0.36380926
0.051464554 -0.06260974 0.36345297
0.052072342 -0.062552311 0.36311957
0.052682601 -0.062499236 0.36281148
0.053295098 -0.062450085 0.36252615
0.053909916 -0.062404815 0.36226335
0.054526746 -0.062362928 0.36202019
0.055146236 -0.062325034 0.36180022
0.055767767 -0.062290315 0.36159867
0.056391723 -0.062259071 0.36141729
0.057017896 -0.06223096 0.36125413
0.05764693 -0.062206574 0.36111256
0.058278233 -0.062185153 0.3609882
0.058912255 -0.062167075 0.36088327
0.059548702 -0.062151924 0.36079532
0.060187813 -0.06213985 0.36072522
0.060829923 -0.062131096 0.36067441
0.061475337 -0.062125873 0.36064407
0.062123489 -0.062123489 0.36063024
0.062775075 -0.062124558 0.36063644
0.063429683 -0.062128562 0.36065969
0.064088322 -0.062136389 0.36070514
0.064749844 -0.062146831 0.36076576
0.065415733 -0.062161218 0.36084926
0.066085637 -0.0621791 0.36095306
0.066759795 -0.062200591 0.36107782
0.067438804 -0.062226139 0.36122614
0.068122283 -0.062255289 0.36139536
0.068811603 -0.062289178 0.36159208
0.069506265 -0.062327217 0.36181289
0.070206843 -0.062369801 0.3620601
0.070913889 -0.062417295 0.3623358
0.071628436 -0.062470466 0.36264446
0.072350688 -0.062529325 0.36298615
0.073081978 -0.062594883 0.36336669
0.073823728 -0.062668137 0.36379197
0.07457608 -0.062749036 0.3642616
0.075340234 -0.062838361 0.36478013
0.076121129 -0.062939979 0.36537004
0.076918595 -0.063053444 0.36602867
0.077737331 -0.063182257 0.36677644
0.078584187 -0.063331559 0.36764318
0.079466552 -0.063506737 0.36866009
0.080400214 -0.063719675 0.36989617
0.081420004 -0.063996792 0.37150487
0.082631007 -0.064418457 0.37395266
0.040928092 -0.06500344 0.38134161
0.041311067 -0.064527206 0.37854779
0.041785404 -0.064206839 0.37666839
0.042295136 -0.063950248 0.37516308
0.042826612 -0.063734092 0.37389502
0.043372005 -0.063545033 0.3727859
0.04392682 -0.063375339 0.37179038
0.044489376 -0.063221745 0.37088934
0.04505818 -0.063081451 0.37006631
0.045632396 -0.06295272 0.36931112
0.046210866 -0.062833481 0.3686116
0.046793699 -0.062723465 0.3679662
0.047379948 -0.06262105 0.36736536
0.047969535 -0.062525809 0.36680663
0.048562821 -0.062437911 0.36629099
0.049158238 -0.062355079 0.36580506
0.049757194 -0.062278874 0.365358
0.0503585 -0.062207557 0.36493963
0.050962217 -0.062141024 0.36454931
0.051568639 -0.062079445 0.36418805
0.052177195 -0.062021948 0.36385074
0.052788917 -0.061969597 0.36354363
0.053402513 -0.061920706 0.36325681
0.054018568 -0.061875813 0.36299345
0.054637142 -0.061834846 0.36275312
0.055258386 -0.061797839 0.36253601
0.055881567 -0.061763838 0.36233655
0.056507345 -0.061733458 0.36215833
0.057135675 -0.061706528 0.36200035
0.057766993 -0.061683398 0.36186466
0.058400456 -0.061663054 0.3617453
0.05903646 -0.061645806 0.36164412
0.059675071 -0.061631631 0.36156097
0.060317062 -0.061621215 0.36149985
0.060962029 -0.061614029 0.36145771
0.06160998 -0.06160998 0.36143395
0.062260728 -0.061608784 0.36142692
0.062914945 -0.061611008 0.36143997
0.06357225 -0.061616179 0.36147031
0.064233519 -0.061625049 0.36152235
0.064898513 -0.061637282 0.36159411
0.065567441 -0.06165297 0.36168614
0.066240348 -0.061672043 0.36179805
0.066918232 -0.061695341 0.36193472
0.067600563 -0.061722256 0.36209261
0.068287812 -0.061753094 0.36227351
0.068980761 -0.061788455 0.36248097
0.069679804 -0.061828557 0.36271623
0.070384599 -0.061872974 0.36297679
0.071096286 -0.061922569 0.36326775
0.071816102 -0.061978277 0.36359456
0.072543964 -0.06203986 0.36395583
0.073281877 -0.062108852 0.36436057
0.074029855 -0.062185079 0.36480775
0.074789673 -0.062269814 0.36530486
0.075564429 -0.062365402 0.36586562
0.076355673 -0.062472828 0.36649582
0.077165805 -0.062593721 0.36720505
0.078005232 -0.062736124 0.36804044
0.078877166 -0.062902041 0.36901382
0.079797029 -0.063103087 0.37019324
0.080800116 -0.063366063 0.37173599
0.08198721 -0.063767828 0.37409294
0.041655868 -0.064377256 0.38170734
0.042020556 -0.063884906 0.37878811
0.042489264 -0.063563943 0.37688503
0.042996746 -0.063310169 0.37538037
0.043525461 -0.063095048 0.37410486
0.044068415 -0.062906824 0.37298882
0.044622399 -0.06273976 0.37199828
0.045184914 -0.062589474 0.37110719
0.045754198 -0.062452812 0.3702969
0.046329744 -0.062328506 0.36955985
0.046909921 -0.062213864 0.36888012
0.047494929 -0.062108755 0.3682569
0.048083469 -0.062011093 0.36767784
0.048676092 -0.061921287 0.36714536
0.049271867 -0.061837845 0.36665061
0.049871266 -0.061761104 0.36619559
0.050473113 -0.061689362 0.36577022
0.051078085 -0.061623242 0.36537817
0.051686082 -0.0615624 0.36501744
0.052295793 -0.061505117 0.36467779
0.05290968 -0.061454099 0.36437529
0.053525001 -0.061405983 0.36409
0.054143012 -0.06136208 0.3638297
0.054764207 -0.061322797 0.36359677
0.055387434 -0.061286688 0.36338267
0.056013029 -0.061254013 0.36318895
0.056641262 -0.061224949 0.36301661
0.057272159 -0.061199393 0.36286509
0.057905275 -0.061176762 0.36273089
0.058541246 -0.061157614 0.36261737
0.059179548 -0.061141301 0.36252064
0.059821419 -0.061128989 0.36244765
0.060466073 -0.061119761 0.36239293
0.061113313 -0.061113313 0.3623547
0.061763912 -0.061110325 0.36233699
0.062417783 -0.061110605 0.36233863
0.063074589 -0.061113719 0.36235711
0.063735202 -0.061120424 0.36239687
0.064399458 -0.061130449 0.36245629
0.065067887 -0.061144195 0.3625378
0.065740466 -0.061161526 0.36264056
0.066417322 -0.061182462 0.36276469
0.067098945 -0.061207332 0.36291215
0.067785122 -0.061235834 0.36308116
0.068477206 -0.061269078 0.36327827
0.069175042 -0.061306793 0.36350188
0.069879286 -0.061349422 0.36375463
0.070589676 -0.061396603 0.36403438
0.071308091 -0.061449829 0.36434999
0.072034284 -0.06150873 0.36469921
0.072769322 -0.061574042 0.36508647
0.073514611 -0.061646778 0.36551774
0.074272543 -0.061728738 0.36600369
0.075042672 -0.061819293 0.36654061
0.075829133 -0.061921608 0.36714727
0.076635227 -0.062038038 0.36783761
0.077465169 -0.062171619 0.36862963
0.078326717 -0.06232807 0.36955726
0.079237811 -0.062520973 0.37070104
0.080225542 -0.062770613 0.37218121
0.081389055 -0.063152507 0.37444553
0.042415585 -0.063795798 0.38234907
0.042741105 -0.06325683 0.37911886
0.043198794 -0.06292738 0.37714434
0.043700807 -0.062671699 0.37561196
0.044227269 -0.062458355 0.37433332
0.044770595 -0.062274888 0.37323374
0.045325432 -0.062112629 0.37226129
0.045889791 -0.061967965 0.37139425
0.046461735 -0.061837561 0.37061271
0.04703946 -0.061718438 0.36989877
0.047623452 -0.061610758 0.3692534
0.04821147 -0.061511189 0.36865664
0.048804846 -0.061421063 0.3681165
0.049401309 -0.061337195 0.36761385
0.050001785 -0.061260466 0.36715397
0.050604839 -0.061188858 0.36672482
0.051212177 -0.061124209 0.36633736
0.051821448 -0.061063491 0.36597344
0.052434042 -0.061008159 0.36564183
0.053049367 -0.060957346 0.36533728
0.053666409 -0.060909729 0.3650519
0.054287042 -0.060867291 0.36479756
0.054909632 -0.060828034 0.36456227
0.05553462 -0.060792334 0.36434832
0.056162793 -0.060760919 0.36416003
0.056793038 -0.060732439 0.36398935
0.057426084 -0.060707573 0.36384031
0.058061339 -0.060685579 0.3637085
0.058699481 -0.06066706 0.36359751
0.059340827 -0.060652226 0.36350861
0.059984639 -0.060640208 0.36343658
0.060631771 -0.060631771 0.36338601
0.061281454 -0.060626037 0.36335164
0.061934553 -0.060623769 0.36333805
0.062591553 -0.060625326 0.36334738
0.063251816 -0.060629975 0.36337525
0.063915513 -0.060637798 0.36342213
0.06458348 -0.060649462 0.36349204
0.065255471 -0.060664635 0.36358297
0.06593246 -0.060684107 0.36369967
0.066613831 -0.060707185 0.36383799
0.067299969 -0.060734116 0.3639994
0.06799151 -0.06076536 0.36418664
0.068689153 -0.060801405 0.36440268
0.069392674 -0.060841918 0.36464548
0.070103087 -0.060887653 0.3649196
0.070821151 -0.060939129 0.36522812
0.071547046 -0.060996331 0.36557093
0.072282352 -0.061060432 0.36595511
0.073026992 -0.061131191 0.3663792
0.073784053 -0.061210986 0.36685744
0.074553974 -0.061299935 0.36739054
0.075339161 -0.061399758 0.3679888
0.076144688 -0.06151427 0.36867511
0.076971754 -0.061644044 0.36945289
0.077831335 -0.061797414 0.37037209
0.078736961 -0.06198442 0.37149286
0.079718158 -0.062227253 0.37294826
0.080881961 -0.06260737 0.37522644
0.043243717 -0.063308805 0.38357711
0.04346906 -0.062636524 0.37950388
0.043915443 -0.062298652 0.37745678
0.044414844 -0.062045164 0.37592095
0.044942077 -0.061837595 0.37466332
0.045487139 -0.061660346 0.3735894
0.046045657 -0.061506245 0.37265572
0.046613362 -0.06136867 0.37182218
0.047189731 -0.061246246 0.37108043
0.047772903 -0.061135955 0.3704122
0.048361417 -0.061035443 0.36980322
0.048955288 -0.060944337 0.36925122
0.049552534 -0.060859822 0.36873916
0.050153952 -0.060782604 0.36827132
0.050758384 -0.060711008 0.36783752
0.05136681 -0.060645975 0.3674435
0.051977262 -0.060584962 0.36707383
0.052591302 -0.060529612 0.36673847
0.053207576 -0.060478173 0.36642683
0.053826071 -0.060430497 0.36613795
0.054448083 -0.060387876 0.36587971
0.055072036 -0.060348395 0.36564052
0.055698656 -0.060312744 0.36542451
0.056328293 -0.060281157 0.36523312
0.056960188 -0.060252685 0.36506063
0.057594229 -0.060227107 0.36490566
0.058231767 -0.060205724 0.3647761
0.058871947 -0.060187522 0.36466581
0.059514876 -0.060172498 0.36457479
0.060161009 -0.060161009 0.36450517
0.060810123 -0.060152717 0.36445493
0.061462447 -0.060147744 0.36442479
0.062118262 -0.060146254 0.36441576
0.062778175 -0.06014872 0.36443073
0.063441582 -0.060154457 0.36446548
0.064109229 -0.060164049 0.36452359
0.064780861 -0.060177144 0.36460292
0.065457299 -0.060194399 0.36470747
0.066138268 -0.060215436 0.36483493
0.06682422 -0.060240556 0.36498713
0.067516573 -0.060270891 0.36517093
0.068213925 -0.060305063 0.36537796
0.068918407 -0.060344826 0.36561888
0.069628954 -0.06038909 0.36588708
0.070348382 -0.060440157 0.36619648
0.071075968 -0.060497221 0.36654222
0.071811989 -0.060560338 0.36692464
0.072559327 -0.060631763 0.3673574
0.073318131 -0.060711391 0.36783984
0.074091226 -0.060801324 0.36838472
0.074879348 -0.060901873 0.36899394
0.075688496 -0.061017599 0.3696951
0.076521352 -0.061150253 0.37049884
0.077387094 -0.061306659 0.37144646
0.078302316 -0.061499245 0.37261331
0.079297565 -0.06175087 0.37413788
0.080536492 -0.062186405 0.3767767
0.044216093 -0.062039632 0.38004088
0.044651266 -0.061693735 0.377922
0.04515034 -0.061445199 0.37639952
0.045681279 -0.061246753 0.37518388
0.046230428 -0.061078154 0.37415108
0.0467944 -0.060933717 0.37326628
0.047368534 -0.060806416 0.37248647
0.047949638 -0.060691498 0.37178251
0.048536602 -0.060587071 0.3711428
0.049129717 -0.060493052 0.37056687
0.049726978 -0.060406599 0.37003729
0.050328348 -0.060327359 0.36955187
0.050933063 -0.060254149 0.3691034
0.051540896 -0.060186464 0.36868879
0.052151654 -0.060123879 0.36830541
0.052765768 -0.060066693 0.36795509
0.053382371 -0.060013723 0.3676306
0.054001573 -0.05996494 0.36733177
0.054623794 -0.059920646 0.36706045
0.055248257 -0.059879851 0.36681053
0.055875625 -0.059843127 0.36658558
0.056505494 -0.059809908 0.36638209
0.05713829 -0.059780523 0.36620209
0.057773322 -0.059754122 0.36604035
0.058412302 -0.059732355 0.36590701
0.059053905 -0.059713725 0.3657929
0.0596986 -0.0596986 0.36570024
0.060346581 -0.059687056 0.36562952
0.060997918 -0.059679043 0.36558044
0.061652932 -0.059674762 0.36555421
0.062311281 -0.059673764 0.3655481
0.06297449 -0.0596774 0.36557037
0.063641317 -0.059684347 0.36561292
0.064312764 -0.059695438 0.36568087
0.064988367 -0.059710123 0.36577082
0.065669633 -0.059729666 0.36589053
0.066355973 -0.059753384 0.36603585
0.067047648 -0.059781399 0.36620745
0.067746408 -0.05981512 0.36641401
0.06845133 -0.059853576 0.3666496
0.069163509 -0.059897587 0.36691919
0.069884382 -0.059948213 0.36722931
0.070613317 -0.060004745 0.36757562
0.071352951 -0.060069229 0.36797065
0.072103865 -0.060141936 0.36841601
0.072867297 -0.060223654 0.3689166
0.073645711 -0.060316171 0.36948335
0.074442431 -0.060421884 0.37013093
0.075260662 -0.060543019 0.37087297
0.076107204 -0.060684599 0.37174025
0.076991349 -0.060853425 0.37277445
0.077933237 -0.061064571 0.37406787
0.078989536 -0.06136097 0.37588355
0.045010921 -0.06150347 0.38096604
0.045429494 -0.061141953 0.37872672
0.045928191 -0.06089738 0.37721178
0.046461709 -0.060705446 0.37602291
0.047015857 -0.060545601 0.37503278
0.047581907 -0.0604054 0.37416434
0.048158098 -0.060281817 0.37339884
0.048742108 -0.060171291 0.37271422
0.049331579 -0.060070425 0.37208945
0.049925979 -0.059978187 0.37151811
0.050525121 -0.059894018 0.37099674
0.051127795 -0.059816178 0.37051457
0.051734086 -0.059744526 0.37007076
0.052343227 -0.059677947 0.36965835
0.052955735 -0.059616834 0.3692798
0.053570762 -0.059560042 0.36892802
0.054189794 -0.059509035 0.36861208
0.054810796 -0.059461411 0.36831707
0.055435054 -0.05941841 0.36805072
0.056062352 -0.059379652 0.36781064
0.056692995 -0.059345298 0.36759785
0.057326049 -0.059314236 0.36740544
0.057962503 -0.059287362 0.36723897
0.058602825 -0.059265003 0.36710048
0.059245706 -0.059245706 0.36698094
0.059892606 -0.059230808 0.36688867
0.060542967 -0.059219621 0.36681938
0.061196696 -0.05921194 0.36677179
0.061854206 -0.059208035 0.36674762
0.062516503 -0.059208747 0.36675203
0.063182704 -0.059213106 0.36677903
0.063853547 -0.059221681 0.36683214
0.064529777 -0.059235021 0.36691478
0.065210693 -0.059252359 0.36702216
0.065897174 -0.059274342 0.36715832
0.066589847 -0.059301406 0.36732596
0.06728854 -0.059333246 0.36752319
0.067994781 -0.059371054 0.36775738
0.068708412 -0.059414525 0.36802664
0.069430634 -0.059464514 0.36833629
0.070163026 -0.059522185 0.36869353
0.070905648 -0.059587374 0.36909732
0.071661271 -0.059662174 0.36956066
0.07243035 -0.05974669 0.37008417
0.073217735 -0.059844635 0.37069085
0.074025087 -0.059956972 0.37138668
0.074859068 -0.060088668 0.37220246
0.075728647 -0.060246345 0.37317914
0.0766505 -0.060442466 0.37439394
0.077663854 -0.060706679 0.37603053
0.078978591 -0.061199863 0.37908542
0.04592346 -0.061116181 0.38284469
0.046275958 -0.060672924 0.38006803
0.046764117 -0.060417872 0.37847033
0.04729278 -0.060221743 0.37724173
0.047843099 -0.060058359 0.37621826
0.048408017 -0.059917618 0.37533662
0.048982006 -0.059791826 0.37454864
0.049564302 -0.059679467 0.3738448
0.050152149 -0.059576713 0.37320113
0.05074602 -0.059483748 0.37261876
0.051343039 -0.059396848 0.37207443
0.051945746 -0.059318691 0.37158483
0.052551579 -0.059246048 0.37112978
0.053161789 -0.059180103 0.37071669
0.053775068 -0.059119176 0.37033501
0.054391965 -0.059063669 0.36998731
0.055012338 -0.059013233 0.36967137
0.055636216 -0.058967728 0.36938632
0.056263421 -0.05892678 0.36912981
0.056894422 -0.058890719 0.36890391
0.057528976 -0.058859129 0.36870602
0.058165889 -0.058830645 0.36852759
0.058807835 -0.058807835 0.36838472
0.059452634 -0.058788359 0.36826271
0.060102016 -0.058773797 0.36817148
0.060754415 -0.058762468 0.36810052
0.061411105 -0.058755487 0.3680568
0.062072571 -0.058753181 0.36804235
0.062739104 -0.05875567 0.36805794
0.063409224 -0.058761425 0.368094
0.064085379 -0.058772601 0.368164
0.064766586 -0.058788136 0.36826131
0.06545341 -0.058808394 0.36838821
0.066146471 -0.058833797 0.36854735
0.066847354 -0.058865577 0.36874643
0.067554675 -0.058902349 0.36897677
0.068269908 -0.058945239 0.36924544
0.068995498 -0.058996148 0.36956435
0.069730565 -0.059054114 0.36992747
0.07047879 -0.059122015 0.3703528
0.07123968 -0.059199169 0.37083611
0.072016612 -0.059288096 0.37139317
0.072815433 -0.059393235 0.37205178
0.073638342 -0.059515923 0.37282032
0.07449773 -0.059665605 0.37375796
0.075407572 -0.059852649 0.37492964
0.07640899 -0.060108405 0.37653175
0.077709265 -0.060592685 0.37956539
0.047253732 -0.060360607 0.38243288
0.047680214 -0.060029045 0.38033217
0.048184209 -0.059803095 0.37890059
0.048719484 -0.059621748 0.37775162
0.04927304 -0.059467465 0.3767741
0.049838789 -0.05933189 0.37591514
0.050414152 -0.059211254 0.3751508
0.050997511 -0.059103075 0.37446541
0.051587116 -0.059004869 0.37384319
0.052182566 -0.058915801 0.37327889
0.052784257 -0.058835957 0.37277299
0.053389791 -0.058762349 0.37230664
0.054000854 -0.058696583 0.37188995
0.054615214 -0.058635965 0.37150589
0.055234712 -0.058582272 0.37116569
0.055857807 -0.058533628 0.37085751
0.056484699 -0.058490071 0.37058154
0.057116739 -0.058452804 0.37034541
0.057751752 -0.058419403 0.37013379
0.058390133 -0.058390133 0.36994836
0.059034225 -0.05836717 0.36980286
0.059682079 -0.058348402 0.36968395
0.060333751 -0.058333736 0.36959103
0.060989674 -0.058323458 0.36952591
0.061650742 -0.058318269 0.36949304
0.062316101 -0.058317207 0.3694863
0.062987357 -0.058321625 0.36951429
0.063663766 -0.058330674 0.36957163
0.064345747 -0.058344588 0.36965978
0.065033644 -0.058363527 0.36977977
0.065728106 -0.058387909 0.36993426
0.066430278 -0.058418587 0.37012863
0.067140378 -0.058455557 0.37036285
0.067858562 -0.058498759 0.37063658
0.068587154 -0.058550011 0.37096131
0.069328152 -0.058610756 0.37134618
0.07008218 -0.058681253 0.37179282
0.070850946 -0.058762632 0.37230843
0.071641594 -0.058860462 0.37292826
0.072457001 -0.058976628 0.37366426
0.073307581 -0.059119016 0.37456641
0.074212007 -0.059301835 0.3757247
0.075218506 -0.059562165 0.37737411
0.048794597 -0.059868548 0.38370043
0.049177695 -0.059494693 0.38130438
0.049666159 -0.059256867 0.37978014
0.050190717 -0.059067987 0.3785696
0.050737686 -0.058910202 0.37755835
0.05130145 -0.058775835 0.37669718
0.051876232 -0.058657438 0.37593839
0.052461013 -0.05855326 0.37527069
0.053053822 -0.058460578 0.3746767
0.05365302 -0.058377188 0.37414223
0.0542599 -0.058304116 0.37367392
0.054870985 -0.058237303 0.37324572
0.055487692 -0.058178008 0.37286568
0.056110233 -0.058126166 0.37253344
0.056737121 -0.05808001 0.37223762
0.057369929 -0.058040924 0.3719871
0.058005709 -0.058005709 0.37176141
0.058647282 -0.057977028 0.37157759
0.059293482 -0.057953518 0.37142691
0.059943333 -0.057934061 0.37130222
0.060598921 -0.057920516 0.3712154
0.061259273 -0.057911772 0.37115937
0.061924826 -0.057908081 0.37113571
0.062595569 -0.057909273 0.37114334
0.063271999 -0.057915639 0.37118414
0.063955449 -0.057928234 0.37126487
0.064644948 -0.057945989 0.37137866
0.065341994 -0.057970081 0.37153307
0.066047944 -0.058001492 0.37173438
0.066762023 -0.058039349 0.371977
0.067485973 -0.058084946 0.37226924
0.068221338 -0.058139369 0.37261805
0.06897077 -0.058204599 0.37303612
0.069736809 -0.058282457 0.3735351
0.07052099 -0.058373835 0.37412074
0.071331717 -0.058485247 0.37483481
0.072179802 -0.058624908 0.37572989
0.073088981 -0.058811132 0.37692341
0.074142583 -0.059109066 0.37883288
0.05081398 -0.059110142 0.38327065
0.051222574 -0.05878564 0.38116658
0.051719632 -0.058569912 0.37976781
0.052255169 -0.058402833 0.37868446
0.052814331 -0.058266129 0.37779808
0.053389676 -0.058150541 0.37704858
0.05397597 -0.058049627 0.37639427
0.054572269 -0.057961851 0.37582514
0.055179216 -0.057887398 0.37534237
0.055791941 -0.057820737 0.37491015
0.056411725 -0.057762902 0.37453514
0.057037342 -0.057712339 0.37420729
0.057668045 -0.057668045 0.37392008
0.058304667 -0.057630625 0.37367746
0.058946867 -0.057599511 0.3734757
0.059593789 -0.057573661 0.37330809
0.060245536 -0.057553001 0.37317413
0.060903408 -0.057538576 0.37308061
0.061567243 -0.057530046 0.3730253
0.062236365 -0.057526585 0.37300286
0.062913544 -0.057530567 0.37302867
0.063597538 -0.057540633 0.37309393
0.064289242 -0.057557385 0.37320256
0.064990856 -0.057582572 0.37336588
0.065701731 -0.057615366 0.37357852
0.066423543 -0.057656985 0.37384838
0.067159295 -0.057709746 0.37419048
0.067908898 -0.05777324 0.37460217
0.068676516 -0.057850663 0.37510419
0.069467679 -0.057946213 0.37572372
0.070289008 -0.058064833 0.37649286
0.071155675 -0.058218278 0.37748781
0.072118782 -0.058446977 0.37897068
0.053139728 -0.058696825 0.38509473
0.053391024 -0.058213443 0.38192338
0.053882472 -0.058000877 0.38052881
0.05442426 -0.057847168 0.37952036
0.054996081 -0.057728805 0.3787438
0.055584051 -0.057630092 0.37809616
0.056182876 -0.057544887 0.37753716
0.056792203 -0.057472352 0.37706128
0.057409015 -0.057409015 0.37664574
0.058033653 -0.057354894 0.37629068
0.058664173 -0.057307776 0.37598154
0.059301473 -0.057268277 0.37572241
0.059944626 -0.057235263 0.37550581
0.060593348 -0.057208244 0.37532854
0.061249766 -0.057189006 0.37520233
0.061915033 -0.057178363 0.3751325
0.062587366 -0.057174403 0.37510651
0.063270718 -0.057180487 0.37514642
0.06396497 -0.057196192 0.37524948
0.064672902 -0.057223666 0.37542972
0.065397136 -0.05726485 0.37569991
0.066138417 -0.057319958 0.37606147
0.066902034 -0.057393115 0.37654144
0.067690812 -0.057486169 0.37715194
0.06851431 -0.057606559 0.37794179
0.069391802 -0.057769526 0.37901098
0.070402414 -0.058039062 0.38077933
0.056361072 -0.057744164 0.38338163
0.056835897 -0.057524815 0.38192531
0.057387061 -0.057387061 0.38101071
0.057962686 -0.057276737 0.38027823
0.058558274 -0.057188492 0.37969235
0.059163786 -0.057111863 0.37918359
0.059778851 -0.057046104 0.37874699
0.060401969 -0.056989428 0.3783707
0.061033454 -0.056941826 0.37805465
0.061676923 -0.056906331 0.377819
0.062330689 -0.056881011 0.37765089
0.062999912 -0.056870189 0.37757903
