# .PCD v0.7 - Point Cloud Data file format
VERSION 0.7
FIELDS x y z
SIZE 4 4 4
TYPE F F F
COUNT 1 1 1
WIDTH 85
HEIGHT 1
VIEWPOINT 0 0 0 1 0 0 0
POINTS 85
DATA ascii
-0.20820537 0.020225665 0.43971604
-0.2010396 0.019820806 0.44850254
-0.21979851 0.019266775 0.43596599
-0.19938235 0.016251842 0.43949953
-0.20578542 0.019428682 0.43962961
-0.20960866 0.012010847 0.42958748
-0.21963993 0.012783276 0.42950469
-0.22828028 0.010464462 0.42972714
-0.22952062 0.018631207 0.43952423
-0.23822109 0.013080359 0.43948638
-0.24002236 0.010676448 0.43843246
-0.18921407 0.010129233 0.44923773
-0.19950989 0.019020213 0.44870114
-0.19055213 0.0099870088 0.44293001
-0.20288651 0.0096982084 0.43012151
-0.18857887 0.0093275569 0.44965535
-0.18847142 0.0051581655 0.4399381
-0.19215904 0.0099051055 0.43929753
-0.19962755 0.0065896474 0.42978665
-0.20963103 0.0096515203 0.42805088
-0.21933612 0.0096369125 0.427403
-0.22987251 0.0096910838 0.42980555
-0.23842466 0.0011630472 0.42984882
-0.23993473 0.0082465289 0.43540317
-0.24439003 0.00039227933 0.43494576
-0.21978293 -0.00037959055 0.42087689
-0.18293707 -0.0028393781 0.44974345
-0.18600872 -0.00039660707 0.4397442
-0.19024141 -0.00039063944 0.43312752
-0.20991689 -0.00038097438 0.42241123
-0.2391374 -0.028478026 0.43254042
-0.22524503 -0.0079498244 0.41973764
-0.21920317 -0.0011357678 0.41976666
-0.18782602 -0.030425383 0.44979483
-0.24157085 -0.0065918211 0.42992842
-0.24699476 -0.0098169623 0.43538833
-0.23983379 -0.031899076 0.43664929
-0.22535215 -0.011741037 0.41993728
-0.19423845 -0.0003877015 0.42987001
-0.18288061 -0.019058513 0.44960466
-0.22954716 -0.0003832173 0.42489809
-0.18523459 -0.01943575 0.43978953
-0.20939508 -0.0041651824 0.4198373
-0.23995715 -0.0019382646 0.42981616
-0.19047329 -0.019865312 0.43188179
-0.20969139 -0.019408822 0.42195746
-0.22880913 -0.03977577 0.43665347
-0.21988767 -0.017787814 0.41962796
-0.24153817 -0.016671173 0.42987025
-0.228232 -0.041677147 0.44009694
-0.21991457 -0.029552219 0.42553869
-0.24360913 -0.026368031 0.43635765
-0.21977867 -0.019358743 0.42086872
-0.24728951 -0.012973853 0.43590787
-0.20916601 -0.04490798 0.44858032
-0.19956812 -0.02983834 0.42965871
-0.22993629 -0.019512065 0.424202
-0.18845358 -0.027375363 0.43989646
-0.19648248 -0.039296497 0.44918141
-0.21757801 -0.045614686 0.44757509
-0.20946506 -0.029594144 0.42614239
-0.22397944 0.022037333 0.44425878
-0.21963099 -0.039400943 0.43253863
-0.20931301 -0.014761676 0.41967273
-0.23951757 -0.019734081 0.42902875
-0.19000272 -0.029749904 0.43980888
-0.19272096 -0.019776197 0.42994437
-0.1868203 -0.028772756 0.44932729
-0.22949214 -0.029698985 0.42765203
-0.20712382 0.022293171 0.44941631
-0.19931954 -0.038437366 0.43936107
-0.23989306 -0.021315217 0.42970136
-0.19896136 -0.040926881 0.44929019
-0.21986671 0.02099628 0.43924433
-0.20978977 -0.036063675 0.42995867
-0.22469273 0.020210458 0.43938541
-0.21987161 -0.036839157 0.42995775
-0.23281546 -0.030603031 0.42951369
-0.2291507 -0.033732843 0.42990586
-0.210582 0.023127502 0.44987676
-0.20234451 -0.039993729 0.43904617
-0.22835506 0.019459823 0.44033426
-0.21966675 -0.043141756 0.43884486
-0.20812656 -0.042418174 0.4395496
-0.22918406 -0.040770222 0.43887973
