# .PCD v0.7 - Point Cloud Data file format
VERSION 0.7
FIELDS x y z
SIZE 4 4 4
TYPE F F F
COUNT 1 1 1
WIDTH 1341
HEIGHT 1
VIEWPOINT 0 0 0 1 0 0 0
POINTS 1341
DATA ascii
-0.088121518 0.018973533 0.46749327
-0.087047957 0.018923469 0.46625972
-0.085991912 0.018876273 0.46509686
-0.084958106 0.018833078 0.46403256
-0.083943881 0.018793406 0.46305507
-0.082944483 0.018756289 0.46214056
-0.081955716 0.01872085 0.46126735
-0.080974735 0.018686477 0.46042043
-0.080003209 0.018653598 0.45961031
-0.079049543 0.018624237 0.45888689
-0.078115106 0.018598836 0.45826101
-0.077200525 0.018577667 0.45773944
-0.076300696 0.018559627 0.45729497
-0.075411774 0.01854388 0.45690694
-0.074530169 0.0185296 0.4565551
-0.073654622 0.018516524 0.45623294
-0.072783895 0.018504379 0.45593369
-0.071916938 0.018492928 0.45565152
-0.071053244 0.018482059 0.45538372
-0.070192896 0.018471815 0.45513132
-0.069336116 0.01846228 0.45489639
-0.068482563 0.018453386 0.45467722
-0.067632154 0.018445132 0.45447388
-0.066785395 0.018437685 0.45429042
-0.065941691 0.018430907 0.45412338
-0.06510096 0.0184248 0.45397291
-0.064263575 0.018419497 0.45384225
-0.063428864 0.018414831 0.4537273
-0.062596962 0.018410871 0.45362973
-0.061767858 0.018407639 0.4535501
-0.060940869 0.018404961 0.45348409
-0.060116313 0.018402953 0.45343462
-0.059294313 0.018401684 0.45340335
-0.058474254 0.018400988 0.45338622
-0.057656091 0.01840088 0.45338354
-0.05683979 0.018401371 0.45339563
-0.056025244 0.018402452 0.45342228
-0.055212319 0.018404108 0.45346305
-0.054401167 0.01840641 0.45351979
-0.05359181 0.018409401 0.45359349
-0.05278369 0.018412916 0.4536801
-0.051976919 0.018417019 0.45378119
-0.051171962 0.018421907 0.45390162
-0.050367668 0.018427195 0.45403194
-0.049565259 0.01843336 0.45418385
-0.048763443 0.018439958 0.45434639
-0.047962997 0.018447306 0.45452747
-0.047163252 0.018455185 0.4547216
-0.046364237 0.018463634 0.45492974
-0.045566153 0.018472765 0.45515472
-0.044768415 0.018482372 0.45539147
-0.043971084 0.018492512 0.4556413
-0.043173984 0.018503135 0.45590305
-0.042377003 0.018514223 0.45617625
-0.041580223 0.018525841 0.4564625
-0.040784109 0.018538231 0.45676777
-0.039988756 0.018551486 0.45709434
-0.039194684 0.018565902 0.45744959
-0.038402263 0.018581741 0.45783982
-0.037612449 0.018599564 0.45827895
-0.036826029 0.018619902 0.45878008
-0.03604269 0.01864277 0.45934355
-0.035261627 0.018667921 0.45996323
-0.034481946 0.01869503 0.46063119
-0.03370145 0.018723028 0.46132103
-0.032919168 0.018751426 0.46202073
-0.032135651 0.018780576 0.46273896
-0.031351186 0.018810712 0.46348149
-0.030566284 0.01884223 0.46425807
-0.029781088 0.018875338 0.46507382
-0.028995773 0.018910287 0.46593493
-0.028209928 0.018946968 0.46683872
-0.027422529 0.018984828 0.46777156
-0.026632605 0.01902329 0.46871924
-0.025840502 0.019062666 0.46968943
-0.025047399 0.019103948 0.47070661
-0.024255184 0.01914883 0.47181246
-0.023468211 0.019201264 0.47310439
-0.022695551 0.019269807 0.47479323
-0.021939928 0.01935876 0.47698495
-0.021182496 0.019453313 0.47931468
-0.020426426 0.019557217 0.48187479
-0.019755552 0.019755552 0.4867616
-0.093281761 0.020203885 0.47662485
-0.091651425 0.020035429 0.47265086
-0.090451442 0.019958768 0.47084239
-0.089333393 0.019898906 0.46943021
-0.088242576 0.019844024 0.46813548
-0.087166004 0.019791314 0.46689203
-0.086104296 0.019740984 0.46570471
-0.085062936 0.019694375 0.46460515
-0.084042691 0.019651772 0.46360013
-0.083039977 0.019612458 0.46267265
-0.082049325 0.01957522 0.4617942
-0.081068069 0.019539483 0.46095112
-0.080093496 0.019504633 0.46012899
-0.079132162 0.019472312 0.4593665
-0.078189097 0.019443851 0.45869508
-0.077265702 0.01941972 0.45812586
-0.07635878 0.019399257 0.45764312
-0.075465485 0.019381845 0.45723236
-0.074581034 0.019366346 0.45686671
-0.073703684 0.019352363 0.45653686
-0.072831817 0.019339522 0.45623392
-0.071964145 0.019327514 0.45595062
-0.071100101 0.019316211 0.45568401
-0.07023938 0.019305561 0.45543274
-0.069381937 0.019295568 0.45519701
-0.068527825 0.019286273 0.45497772
-0.067676827 0.019277642 0.45477411
-0.066829085 0.019269735 0.45458758
-0.065984771 0.019262636 0.45442009
-0.065143041 0.019256119 0.45426637
-0.06430497 0.019250533 0.45413458
-0.063469253 0.019245517 0.45401624
-0.062636681 0.019241333 0.45391753
-0.061806615 0.01923782 0.45383468
-0.060978841 0.019234937 0.45376664
-0.060153797 0.019232847 0.45371735
-0.059330918 0.019231401 0.45368326
-0.058510181 0.019230619 0.45366478
-0.05769138 0.019230461 0.45366105
-0.056874525 0.019230954 0.45367271
-0.056059506 0.019232094 0.45369959
-0.055246156 0.019233847 0.45374095
-0.054434445 0.019236233 0.45379722
-0.0536246 0.01923936 0.45387101
-0.052816309 0.019243151 0.45396045
-0.05200902 0.019247433 0.45406145
-0.051203683 0.019252585 0.45418298
-0.050399181 0.019258223 0.45431602
-0.04959609 0.019264597 0.45446637
-0.048793934 0.019271554 0.45463049
-0.047992896 0.019279197 0.4548108
-0.047192592 0.019287407 0.45500448
-0.04639316 0.01929627 0.45521355
-0.045594346 0.019305713 0.45543635
-0.044795975 0.019315695 0.45567182
-0.043997906 0.019326184 0.45591924
-0.043200087 0.019337181 0.45617869
-0.042402562 0.019348741 0.45645139
-0.041605607 0.019361025 0.45674115
-0.040809289 0.019374106 0.45704979
-0.040014286 0.019388365 0.45738614
-0.03922094 0.019404044 0.45775601
-0.038429707 0.019421466 0.45816702
-0.037641402 0.019441163 0.45863169
-0.036856748 0.019463675 0.45916277
-0.03607453 0.01948854 0.45974934
-0.035294205 0.019515621 0.46038818
-0.034514047 0.019544099 0.46106002
-0.033732425 0.019573135 0.46174502
-0.03294925 0.019602718 0.4624429
-0.032165322 0.019633379 0.46316621
-0.031380292 0.019664982 0.46391177
-0.030595286 0.019698335 0.46469855
-0.029810248 0.019733544 0.46552917
-0.029024765 0.019770492 0.4664008
-0.028238505 0.019809101 0.46731162
-0.027450368 0.019848727 0.46824643
-0.026659586 0.019888898 0.46919408
-0.025867209 0.019930473 0.47017485
-0.025074504 0.019974606 0.47121599
-0.02428413 0.020023756 0.47237551
-0.023502542 0.02008399 0.47379646
-0.022738619 0.020164436 0.47569424
-0.02198657 0.020262133 0.477999
-0.021227742 0.020361302 0.48033848
-0.02048639 0.02048639 0.48328939
-0.093820088 0.02118518 0.47937542
-0.091912895 0.02094759 0.47399926
-0.090607427 0.020843962 0.47165439
-0.089467563 0.020776827 0.47013527
-0.08837086 0.020718526 0.46881604
-0.087291896 0.020663299 0.46756634
-0.086225688 0.020610042 0.46636128
-0.085177653 0.020560123 0.46523172
-0.084149681 0.020514101 0.46419033
-0.083141975 0.020472143 0.46324092
-0.082148388 0.020432848 0.46235174
-0.08116585 0.020395521 0.46150711
-0.080190934 0.020359358 0.4606888
-0.079224505 0.020324612 0.45990258
-0.078273311 0.020293079 0.45918909
-0.07734026 0.02026563 0.45856795
-0.076424569 0.020242183 0.45803741
-0.075525351 0.020222634 0.45759505
-0.074636504 0.020205462 0.45720649
-0.073756464 0.020190317 0.45686379
-0.072882831 0.020176603 0.45655346
-0.072014056 0.020163937 0.45626685
-0.071149401 0.020152142 0.45599997
-0.070288166 0.020141052 0.45574903
-0.069430187 0.020130645 0.45551354
-0.068575546 0.020120969 0.45529458
-0.067723982 0.020111971 0.45509097
-0.066875324 0.020103626 0.45490214
-0.066030391 0.020096207 0.45473427
-0.065188162 0.020089433 0.45458099
-0.064349063 0.020083465 0.45444596
-0.063512586 0.020078173 0.45432621
-0.062679239 0.020073744 0.45422596
-0.061848268 0.020069968 0.45414054
-0.061019652 0.020066865 0.45407033
-0.060193855 0.020064618 0.45401949
-0.059370253 0.02006305 0.45398402
-0.05854883 0.020062188 0.45396447
-0.057729371 0.020061981 0.45395979
-0.056911934 0.02006248 0.45397112
-0.056096405 0.020063678 0.45399821
-0.055282574 0.020065527 0.45404005
-0.054470275 0.020067997 0.45409593
-0.053659964 0.020071283 0.45417032
-0.052851152 0.020075245 0.45425993
-0.052043464 0.020079762 0.45436215
-0.051237408 0.020085065 0.45448214
-0.05043263 0.020091048 0.45461753
-0.049628783 0.020097606 0.45476595
-0.048826169 0.020104894 0.45493084
-0.048024561 0.02011285 0.45511088
-0.047223583 0.020121353 0.45530328
-0.046423562 0.020130571 0.45551187
-0.04562398 0.020140314 0.45573235
-0.044824883 0.020150635 0.45596588
-0.044026092 0.020161482 0.4562113
-0.043227747 0.020172948 0.45647076
-0.04243001 0.02018515 0.45674688
-0.041632917 0.020198148 0.457041
-0.040836882 0.020212194 0.45735881
-0.040042263 0.020227535 0.45770594
-0.039249919 0.020244695 0.45809424
-0.03846024 0.020263998 0.45853102
-0.037673794 0.02028589 0.45902637
-0.036890555 0.02031053 0.45958394
-0.036109343 0.020337446 0.46019301
-0.035329081 0.020366175 0.46084309
-0.034547746 0.020395657 0.46151018
-0.033765201 0.020425862 0.46219367
-0.032981224 0.020456707 0.46289164
-0.032196723 0.020488825 0.46361837
-0.031411614 0.020522255 0.46437484
-0.030626567 0.02055756 0.46517369
-0.02984165 0.020594941 0.46601957
-0.029055813 0.020633839 0.46689972
-0.028268902 0.020674272 0.46781462
-0.027479902 0.020715619 0.46875024
-0.026688196 0.020757485 0.46969759
-0.02589583 0.020801568 0.47069511
-0.025104208 0.020849258 0.47177419
-0.024316961 0.020904055 0.47301415
-0.023543248 0.020974893 0.47461706
-0.022788264 0.021068396 0.47673282
-0.02203523 0.021171104 0.47905689
-0.021279743 0.021279743 0.48151517
-0.020581903 0.02145773 0.48554263
-0.092365697 0.021910002 0.47633436
-0.090801023 0.021741088 0.47266212
-0.089616872 0.02166095 0.47091985
-0.088506803 0.021597354 0.46953723
-0.087425187 0.021539539 0.46828032
-0.086355522 0.021483568 0.46706349
-0.085301168 0.021430343 0.46590635
-0.084266141 0.021380961 0.46483275
-0.083251365 0.021335777 0.46385044
-0.08225365 0.021294093 0.46294418
-0.081268825 0.021254923 0.46209264
-0.08029332 0.021217406 0.46127698
-0.079324968 0.021181012 0.46048576
-0.078366905 0.021146625 0.45973817
-0.077424511 0.021115776 0.45906749
-0.076499693 0.021089105 0.45848766
-0.075592227 0.021066686 0.45800027
-0.074698001 0.021047503 0.45758319
-0.073813699 0.021030718 0.45721832
-0.072937541 0.021015901 0.45689619
-0.072066985 0.021002378 0.45660219
-0.071201093 0.020989917 0.45633125
-0.070339143 0.020978341 0.4560796
-0.069480881 0.020967605 0.45584616
-0.068625726 0.020957557 0.45562774
-0.067773603 0.020948203 0.4554244
-0.066924296 0.020939503 0.45523524
-0.066078611 0.020931736 0.45506635
-0.065235719 0.020924665 0.45491266
-0.064395763 0.020918367 0.45477575
-0.063558571 0.020912819 0.45465511
-0.062724337 0.020908112 0.45455277
-0.061892588 0.020904118 0.45446596
-0.06106317 0.020900816 0.45439416
-0.060236681 0.020898441 0.45434251
-0.05941236 0.020896761 0.45430601
-0.058590151 0.020895788 0.45428485
-0.057769947 0.020895513 0.45427886
-0.05695194 0.020896036 0.45429024
-0.056135684 0.020897226 0.45431611
-0.055321246 0.020899137 0.45435765
-0.054508515 0.020901762 0.45441473
-0.053697418 0.020905102 0.45448732
-0.052888069 0.020909237 0.45457724
-0.052079961 0.020914001 0.4546808
-0.051273178 0.020919457 0.45479941
-0.050467841 0.020925689 0.45493492
-0.049663413 0.020932514 0.45508328
-0.048860222 0.020940095 0.45524812
-0.048057832 0.020948287 0.45542619
-0.047256183 0.02095709 0.45561758
-0.04645548 0.020966632 0.45582503
-0.045655169 0.0209767 0.4560439
-0.044855118 0.020987257 0.45627344
-0.044055887 0.020998599 0.45652002
-0.043257114 0.021010598 0.45678088
-0.042459175 0.021023476 0.45706084
-0.041662343 0.02103742 0.45736399
-0.040866755 0.021052571 0.4576934
-0.040072989 0.021069303 0.45805717
-0.039282203 0.021088339 0.45847103
-0.038494527 0.021109901 0.45893979
-0.037709799 0.021134064 0.45946509
-0.036927544 0.021160727 0.46004477
-0.036146861 0.021189539 0.46067113
-0.035365831 0.021219499 0.46132249
-0.03458352 0.021250116 0.46198809
-0.033799835 0.021281376 0.46266773
-0.033015307 0.02131368 0.46337003
-0.032230388 0.0213474 0.46410313
-0.031445265 0.021382781 0.4648723
-0.030660206 0.021420145 0.46568462
-0.029875129 0.0214596 0.46654239
-0.029088801 0.021500418 0.46742982
-0.028301103 0.021542631 0.46834752
-0.02751104 0.021585586 0.46928138
-0.026718834 0.021629533 0.47023681
-0.025926819 0.021676522 0.47125837
-0.025137281 0.021728838 0.47239575
-0.024355449 0.021791717 0.47376281
-0.023592185 0.021876389 0.47560361
-0.022842851 0.021980856 0.47787476
-0.022087675 0.022087675 0.48019707
-0.021346122 0.022217393 0.48301721
-0.092960708 0.022915894 0.47940287
-0.09108267 0.022663763 0.47412825
-0.089788266 0.022553451 0.4718205
-0.088654429 0.022481745 0.4703204
-0.08756499 0.022420021 0.46902913
-0.086494125 0.022361895 0.46781313
-0.085435122 0.022305723 0.466638
-0.084392726 0.022252809 0.46553105
-0.083369404 0.022203911 0.46450809
-0.0823659 0.022159355 0.46357596
-0.081377923 0.022118101 0.46271294
-0.080400668 0.022078939 0.46189368
-0.079431757 0.022041274 0.4611057
-0.078470245 0.022004884 0.46034443
-0.077520221 0.021970972 0.45963499
-0.076586321 0.021940945 0.45900682
-0.075668484 0.021914916 0.4584623
-0.074766733 0.021893021 0.45800424
-0.073876761 0.021874124 0.45760891
-0.072996698 0.021857768 0.45726675
-0.07212358 0.021843143 0.45696077
-0.071255773 0.021829804 0.45668173
-0.070392832 0.021817662 0.45642772
-0.069533668 0.021806417 0.45619249
-0.068678096 0.021796042 0.45597544
-0.067825459 0.02178636 0.45577288
-0.066975676 0.021777367 0.45558473
-0.066129334 0.021769283 0.45541564
-0.065285705 0.021761904 0.45526123
-0.064444974 0.02175531 0.45512331
-0.06360697 0.02174948 0.45500135
-0.062771954 0.021744533 0.45489785
-0.0619394 0.021740319 0.4548097
-0.06110936 0.021736886 0.4547379
-0.060281958 0.021734312 0.45468402
-0.059456877 0.021732513 0.45464641
-0.058633957 0.021731466 0.4546245
-0.057813063 0.021731151 0.45461792
-0.056994338 0.021731654 0.45462844
-0.056177426 0.021732872 0.45465392
-0.055362303 0.02173483 0.45469487
-0.054548897 0.021737531 0.45475137
-0.053737119 0.021740971 0.45482334
-0.052927136 0.021745257 0.45491302
-0.052118409 0.021750202 0.45501646
-0.051310901 0.021755822 0.455134
-0.050504878 0.021762265 0.4552688
-0.049699686 0.021769285 0.45541567
-0.048895899 0.021777166 0.45558053
-0.048092686 0.021785576 0.45575649
-0.047290411 0.02179471 0.45594758
-0.046488732 0.021804448 0.45615131
-0.045687638 0.021814819 0.45636824
-0.044887125 0.02182585 0.45659903
-0.044087343 0.021837655 0.456846
-0.043288466 0.021850368 0.45711192
-0.042490624 0.021864107 0.45739937
-0.041694198 0.021879135 0.45771372
-0.040899418 0.021895647 0.45805919
-0.040107332 0.021914314 0.45844972
-0.039318584 0.021935631 0.45889565
-0.038532659 0.021959472 0.45939443
-0.037749439 0.021985937 0.45994806
-0.036967885 0.022014583 0.46054733
-0.036186799 0.022044832 0.46118012
-0.035404436 0.022075707 0.46182606
-0.034620997 0.022107383 0.46248871
-0.03383648 0.02213992 0.4631694
-0.033051405 0.022173729 0.46387666
-0.032266323 0.022209287 0.46462056
-0.031481296 0.022246782 0.46540496
-0.030696211 0.02228629 0.46623147
-0.029910818 0.022327794 0.46709973
-0.029123722 0.022370396 0.46799096
-0.028335005 0.022414258 0.46890858
-0.027543943 0.022458907 0.46984264
-0.026751829 0.022505507 0.47081751
-0.025960887 0.02255618 0.4718776
-0.025174951 0.022614786 0.47310364
-0.024402419 0.022689968 0.47467646
-0.023649428 0.02278945 0.47675762
-0.022899652 0.022899652 0.47906306
-0.022147937 0.023016483 0.48150718
-0.021450181 0.023201216 0.48537183
-0.091595866 0.023651514 0.47679967
-0.090003513 0.02346063 0.47295156
-0.088818096 0.023373185 0.47118869
-0.087713957 0.02330564 0.46982706
-0.086639665 0.023244789 0.46860033
-0.085577458 0.023186009 0.46741539
-0.084529176 0.023129873 0.46628371
-0.083498769 0.023077549 0.46522889
-0.08248698 0.023029359 0.46425742
-0.081493765 0.022985421 0.46337163
-0.080513217 0.02294418 0.46254027
-0.079543337 0.02290515 0.46175343
-0.078581221 0.022867549 0.46099544
-0.077626437 0.022831306 0.46026477
-0.076683529 0.022797806 0.45958945
-0.075756527 0.022768356 0.45899573
-0.074844964 0.022742946 0.45848349
-0.073947869 0.022721412 0.45804939
-0.073062003 0.022702882 0.45767584
-0.072184801 0.022686651 0.45734861
-0.071314491 0.022672236 0.45705804
-0.070449449 0.022659179 0.4567948
-0.069589265 0.022647396 0.45655724
-0.068732612 0.022636488 0.45633736
-0.067879453 0.022626486 0.45613572
-0.067029268 0.022617238 0.45594928
-0.066182263 0.022608846 0.45578015
-0.065337919 0.022601167 0.45562533
-0.064496562 0.022594338 0.45548764
-0.063657835 0.022588264 0.45536521
-0.062822111 0.022583112 0.45526135
-0.061988804 0.022578703 0.45517248
-0.061157871 0.022575052 0.45509887
-0.06032965 0.022572318 0.45504373
-0.059503887 0.022570441 0.45500588
-0.058680117 0.022569275 0.4549824
-0.05785853 0.02256893 0.45497546
-0.057039022 0.022569397 0.45498487
-0.056221269 0.022570582 0.45500875
-0.055405561 0.022572635 0.45505014
-0.054591365 0.022575377 0.45510539
-0.053778924 0.022578938 0.45517719
-0.052968126 0.02258331 0.45526531
-0.052158739 0.02258843 0.45536855
-0.051350549 0.022594241 0.4554857
-0.050543733 0.022600858 0.45561907
-0.049737863 0.02260812 0.45576549
-0.048933078 0.022616128 0.45592692
-0.048129059 0.022624772 0.45610118
-0.047325984 0.022634167 0.45629057
-0.046523511 0.022644186 0.45649257
-0.045721769 0.022654932 0.45670918
-0.044920817 0.022666467 0.45694172
-0.044120923 0.022678979 0.45719397
-0.043322276 0.022692621 0.45746899
-0.042524882 0.02270746 0.45776814
-0.041729212 0.022723828 0.45809808
-0.040936083 0.022742268 0.45846984
-0.04014615 0.02276328 0.45889342
-0.039359197 0.022786902 0.45936963
-0.03857493 0.022813132 0.45989838
-0.037792508 0.022841625 0.46047279
-0.037010845 0.022871871 0.46108255
-0.036228601 0.022903139 0.4617129
-0.03544493 0.022934955 0.46235427
-0.034660541 0.022967828 0.46301699
-0.033875387 0.023001805 0.46370193
-0.03309007 0.023037391 0.46441931
-0.032304931 0.023074951 0.46517649
-0.031519879 0.023114577 0.46597534
-0.030734474 0.02315611 0.46681264
-0.029948518 0.023199556 0.46768847
-0.029160488 0.023243869 0.46858177
-0.028370703 0.023289382 0.46949932
-0.027579024 0.023336098 0.47044107
-0.026787564 0.023385968 0.47144642
-0.02599912 0.023441829 0.47257254
-0.025219657 0.023509849 0.47394377
-0.024459103 0.023600889 0.47577909
-0.023712808 0.023712808 0.4780353
-0.022961199 0.023827659 0.48035064
-0.022224415 0.023967508 0.48316988
-0.092257328 0.024688581 0.48024291
-0.090341501 0.024405049 0.47472763
-0.089012563 0.024276152 0.47222033
-0.087875806 0.024197685 0.47069398
-0.086791977 0.024132403 0.4694241
-0.085727148 0.02407117 0.46823299
-0.084675826 0.024012549 0.46709269
-0.083637744 0.023956539 0.46600321
-0.082618237 0.023904769 0.46499616
-0.081617385 0.023857389 0.46407452
-0.080632158 0.023813643 0.46322358
-0.079659432 0.023772709 0.46242735
-0.078696541 0.023733877 0.46167198
-0.077740684 0.023696357 0.46094215
-0.07679271 0.023660457 0.46024379
-0.075856619 0.023627471 0.45960215
-0.074935332 0.023598421 0.45903707
-0.07402873 0.023573395 0.45855027
-0.073135622 0.02355215 0.45813701
-0.072252758 0.023533756 0.4577792
-0.071378455 0.023517756 0.45746797
-0.070510633 0.023503544 0.45719153
-0.069648162 0.0234908 0.45694363
-0.068790093 0.023479253 0.45671901
-0.067935735 0.023468707 0.45651388
-0.067084759 0.023459088 0.45632675
-0.066237144 0.023450417 0.4561581
-0.065392189 0.023442484 0.45600379
-0.064550258 0.023435444 0.45586684
-0.063710853 0.023429152 0.45574445
-0.062874377 0.023423787 0.45564011
-0.06204034 0.023419201 0.45555088
-0.061208785 0.023415441 0.45547774
-0.060379703 0.023412537 0.45542127
-0.059552949 0.023410469 0.45538104
-0.058728516 0.023409268 0.45535767
-0.057906169 0.023408877 0.45535007
-0.057085816 0.023409292 0.45535812
-0.056267429 0.023410536 0.45538235
-0.055450797 0.023412559 0.45542169
-0.05463586 0.02341537 0.45547634
-0.053822733 0.023419052 0.45554799
-0.053011123 0.023423519 0.45563489
-0.052200828 0.023428718 0.45573601
-0.051391855 0.023434686 0.45585209
-0.050584204 0.02344146 0.45598388
-0.049777389 0.023448853 0.45612767
-0.048971772 0.023457067 0.45628744
-0.048166983 0.023465967 0.45646057
-0.047363054 0.0234756 0.45664796
-0.046560127 0.023486083 0.45685187
-0.045758046 0.023497375 0.45707151
-0.044956986 0.023509618 0.45730966
-0.044157151 0.023522967 0.45756936
-0.043358847 0.02353766 0.45785517
-0.042562436 0.023553969 0.45817241
-0.041768361 0.023572244 0.45852786
-0.040977553 0.023593137 0.45893428
-0.040189587 0.02361656 0.45938993
-0.039404113 0.023642467 0.45989385
-0.038621087 0.02367099 0.46044868
-0.037838597 0.0237011 0.46103439
-0.037056021 0.023732508 0.46164533
-0.036272183 0.023764534 0.46226829
-0.03548741 0.023797439 0.46290839
-0.034702253 0.023831666 0.46357417
-0.033916637 0.023867263 0.4642666
-0.033131197 0.023904789 0.46499655
-0.03234607 0.023944495 0.4657689
-0.031561099 0.023986435 0.46658474
-0.030775243 0.024029985 0.46743187
-0.029988253 0.024075076 0.46830899
-0.029199151 0.024121037 0.46920303
-0.028408285 0.024168244 0.47012126
-0.027616663 0.024217689 0.4710831
-0.026826864 0.024271924 0.47213808
-0.026042808 0.024335083 0.47336665
-0.0252744 0.024417641 0.47497255
-0.024526296 0.024526296 0.47708613
-0.023778737 0.024643419 0.4793644
-0.023031184 0.024769388 0.48181474
-0.02235858 0.024989001 0.48608667
-0.090966828 0.025436223 0.47801363
-0.089272313 0.025201276 0.47359836
-0.08806131 0.0250996 0.47168761
-0.086954474 0.025025923 0.470303
-0.085884944 0.024961634 0.46909484
-0.084830627 0.024900531 0.46794659
-0.08378727 0.024841452 0.46683633
-0.082760543 0.024786152 0.4657971
-0.081750914 0.024734892 0.46483377
-0.080759078 0.024688009 0.46395272
-0.079782307 0.024644798 0.46314067
-0.078816772 0.024604177 0.46237731
-0.077859908 0.024565425 0.46164906
-0.076910414 0.024528185 0.46094921
-0.07596869 0.024492638 0.46028119
-0.075038292 0.024459997 0.45966777
-0.074122131 0.024431318 0.45912883
-0.073219195 0.024406398 0.45866051
-0.07232929 0.024385305 0.45826411
-0.071449339 0.024367116 0.45792231
-0.070577368 0.024351256 0.45762426
-0.069711655 0.024337206 0.45736021
-0.068851165 0.024324663 0.4571245
-0.067994833 0.024313305 0.45691103
-0.06714312 0.024303338 0.45672372
-0.066294163 0.024294136 0.45655081
-0.06544859 0.024285953 0.45639706
-0.064605862 0.024278635 0.45625952
-0.063766003 0.02427222 0.45613897
-0.062928684 0.024266617 0.45603368
-0.062093969 0.024261883 0.45594469
-0.061261635 0.024257962 0.45587102
-0.060431678 0.02425489 0.45581329
-0.059604164 0.024252729 0.45577267
-0.058778975 0.024251465 0.45574892
-0.057955794 0.024251007 0.4557403
-0.057134654 0.0242514 0.45574769
-0.056315403 0.02425262 0.45577061
-0.055497956 0.024254663 0.455809
-0.05468221 0.024257522 0.45586273
-0.05386829 0.02426129 0.45593357
-0.053055778 0.02426582 0.45601869
-0.052244563 0.024271097 0.45611784
-0.051434718 0.024277188 0.45623231
-0.050626121 0.024284074 0.45636174
-0.049818501 0.024291666 0.4565044
-0.049012098 0.024300115 0.45666319
-0.048206616 0.02430932 0.45683616
-0.047402173 0.024319377 0.45702514
-0.046598915 0.024330407 0.45723245
-0.045796894 0.024342492 0.45745957
-0.044996105 0.024355691 0.45770758
-0.044196799 0.024370197 0.45798022
-0.043399565 0.024386423 0.45828512
-0.042604808 0.024404697 0.45862854
-0.041813049 0.024425443 0.45901844
-0.041024134 0.024448726 0.45945597
-0.040237706 0.024474481 0.45993999
-0.039453685 0.024502816 0.46047246
-0.038670465 0.024532877 0.46103737
-0.0378871 0.024564164 0.46162534
-0.037102841 0.024596265 0.4622286
-0.036317825 0.024629328 0.46284997
-0.035532095 0.024663454 0.46349126
-0.034746401 0.024699248 0.46416396
-0.033960614 0.024736743 0.46486858
-0.03317523 0.024776438 0.46561456
-0.032390147 0.024818426 0.4664036
-0.031604715 0.024862375 0.46722952
-0.030818144 0.024907816 0.46808347
-0.030029971 0.024954483 0.46896046
-0.029239617 0.025001992 0.46985328
-0.028448369 0.025051549 0.4707846
-0.02765766 0.025104646 0.47178242
-0.026871448 0.025165325 0.47292274
-0.026096642 0.025241014 0.47434515
-0.025341839 0.025341839 0.47623992
-0.024598785 0.025461899 0.47849616
-0.023850502 0.025585083 0.48081112
-0.023127437 0.025745636 0.48382834
-0.089741096 0.026192376 0.47608528
-0.088288657 0.026017431 0.47290537
-0.087135769 0.025928205 0.47128356
-0.086050883 0.025857653 0.47000119
-0.084992506 0.025793746 0.46883956
-0.083946399 0.025732312 0.46772292
-0.082912937 0.02567355 0.46665481
-0.081895411 0.025618564 0.46565539
-0.080895394 0.025567975 0.46473584
-0.079912476 0.025521785 0.46389627
-0.078942992 0.025478955 0.46311778
-0.077983886 0.025438594 0.46238416
-0.077033468 0.025400225 0.46168673
-0.076089859 0.025363285 0.46101531
-0.075154051 0.025328159 0.46037686
-0.074228972 0.025295908 0.45979062
-0.073316932 0.025267417 0.45927274
-0.072417349 0.025242619 0.45882201
-0.071528986 0.025221203 0.45843273
-0.070651159 0.025203045 0.4581027
-0.069780864 0.025187178 0.45781428
-0.068917297 0.025173383 0.45756355
-0.068058975 0.025161197 0.45734206
-0.067204826 0.025150273 0.45714349
-0.066354193 0.025140408 0.45696419
-0.065507561 0.025131831 0.45680827
-0.064663611 0.025124079 0.45666736
-0.063823014 0.025117444 0.45654678
-0.062984511 0.025111472 0.45643824
-0.062149376 0.025106702 0.45635152
-0.061316311 0.025102653 0.45627791
-0.060485717 0.025099516 0.4562209
-0.059657179 0.025097158 0.45617804
-0.058831163 0.025095811 0.45615357
-0.058007296 0.025095355 0.45614529
-0.057185214 0.02509567 0.45615101
-0.056365035 0.025096841 0.45617229
-0.055546716 0.025098886 0.45620948
-0.054730285 0.025101859 0.45626351
-0.053915452 0.025105668 0.45633274
-0.053101886 0.025110194 0.456415
-0.052289814 0.025115579 0.4565129
-0.051479265 0.025121881 0.45662743
-0.05066957 0.025128812 0.4567534
-0.049861569 0.025136825 0.45689905
-0.049054366 0.025145514 0.457057
-0.048248611 0.025155259 0.45723411
-0.047443904 0.025165897 0.45742747
-0.046640668 0.025177706 0.45764214
-0.04583909 0.025190851 0.45788106
-0.045038972 0.025205296 0.45814362
-0.044241022 0.025221519 0.45843849
-0.043445569 0.025239807 0.4587709
-0.042652894 0.02526045 0.45914614
-0.041862976 0.025283579 0.45956653
-0.041075792 0.025309326 0.46003452
-0.040290732 0.025337471 0.46054608
-0.039506614 0.025367405 0.46109021
-0.038722426 0.025398582 0.46165687
-0.03793738 0.025430553 0.46223798
-0.037151773 0.025463574 0.4628382
-0.036365807 0.025497865 0.46346149
-0.03557929 0.025533373 0.46410689
-0.034793463 0.025571099 0.46479261
-0.034007497 0.025610585 0.46551034
-0.033222392 0.025652735 0.46627647
-0.032436863 0.025696736 0.46707627
-0.031650741 0.025742602 0.46790993
-0.030863114 0.025789725 0.46876648
-0.030073356 0.025837673 0.46963799
-0.02928238 0.025887322 0.47054043
-0.028491827 0.02594032 0.47150376
-0.027703717 0.025998874 0.47256806
-0.026924185 0.026069449 0.47385088
-0.02616307 0.02616307 0.47555256
-0.025421022 0.02628275 0.47772795
-0.024674879 0.02640645 0.47997639
-0.023936089 0.0265473 0.48253652
-0.090466127 0.027269695 0.47993165
-0.088644952 0.026978899 0.47481382
-0.08734981 0.026844086 0.4724412
-0.086231157 0.026761394 0.47098586
-0.085161194 0.026692314 0.46977007
-0.084113337 0.026628844 0.46865305
-0.083076388 0.026567575 0.46757475
-0.082052 0.026509108 0.46654576
-0.081043757 0.026454696 0.46558815
-0.080052219 0.026404658 0.46470749
-0.079076089 0.026358696 0.46389857
-0.078113303 0.026316246 0.46315148
-0.077160366 0.026276233 0.46244729
-0.076215938 0.026238274 0.46177921
-0.075278893 0.026202047 0.46114165
-0.074348375 0.026167303 0.46053019
-0.073428415 0.026135538 0.45997113
-0.072519384 0.02610698 0.45946851
-0.071622796 0.02608229 0.459034
-0.07073646 0.026060801 0.4586558
-0.06985978 0.026042404 0.458332
-0.068990976 0.026026536 0.45805275
-0.068128675 0.026012765 0.4578104
-0.067271218 0.026000531 0.45759508
-0.066418871 0.025989993 0.45740959
-0.065570042 0.025980582 0.45724401
-0.064724736 0.025972346 0.45709902
-0.063882574 0.025965175 0.45697284
-0.063043401 0.025959047 0.45686498
-0.062206645 0.025953766 0.45677203
-0.061372906 0.025949618 0.45669904
-0.06054147 0.025946343 0.45664141
-0.059712227 0.025943933 0.456599
-0.058885284 0.025942467 0.45657319
-0.0580604 0.025941882 0.45656288
-0.057237428 0.025942143 0.4565675
-0.056416474 0.025943343 0.4565886
-0.055597406 0.025945457 0.45662579
-0.05477998 0.025948411 0.45667779
-0.053964071 0.025952186 0.45674425
-0.053149778 0.025956867 0.45682663
-0.052337117 0.025962507 0.45692587
-0.051525716 0.02596896 0.45703945
-0.050715566 0.025976265 0.45716801
-0.04990701 0.025984641 0.45731542
-0.049099591 0.025993902 0.4574784
-0.04829368 0.026004288 0.45766121
-0.047489319 0.026015889 0.45786536
-0.046686441 0.026028724 0.45809126
-0.045885444 0.026043089 0.45834407
-0.045086835 0.026059363 0.45863047
-0.044290718 0.026077712 0.45895341
-0.043497462 0.026098477 0.45931888
-0.042706903 0.026121698 0.45972756
-0.041918948 0.026147462 0.460181
-0.04113273 0.026175372 0.4606722
-0.040347524 0.026205093 0.46119526
-0.039562162 0.02623596 0.4617385
-0.038776353 0.026267851 0.46229976
-0.037989743 0.02630059 0.46287596
-0.037203249 0.026334886 0.46347952
-0.036416341 0.026370453 0.46410549
-0.035629597 0.026407817 0.4647631
-0.034843501 0.026447477 0.46546108
-0.034057938 0.026489507 0.4662008
-0.033272266 0.026533581 0.46697646
-0.03248626 0.026579667 0.46778753
-0.031698827 0.026627013 0.46862084
-0.030909836 0.026675612 0.46947613
-0.030119127 0.026725423 0.47035277
-0.029328179 0.026777901 0.47127637
-0.028539551 0.026835699 0.47229356
-0.027756622 0.026902573 0.47347051
-0.02699027 0.02699027 0.47501394
-0.026244845 0.027105333 0.47703898
-0.02550344 0.027232487 0.47927684
-0.024760023 0.027366342 0.48163259
-0.024074981 0.027576797 0.48533648
-0.089325152 0.02804896 0.47845718
-0.087652527 0.027792264 0.47407848
-0.086438917 0.027677486 0.47212061
-0.085343733 0.02759872 0.47077703
-0.084286861 0.027530884 0.4696199
-0.083247073 0.027467309 0.46853542
-0.0822189 0.027406301 0.46749476
-0.08120352 0.027348338 0.466506
-0.080203459 0.027294369 0.46558544
-0.079218909 0.027244598 0.46473643
-0.078249507 0.027199026 0.46395907
-0.077293836 0.027157294 0.46324721
-0.076346964 0.027117774 0.46257308
-0.075408518 0.027080409 0.4619357
-0.074477352 0.027044849 0.46132913
-0.073552363 0.027010754 0.46074754
-0.072636083 0.026979117 0.46020788
-0.071730733 0.026950853 0.45972574
-0.070835508 0.02692578 0.45929804
-0.069950499 0.026904037 0.45892718
-0.069074668 0.026885349 0.45860839
-0.068206698 0.026869304 0.45833471
-0.067345567 0.026855594 0.45810083
-0.066489287 0.026843499 0.45789453
-0.065637618 0.026832987 0.45771521
-0.064790331 0.026824024 0.4575623
-0.06394612 0.026816113 0.45742738
-0.063105531 0.02680954 0.45731524
-0.062267534 0.026803905 0.45721912
-0.061432302 0.026799325 0.45714101
-0.060599785 0.026795823 0.45708126
-0.059769519 0.026793232 0.45703706
-0.058941647 0.026791658 0.45701021
-0.05811584 0.02679099 0.45699883
-0.057292022 0.026791234 0.45700297
-0.056470163 0.026792413 0.45702308
-0.055650212 0.026794547 0.4570595
-0.054831732 0.026797464 0.45710924
-0.054015271 0.026801471 0.45717761
-0.053200472 0.02680644 0.45726237
-0.052387066 0.026812278 0.45736194
-0.05157496 0.02681898 0.45747626
-0.050764926 0.026826993 0.45761296
-0.049955819 0.026835771 0.45776269
-0.049148861 0.026846016 0.45793745
-0.048343088 0.02685727 0.45812944
-0.047539324 0.026870053 0.45834747
-0.046737745 0.026884543 0.45859465
-0.045938525 0.026900938 0.45887432
-0.045141887 0.026919473 0.45919049
-0.044347841 0.026940279 0.45954537
-0.043556429 0.026963504 0.45994157
-0.042767115 0.026988955 0.4603757
-0.041979872 0.02701675 0.46084982
-0.041193295 0.027046103 0.46135053
-0.040406711 0.027076662 0.4618718
-0.039619636 0.027108172 0.46240929
-0.038832199 0.027140783 0.46296558
-0.038044538 0.027174668 0.46354359
-0.037257135 0.027210267 0.46415082
-0.036470018 0.027247714 0.4647896
-0.035683237 0.027287181 0.46546283
-0.034897219 0.027329149 0.46617869
-0.034111429 0.02737337 0.46693301
-0.033325091 0.027419379 0.46771783
-0.032538045 0.027467182 0.46853325
-0.031749152 0.027515931 0.46936482
-0.030958768 0.027566027 0.47021934
-0.030167755 0.027618367 0.47111216
-0.029378759 0.027675644 0.47208917
-0.028594242 0.027740683 0.47319862
-0.02782253 0.02782253 0.47459474
-0.027073175 0.02793264 0.476473
-0.026335632 0.02806256 0.47868916
-0.025591644 0.028194183 0.48093441
-0.024876311 0.028367724 0.48389465
-0.088249758 0.028842604 0.47730869
-0.086713329 0.028619671 0.47361943
-0.085550092 0.028516697 0.47191533
-0.084470913 0.028439956 0.47064537
-0.083424538 0.028372813 0.46953425
-0.082394093 0.028309764 0.46849087
-0.081374191 0.028249072 0.46748647
-0.080366656 0.028191445 0.46653283
-0.079374194 0.028137941 0.4656474
-0.078396603 0.028088624 0.46483126
-0.077434473 0.028043838 0.46409011
-0.076483868 0.02800229 0.46340254
-0.075542815 0.027963361 0.46275833
-0.074609734 0.027926549 0.46214914
-0.073683947 0.027891664 0.46157184
-0.072764672 0.027858475 0.46102259
-0.071852848 0.027827404 0.46050841
-0.070949733 0.027799018 0.46003866
-0.070056364 0.027773825 0.45962176
-0.069172181 0.027751714 0.45925584
-0.068297014 0.027732728 0.45894164
-0.067429386 0.027716374 0.458671
-0.06656871 0.027702507 0.45844153
-0.065713041 0.027690401 0.45824119
-0.064862274 0.027680077 0.45807034
-0.064015798 0.027671346 0.45792586
-0.063172609 0.027663821 0.45780131
-0.062332936 0.02765766 0.45769936
-0.061496224 0.027652664 0.45761669
-0.06066227 0.027648788 0.45755255
-0.059830438 0.027645789 0.4575029
-0.0590013 0.027643966 0.45747274
-0.058174435 0.027643172 0.4574596
-0.057349756 0.027643407 0.4574635
-0.056526922 0.027644552 0.45748246
-0.055706233 0.027646797 0.45751959
-0.054887366 0.027650027 0.45757303
-0.054070182 0.027654216 0.45764235
-0.053254772 0.027659455 0.45772907
-0.052440803 0.027665621 0.45783108
-0.051629022 0.027673157 0.45795581
-0.050818257 0.027681489 0.4580937
-0.050010111 0.027691549 0.45826018
-0.049203098 0.027702585 0.45844281
-0.048398588 0.02771543 0.45865539
-0.047596436 0.027730098 0.45889813
-0.046796497 0.027746595 0.45917112
-0.045999132 0.027765241 0.45947969
-0.045204353 0.027786162 0.4598259
-0.044411816 0.027809268 0.46020827
-0.043621533 0.027834691 0.46062902
-0.04283271 0.027862055 0.46108183
-0.042044576 0.027890956 0.46156013
-0.041256387 0.027920989 0.46205714
-0.040467892 0.027952051 0.46257114
-0.03967933 0.02798437 0.46310598
-0.038890649 0.028017994 0.46366245
-0.038102236 0.028053295 0.46424663
-0.037314452 0.028090656 0.46486488
-0.036527339 0.028130248 0.46552011
-0.035740547 0.028171958 0.46621037
-0.034954425 0.028216222 0.46694288
-0.034167934 0.028262366 0.46770647
-0.033380419 0.028309977 0.46849439
-0.032591809 0.028359106 0.46930739
-0.031801395 0.028409244 0.47013715
-0.031010827 0.028461991 0.47101003
-0.030220691 0.028518118 0.47193885
-0.029435314 0.028582117 0.47299796
-0.028660623 0.028660623 0.47429714
-0.027907016 0.028765693 0.47603592
-0.027171168 0.028896322 0.47819766
-0.026429761 0.02902941 0.48040009
-0.025701497 0.029186444 0.48299882
-0.089138173 0.030002605 0.48211378
-0.087230094 0.02964964 0.47644195
-0.085811876 0.029457808 0.47335941
-0.084678546 0.029360903 0.47180223
-0.083612524 0.029285604 0.47059226
-0.082576469 0.029219367 0.46952787
-0.081553452 0.029156415 0.46851629
-0.080541387 0.029096102 0.46754715
-0.079542376 0.02903928 0.46663406
-0.078556567 0.028986111 0.46577969
-0.077584669 0.028936984 0.46499026
-0.07662826 0.028892623 0.46427742
-0.075682208 0.02885123 0.46361226
-0.074746788 0.028813008 0.46299806
-0.073818997 0.028776895 0.46241778
-0.072899051 0.028743057 0.46187401
-0.071984954 0.028710762 0.46135509
-0.071077421 0.028680362 0.46086657
-0.070177607 0.028652398 0.46041721
-0.069286056 0.028627172 0.46001187
-0.068402909 0.028604852 0.4596532
-0.067528188 0.028585551 0.45934305
-0.06666065 0.028568851 0.45907471
-0.065799601 0.028554542 0.45884478
-0.0649442 0.028542355 0.45864892
-0.064093761 0.028532062 0.45848352
-0.063247591 0.028523425 0.45834473
-0.062405393 0.028516371 0.45823139
-0.06156629 0.028510563 0.45813808
-0.060730208 0.028506016 0.458065
-0.059897274 0.028502841 0.45801398
-0.059066724 0.028500726 0.45798001
-0.058238763 0.028499819 0.45796543
-0.057412785 0.028499871 0.45796627
-0.05658916 0.02850111 0.45798618
-0.055767503 0.02850339 0.4580228
-0.054947868 0.028506787 0.4580774
-0.054129858 0.028511146 0.45814744
-0.053314541 0.028517079 0.45824277
-0.052500706 0.028524006 0.45835409
-0.051688522 0.028532065 0.45848358
-0.050878953 0.028541852 0.45864084
-0.050070837 0.028552793 0.45881665
-0.049265482 0.028565699 0.45902404
-0.048462629 0.028580524 0.45926228
-0.047661774 0.028597064 0.45952806
-0.046863537 0.028615789 0.45982894
-0.046067648 0.028636646 0.4601641
-0.045274023 0.028659703 0.4605346
-0.04448209 0.028684713 0.46093649
-0.043691639 0.028711647 0.46136931
-0.042901568 0.028739886 0.46182308
-0.042111412 0.028769182 0.46229383
-0.0413213 0.028799694 0.46278414
-0.04053133 0.028831566 0.46329626
-0.039741658 0.028864995 0.46383345
-0.03895244 0.028900197 0.46439913
-0.038163513 0.028937168 0.46499321
-0.037375577 0.028976569 0.46562636
-0.036588483 0.029018452 0.46629938
-0.035801657 0.029062521 0.46700752
-0.035014439 0.029108388 0.46774456
-0.034227081 0.029156402 0.46851608
-0.033437964 0.029205309 0.469302
-0.03264777 0.029255792 0.47011322
-0.031856913 0.02930836 0.47095791
-0.031067176 0.029364865 0.47186589
-0.030280907 0.029427923 0.4728792
-0.029503914 0.029503914 0.47410029
-0.028746501 0.029604604 0.47571829
-0.028010905 0.029734654 0.47780806
-0.027272802 0.029870212 0.47998634
-0.026539769 0.030020393 0.48239964
-0.088054016 0.030797217 0.4809421
-0.086276159 0.030475657 0.4759205
-0.084936991 0.030304154 0.47324222
-0.083822727 0.030210221 0.47177532
-0.082766794 0.030135602 0.47061005
-0.081739493 0.030069968 0.46958509
-0.080725417 0.030007876 0.46861544
-0.079720534 0.029947925 0.4676792
-0.078727953 0.029891362 0.46679589
-0.077748045 0.029838439 0.46596944
-0.076783039 0.029790141 0.46521518
-0.075831026 0.029745871 0.46452385
-0.074890628 0.029705223 0.46388906
-0.073959671 0.029667437 0.46329901
-0.073036864 0.029632099 0.46274713
-0.072121464 0.029598981 0.46222997
-0.071212396 0.029567719 0.46174175
-0.070310108 0.029538568 0.46128651
-0.06941396 0.029511323 0.46086106
-0.068524875 0.029486462 0.46047282
-0.067643233 0.029464232 0.46012565
-0.066768728 0.029444594 0.45981899
-0.065901548 0.029427735 0.45955572
-0.065040074 0.029413026 0.459326
-0.06418471 0.02940074 0.45913413
-0.063334249 0.029390404 0.45897272
-0.062487919 0.029381737 0.45883739
-0.061645743 0.029374817 0.45872933
-0.060807392 0.029369555 0.45864716
-0.059972234 0.029365715 0.45858717
-0.059139811 0.029363124 0.4585467
-0.058310021 0.029361783 0.45852578
-0.057482954 0.029361797 0.45852599
-0.056658372 0.029363098 0.45854631
-0.055836141 0.029365674 0.45858654
-0.055015765 0.029369317 0.45864344
-0.054198004 0.029374491 0.45872423
-0.053381916 0.029380744 0.45882189
-0.052568804 0.02938886 0.45894861
-0.051757313 0.029398153 0.45909375
-0.050948303 0.029409183 0.45926601
-0.050141662 0.029421967 0.45946562
-0.049337592 0.029436715 0.45969594
-0.048535846 0.029453376 0.45995614
-0.047736321 0.02947199 0.4602468
-0.046938911 0.029492591 0.46056852
-0.046143867 0.029515445 0.46092543
-0.045349855 0.029539814 0.46130598
-0.04455708 0.029565914 0.46171355
-0.04376471 0.02959328 0.46214092
-0.042972431 0.029621772 0.46258587
-0.042180426 0.029651586 0.46305147
-0.041388832 0.029682899 0.46354046
-0.040597938 0.029716017 0.46405762
-0.03980751 0.029750874 0.46460199
-0.039017741 0.029787738 0.46517766
-0.038228843 0.0298269 0.46578923
-0.037440713 0.029868433 0.46643785
-0.036653481 0.029912611 0.46712774
-0.035866011 0.029958667 0.46784696
-0.035077572 0.030006116 0.46858793
-0.034288585 0.030055426 0.469358
-0.033497829 0.030105643 0.47014219
-0.032706715 0.03015814 0.47096202
-0.031916846 0.030214613 0.47184393
-0.031130189 0.030277306 0.47282296
-0.030352436 0.030352436 0.47399622
-0.029592948 0.030450715 0.47553098
-0.028856242 0.030579003 0.47753438
-0.028121008 0.030716794 0.47968617
-0.027387161 0.030864896 0.48199901
-0.026731791 0.031114051 0.48588991
-0.087092608 0.03163065 0.48042426
-0.085377939 0.031319547 0.47569904
-0.084081806 0.03115722 0.47323352
-0.082981944 0.031065036 0.47183338
-0.081935592 0.030991182 0.47071165
-0.080914617 0.030925481 0.46971375
-0.079908036 0.03086395 0.46877918
-0.078910559 0.030804656 0.46787861
-0.077924877 0.030748736 0.46702924
-0.076951809 0.030696623 0.46623772
-0.075991206 0.030648386 0.46550509
-0.075043648 0.030604394 0.4648369
-0.074107222 0.030563997 0.46422333
-0.073180743 0.030526826 0.46365875
-0.072262533 0.030492282 0.46313408
-0.071351975 0.030460201 0.46264681
-0.070447952 0.030430179 0.46219084
-0.069550164 0.030402169 0.46176538
-0.068657838 0.03037589 0.46136627
-0.067771845 0.030351808 0.4610005
-0.066892475 0.030330127 0.46067119
-0.066019379 0.030310785 0.4603774
-0.065152235 0.030293714 0.46011811
-0.064291544 0.030279245 0.45989835
-0.063436076 0.030266887 0.45971066
-0.062585384 0.030256512 0.45955306
-0.061739314 0.03024812 0.45942563
-0.060897626 0.030241678 0.45932776
-0.060059458 0.030236831 0.45925415
-0.059224676 0.030233575 0.4592047
-0.058392774 0.03023172 0.45917651
-0.057564337 0.030231629 0.45917514
-0.056738306 0.030232821 0.45919323
-0.055915494 0.030235784 0.45923826
-0.055094764 0.030239983 0.45930201
-0.054276675 0.030245781 0.45939007
-0.053460989 0.030253118 0.45950153
-0.052647974 0.030262221 0.45963979
-0.051837232 0.030272944 0.45980266
-0.051029116 0.030285573 0.45999447
-0.050222982 0.030299816 0.4602108
-0.049419656 0.030316262 0.46046057
-0.048618209 0.030334439 0.46073666
-0.047818922 0.030354619 0.46104318
-0.047021396 0.030376654 0.46137786
-0.046224963 0.0304002 0.46173549
-0.045429166 0.030425036 0.46211272
-0.044634208 0.030451374 0.46251276
-0.043839663 0.030479005 0.46293241
-0.043045752 0.030508153 0.46337515
-0.042252563 0.030538982 0.46384338
-0.041459922 0.030571457 0.46433663
-0.040667932 0.030605763 0.4648577
-0.039877247 0.030642517 0.46541592
-0.03908788 0.030681886 0.46601388
-0.03829902 0.030723391 0.46664429
-0.037510399 0.030766957 0.46730599
-0.036721975 0.03081269 0.46800062
-0.035933234 0.030860305 0.46872383
-0.035143323 0.030909188 0.4694663
-0.034352235 0.030959422 0.47022927
-0.03356088 0.031011952 0.47102714
-0.032770585 0.031068215 0.47188169
-0.031984102 0.031131191 0.47283819
-0.031205326 0.031205326 0.47396421
-0.030445021 0.031302627 0.47544205
-0.029708661 0.031430904 0.47739038
-0.028975707 0.031570546 0.47951138
-0.028241573 0.031717461 0.48174277
-0.027566412 0.031942032 0.48515373
-0.086197123 0.032486353 0.48026326
-0.084528282 0.032180816 0.47574636
-0.083247498 0.032018267 0.47334331
-0.082154758 0.031925421 0.47197074
-0.081115529 0.031851646 0.47088006
-0.080101587 0.031786345 0.46991464
-0.079102531 0.031725615 0.46901685
-0.078112252 0.031667132 0.46815225
-0.077132314 0.031611603 0.46733138
-0.076163977 0.031559657 0.46656343
-0.075208798 0.031512067 0.46585986
-0.074264608 0.031468052 0.46520919
-0.073332086 0.031428035 0.46461761
-0.072409615 0.031391453 0.46407676
-0.071495488 0.031357672 0.46357736
-0.070588872 0.031326421 0.46311536
-0.069689438 0.03129765 0.46269006
-0.068796091 0.031270947 0.46229529
-0.067908436 0.031246211 0.46192959
-0.067026168 0.031223372 0.46159193
-0.066149436 0.031202564 0.46128431
-0.065278649 0.031184068 0.46101087
-0.064413287 0.031167718 0.46076918
-0.063552983 0.031153424 0.46055785
-0.062698558 0.031141669 0.46038407
-0.061848462 0.031131776 0.46023783
-0.061003067 0.031124013 0.46012306
-0.060161956 0.031118253 0.46003792
-0.059324451 0.031114222 0.45997831
-0.058490198 0.031111807 0.45994261
-0.057659902 0.031111458 0.45993745
-0.056832604 0.03111274 0.45995641
-0.056008361 0.031115755 0.46000099
-0.055187106 0.031120548 0.46007183
-0.054368187 0.031126825 0.46016464
-0.053552188 0.031134995 0.4602854
-0.052739196 0.031145195 0.4604362
-0.051928099 0.03115686 0.46060866
-0.051119786 0.031170601 0.46081179
-0.050313577 0.031186102 0.46104094
-0.049509808 0.031203661 0.46130055
-0.048707545 0.031222785 0.46158326
-0.047906585 0.031243425 0.4618884
-0.047106832 0.031265598 0.46221617
-0.046308216 0.031289335 0.46256709
-0.045510374 0.031314477 0.46293882
-0.044713452 0.031341206 0.46333393
-0.043917514 0.031369653 0.4637545
-0.043122455 0.031399846 0.46420085
-0.042328406 0.031431988 0.46467599
-0.041535225 0.031466078 0.46518001
-0.040743362 0.031502601 0.46571991
-0.039952356 0.031541333 0.46629253
-0.039162267 0.031582471 0.46690071
-0.038372878 0.031625997 0.46754417
-0.037583403 0.031671409 0.4682155
-0.036793355 0.031718411 0.46891034
-0.036002927 0.03176729 0.46963295
-0.035211306 0.031817444 0.47037444
-0.034419276 0.031869698 0.47114694
-0.033629116 0.031926375 0.4719848
-0.032842509 0.031989459 0.47291741
-0.032064348 0.032064348 0.47402456
-0.031303745 0.032161381 0.47545904
-0.030568464 0.03229063 0.47736979
-0.02983764 0.032432217 0.47946295
-0.029104233 0.032579366 0.48163831
-0.028422713 0.032795437 0.48483264
-0.085355207 0.033362187 0.48040053
-0.083717123 0.033057529 0.4760136
-0.082432419 0.032887548 0.47356591
-0.081342906 0.032792691 0.47220001
-0.080307558 0.032717895 0.47112298
-0.079299234 0.032652624 0.47018313
-0.07830704 0.032592662 0.46931967
-0.077323899 0.032535195 0.46849218
-0.076350816 0.032480735 0.46770799
-0.075388305 0.032429606 0.46697178
-0.074436694 0.032382064 0.4662872
-0.073496185 0.032338321 0.46565729
-0.072566926 0.032298576 0.46508497
-0.07164754 0.032262344 0.46456325
-0.070736706 0.032229152 0.46408531
-0.069833599 0.032198727 0.46364719
-0.068937421 0.032170799 0.46324503
-0.068047598 0.032145184 0.4628762
-0.067163825 0.03212183 0.46253994
-0.066285774 0.032100659 0.46223506
-0.065412946 0.032081507 0.4619593
-0.064545073 0.032064326 0.46171191
-0.063682184 0.032049205 0.46149415
-0.062824242 0.032036204 0.46130696
-0.061971068 0.032025319 0.4611502
-0.061121944 0.032016259 0.46101972
-0.06027817 0.032009788 0.46092656
-0.05943796 0.032005057 0.46085843
-0.058601551 0.032002266 0.46081826
-0.057769012 0.03200154 0.4608078
-0.056940045 0.032002799 0.46082595
-0.056113917 0.032005716 0.46086794
-0.055291142 0.03201066 0.46093914
-0.054471307 0.032017488 0.46103743
-0.053654119 0.032026101 0.46116149
-0.05283954 0.032036569 0.46131223
-0.052027512 0.032048948 0.46149045
-0.051217958 0.032063276 0.46169677
-0.050410084 0.032079145 0.46192527
-0.049604088 0.032096762 0.46217898
-0.048799369 0.032115825 0.46245345
-0.047996346 0.032136682 0.4627538
-0.047194425 0.032159034 0.46307564
-0.046393961 0.0321832 0.46342361
-0.045594487 0.032208949 0.46379441
-0.04479618 0.032236502 0.46419117
-0.043999128 0.032266028 0.4646163
-0.043203413 0.032297697 0.46507233
-0.042408843 0.032331493 0.46555898
-0.041615628 0.03236771 0.46608049
-0.040823635 0.03240639 0.46663746
-0.040032212 0.032447159 0.46722454
-0.03924147 0.03249025 0.46784499
-0.038450737 0.03253524 0.46849284
-0.037659638 0.032581933 0.46916521
-0.03686763 0.03262997 0.46985692
-0.036074962 0.03267967 0.47057259
-0.035283107 0.032732524 0.47133362
-0.034492377 0.032789052 0.47214761
-0.033706389 0.032853063 0.47306934
-0.032929331 0.032929331 0.47416759
-0.032170977 0.033028871 0.4756009
-0.031436957 0.033159532 0.47748235
-0.03070721 0.033302188 0.47953653
-0.029975392 0.033450801 0.48167649
-0.029295536 0.033668004 0.48480412
-0.084572561 0.034262732 0.48087761
-0.082951762 0.033954348 0.47654945
-0.081639342 0.033767059 0.47392085
-0.080544062 0.033666566 0.47251043
-0.07951206 0.033590656 0.47144502
-0.078509085 0.0335255 0.4705306
-0.077521384 0.033465516 0.46968868
-0.076545343 0.033409294 0.46889961
-0.075577945 0.033355631 0.46814644
-0.074620754 0.03330531 0.46744019
-0.073673718 0.033258423 0.46678212
-0.072737142 0.033215225 0.46617588
-0.071810059 0.033175409 0.46561703
-0.070893228 0.033139437 0.46511218
-0.069985524 0.033106923 0.46465585
-0.069085136 0.033077125 0.46423763
-0.068192258 0.033050235 0.46386021
-0.067305706 0.033025783 0.46351704
-0.066425093 0.033003662 0.46320656
