# .PCD v0.7 - Point Cloud Data file format
VERSION 0.7
FIELDS x y z
SIZE 4 4 4
TYPE F F F
COUNT 1 1 1
WIDTH 80
HEIGHT 1
VIEWPOINT 0 0 0 1 0 0 0
POINTS 80
DATA ascii
0.10172561 0.052404102 0.48826769
0.099990785 0.052418079 0.48839793
0.10728372 0.04994991 0.48158899
0.11592024 0.0476804 0.48501265
0.11722285 0.044553336 0.47960386
0.10770562 0.048878454 0.47959948
0.090311632 0.049300551 0.48374113
0.10893028 0.040266056 0.46995381
0.099949308 0.049758315 0.47974172
0.09946274 0.041054834 0.46928021
0.088507727 0.049758073 0.48823038
0.12269371 0.040319841 0.48070157
0.12128617 0.040140975 0.47856909
0.090376243 0.039460048 0.47045094
0.089502297 0.047129229 0.47940606
0.07999748 0.040214948 0.47945103
0.076321334 0.040145904 0.48914713
0.12557536 0.038941488 0.48513457
0.11978947 0.039071117 0.47605169
0.10967406 0.039381031 0.46950889
0.091921747 0.039395034 0.46967581
0.12759194 0.030708568 0.47955772
0.11904283 0.030078437 0.46971735
0.07833498 0.038518302 0.47986251
0.087733895 0.036873665 0.46993387
0.072026826 0.032257412 0.48994389
0.12078286 0.025004171 0.46989423
0.1199393 0.028395524 0.46991009
0.10954772 0.029800337 0.46537441
0.099250183 0.029733177 0.46432561
0.070243746 0.023414582 0.48983544
0.0826075 0.029230345 0.4697043
0.12837256 0.027230546 0.47924265
0.13044873 0.024868153 0.48373592
0.12079902 0.018225817 0.46995711
0.13064365 0.017914345 0.48445871
0.11942559 0.010625052 0.47122762
0.070679225 0.02566061 0.49915081
0.080412291 0.029356869 0.47173741
0.12932707 0.029174794 0.482806
0.11988837 0.01567445 0.4697105
0.073996343 0.029858172 0.47979289
0.10969739 0.010507413 0.46601024
0.080576375 0.039210964 0.47775561
0.073257908 0.034606498 0.49831802
0.099387489 0.010483912 0.46496797
0.12765154 0.012548796 0.47978175
0.070256822 0.019884007 0.48992664
0.084333777 0.010594696 0.4698813
0.10954325 0.00042623832 0.47259831
0.1248628 0.0073448704 0.47904342
0.0772539 0.0022072543 0.48946545
0.089400031 0.0055080587 0.46978039
0.079187393 0.0038944618 0.47978273
0.074012488 0.013417468 0.47989759
0.1097363 0.0038132304 0.46977535
0.090128154 0.00042714766 0.47360656
0.12627277 0.0056800898 0.48445287
0.077939406 0.0013515503 0.49951744
0.082630113 0.0004326184 0.47967231
0.11729029 -0.0012984165 0.47987977
0.099518247 0.0021174094 0.46954209
0.080593675 0.00043564147 0.48302421
0.093954794 -0.0084603839 0.49371481
0.10775419 -0.0056257206 0.47981572
0.11873853 0.00043177648 0.47873884
0.089531451 -0.0038926715 0.47956219
0.079485871 -0.00044907269 0.49791628
0.10578329 -0.0083397618 0.48667574
0.080613181 0.010663119 0.47291592
0.072451063 0.010350152 0.49895176
0.12016512 -0.0013108922 0.48449063
0.11970252 -0.0021923538 0.48616123
0.080517024 -0.0013494473 0.49874017
0.09999644 -0.0064932755 0.47996795
0.081702165 -0.0022081668 0.48966777
0.094914965 -0.0083878348 0.48948109
0.12978825 0.013546921 0.48452768
0.11570255 0.0080525577 0.46991569
0.079782717 -0.00044078851 0.48873106
