# .PCD v0.7 - Point Cloud Data file format
VERSION 0.7
FIELDS x y z
SIZE 4 4 4
TYPE F F F
COUNT 1 1 1
WIDTH 69
HEIGHT 1
VIEWPOINT 0 0 0 1 0 0 0
POINTS 69
DATA ascii
-0.24937525 -0.033948563 0.46470362
-0.23167935 -0.036535703 0.47658265
-0.25353694 -0.034668148 0.46311861
-0.23762493 -0.03430948 0.46964404
-0.24754508 -0.034415815 0.45974779
-0.22915398 -0.03740412 0.4766942
-0.22332844 -0.040018391 0.47710761
-0.25930154 -0.036806758 0.45853999
-0.22112362 -0.040165856 0.46878436
-0.22249612 -0.040190175 0.45939666
-0.23976998 -0.040428661 0.4438208
-0.21916755 -0.042673454 0.45936748
-0.21954341 -0.046668194 0.44994852
-0.21976952 -0.042577658 0.47685489
-0.22915664 -0.040153112 0.44970083
-0.2198438 -0.041088343 0.46966323
-0.22950608 -0.047962409 0.43949637
-0.23990306 -0.044015273 0.43966317
-0.25007361 -0.050484344 0.43391702
-0.21227573 -0.051447682 0.47935641
-0.22016513 -0.050128672 0.44464752
-0.26180294 -0.037636757 0.45857513
-0.20862351 -0.058553379 0.48090342
-0.21019775 -0.052653085 0.4596844
-0.24922945 -0.050471894 0.43381003
-0.2095041 -0.053516887 0.45998198
-0.23989572 -0.050483763 0.43391204
-0.22997315 -0.063989155 0.42999372
-0.20686755 -0.067504145 0.48287913
-0.2102026 -0.060347185 0.44906625
-0.2061508 -0.064395115 0.47918844
-0.24772131 -0.056212191 0.42983541
-0.2331419 -0.060128111 0.43011594
-0.21450722 -0.069387734 0.43962696
-0.20383482 -0.068227455 0.46986485
-0.20977893 -0.052126888 0.46989018
-0.21935895 -0.055930581 0.43981487
-0.20817703 -0.065334313 0.44994053
-0.21043055 -0.051231582 0.46945295
-0.22563031 -0.05036037 0.439668
-0.24939334 -0.044010591 0.43961641
-0.20451063 -0.076743342 0.45994791
-0.20806374 -0.079899721 0.44969568
-0.25342834 -0.044815965 0.43973798
-0.23955992 -0.037697244 0.44943443
-0.22969209 -0.079404518 0.42946821
-0.20643228 -0.077792376 0.48186311
-0.2117715 -0.053486437 0.48214564
-0.23990257 -0.056972016 0.42971838
-0.20559506 -0.071417227 0.47990882
-0.22825371 -0.036842436 0.46953583
-0.2102273 -0.079186954 0.44568405
-0.22027618 -0.060290258 0.43691343
-0.2493024 -0.040416602 0.44368842
-0.20388606 -0.076722197 0.46998298
-0.22766972 -0.037737604 0.45980385
-0.21465617 -0.07975211 0.43993226
-0.25818324 -0.040000223 0.44798851
-0.23596275 -0.035249267 0.459802
-0.22007172 -0.079633795 0.43495172
-0.23997273 -0.060669433 0.42845967
-0.24678962 -0.060635321 0.42821878
-0.2499994 -0.037682243 0.44925559
-0.23985164 -0.079693884 0.42686871
-0.20979403 -0.054935757 0.47961313
-0.21602926 -0.050663523 0.44939169
-0.20451424 -0.067618296 0.45995602
-0.25813541 -0.039307907 0.44931182
-0.24583173 -0.079635628 0.42655668
