# .PCD v0.7 - Point Cloud Data file format
VERSION 0.7
FIELDS x y z
SIZE 4 4 4
TYPE F F F
COUNT 1 1 1
WIDTH 1456
HEIGHT 1
VIEWPOINT 0 0 0 1 0 0 0
POINTS 1456
DATA ascii
0.018759999 -0.187868 0.01897
0.029518999 -0.188591 0.019439001
0.0091169998 -0.187262 0.019470001
0.029579001 -0.188301 -0.009017
0.01894 -0.187069 -0.0090760002
-0.019173 -0.188214 -0.018963
-0.0080329999 -0.18747 -0.019838
0.029518999 -0.188591 -0.019439001
0.0097329998 -0.18610699 -0.0094720004
0.018759999 -0.187868 -0.01897
0.01894 -0.187069 0.0090760002
0.029934 -0.188301 0.0078469999
-0.005814 -0.18610699 -0.0094720004
-0.017878 -0.18747 -0.009993
-0.028486 -0.188554 -0.0092359995
-0.019043 -0.16426399 0.039294001
-0.019791 -0.17816 0.038396001
0.039005999 -0.16426399 0.024753001
0.038651999 -0.17816 0.024517
0.045432001 -0.16426399 -0.0097620003
0.021992 -0.16426399 -0.039797001
0.021801 -0.17816 -0.039416999
0.046514001 -0.16426399 -0
-0.038316999 -0.16426399 -0.01905
-0.037457 -0.17816 -0.019841
-0.03999 -0.16426399 0.01501
-0.039942 -0.17816 0.013843
0.035673998 -0.188474 -0.018021001
-0.036084998 -0.188474 0.0037469999
0.038541999 -0.188474 0.011097
-0.029691 -0.188648 -0.01791
-0.027590999 -0.188474 -0.024251999
0.038902 -0.18845201 -0.0092700003
0.039856002 -0.188467 0.0046620001
-0.034982 -0.18845201 -0.0092700003
-0.029691 -0.188648 0.01791
0.013057 -0.188474 -0.036582001
0.0057069999 -0.188474 0.038043998
0.0057069999 -0.188474 -0.038043998
-0.009137 -0.188474 0.036582001
-0.009137 -0.188474 -0.036582001
-0.016061001 -0.188474 0.033714
0.026211999 -0.188474 0.029550999
0.025601 -0.189099 -0.039446
0.013057 -0.188474 0.036582001
-0.019198 -0.067437999 0.039581999
-0.019184001 -0.109572 0.039556999
-0.038609002 -0.081431001 -0.019188
-0.038601998 -0.095595002 -0.019184001
-0.038406 -0.15652999 -0.019091999
-0.038474999 -0.14684001 -0.019123999
-0.038527001 -0.135548 -0.019149
-0.038587 -0.109571 -0.019176999
-0.038562998 -0.123007 -0.019166
0.045754001 -0.067450002 -0.0098339999
0.045749001 -0.081441 -0.0098329997
0.045740001 -0.095600002 -0.0098310001
0.045602001 -0.14684001 -0.0098000001
0.045658 -0.135548 -0.0098130004
0.045697998 -0.123008 -0.0098219998
0.045724001 -0.109574 -0.0098280003
0.024365 -0.081523001 0.044511002
0.035943002 -0.081440002 -0.029314
0.024336999 -0.123335 0.044456001
0.035902999 -0.123008 -0.029279999
0.023115 -0.081437998 -0.039579999
0.023091 -0.123008 -0.039533999
0.046844002 -0.067450002 -0
0.046840001 -0.081441 -0
0.046831001 -0.095600002 -0
0.046813998 -0.109574 -0
-0.039914001 -0.067433998 0.016152
-0.039910998 -0.081431001 0.016151
-0.039903 -0.095595002 0.016147999
-0.039825998 -0.135548 0.016117999
-0.039887998 -0.109571 0.016143
-0.039863002 -0.123007 0.016132999
0.039942998 0.039152 0.013817
-0.035222001 0.039328001 -0.018397
0.025319001 0.039762001 -0.039802
0.014181 0.039209001 0.038911998
-0.027613999 0.039308999 -0.02894
-0.02974 0.039643001 0.034426998
-0.017081 0.039283 -0.036568999
-0.039779 0.007619 0.016084
-0.039914999 -0.053957 0.016153
-0.039917 -0.041354999 0.016153
-0.039914999 -0.029653 0.016152
-0.039905 -0.018878 0.016147001
-0.039882001 -0.0090570003 0.016135
-0.037475999 0.028523 -0.019757999
-0.038396999 0.014419 -0.019057
0.045756001 -0.053980999 -0.0098350001
0.045759998 -0.041388001 -0.0098360004
0.045758002 -0.029697999 -0.0098360004
0.045743998 -0.018936999 -0.0098329997
-0.019200001 -0.029664 0.039583001
0.023119001 -0.041379999 -0.039588999
0.024364 -0.041182999 0.044507001
0.035951 -0.041384999 -0.029322
0.046505 0.014301 -0
0.046847001 -0.053980999 -0
0.046851002 -0.041389 -0
0.046849001 -0.029699 -0
0.046833999 -0.018936999 -0
0.046799999 -0.0091310004 -0
0.027669 0.088471003 -0
0.029296 0.069367997 -0
0.028568 0.079049997 -0
0.025870999 0.088471003 -0.009656
0.027632 0.069367997 -0.0095870001
0.02671 0.079049997 -0.0099799996
-0.019903 0.088471003 0.017022001
-0.0080899997 0.069367997 -0.027022
0.018856 0.088471003 -0.019881001
-0.0094050001 0.069367997 0.026551999
-0.0097749997 0.079049997 0.02562
-0.0078609996 0.079049997 -0.026331
0.00083700003 0.088471003 0.026830999
0.00083700003 0.069367997 0.028458999
0.00083700003 0.079049997 0.027731
-0.018135 0.088471003 -0.018973
-0.019773999 0.069367997 -0.019623
-0.018771 0.079049997 -0.019609001
0.00083700003 0.088471003 -0.026830999
0.00083700003 0.069367997 -0.028458999
0.00083700003 0.079049997 -0.027731
-0.026185 0.069367997 -0.0089269998
-0.025494 0.079049997 -0.0086989999
0.01981 0.088471003 0.018973
0.026357999 0.099963002 -0
0.024414999 0.099963002 -0.0097660003
-0.017208001 0.099963002 -0.018045999
-0.016458999 0.108471 -0.017297
0.017337 0.117231 0.016499
0.018882999 0.099963002 0.018045999
0.018134 0.108471 0.017297
0.019911001 0.13789 0.0079009999
0.019939 0.14798599 0.0033150001
-0.019879 0.12587599 0.0079910001
0.019107999 0.159832 -0
-0.0096300002 0.12587599 0.019582
-0.038612001 -0.067433998 -0.019189
-0.0097759999 0.13789 0.017708
-0.038615 -0.041354999 -0.01919
-0.0096829999 0.159832 0.014938
-0.038614001 -0.053957999 -0.019189
-0.0099339997 0.14798599 0.01612
-0.0091460003 0.12587599 -0.019833
-0.0084450003 0.13789 -0.018440999
-0.0078790002 0.14798599 -0.017317001
-0.0073770001 0.159832 -0.016319999
0.00083700003 0.159832 0.018270001
0.0063439999 0.13789 0.019897001
0.00083700003 0.14798599 0.019388
-0.015482 0.159832 -0.0082149999
-0.018996 0.12587599 -0.0099830003
-0.017603001 0.13789 -0.0092820004
-0.016480001 0.14798599 -0.0087169996
0.020314001 0.042725999 -0.040302001
0.016706999 0.04981 0.029645
-0.027066 0.049851 -0.018661
0.00083799998 0.059374001 -0.029463001
0.00083799998 0.059374001 0.029463001
-0.020236 0.040665999 0.040463999
-0.017802 0.049842 -0.027931999
-0.0097660003 0.059374999 0.027488001
-0.0084039997 0.059374999 -0.027975
0.028580001 0.059370998 -0.0099259997
0.029983999 0.059370998 0.0043230001
0.0297 0.049798001 0.017285001
-0.027136 0.059377 -0.0092409998
-0.0091110002 0.16941001 -0.019763
-0.0095929997 0.16941001 0.019513
0.019244 0.168916 -0.0098390002
0.019918 0.168916 0.0084579997
0.0090589998 0.169203 0.019848
0.0090579996 0.169203 -0.019848
0.00083700003 0.18997601 0.018042
0.00036500001 0.179205 0.019224999
-0.0072750002 0.18997601 -0.016116001
-0.0078090001 0.179205 -0.017177001
-0.038603999 -0.018879 -0.019182
-0.0099099996 0.18997601 0.014491
-0.038614001 -0.029654 -0.019189
-0.0098470002 0.179205 0.01599
0.018879 0.18997601 -0
0.019974999 0.179205 0.001885
-0.015278 0.18997601 -0.0081120003
-0.016340001 0.179205 -0.0086460002
0.019977 0.19196101 0.009052
-0.010504 0.190911 -0.020020001
-0.01998 0.169542 0.0092280004
-0.019747 0.169542 -0.0097359996
-0.038483001 0.0076179998 -0.019107999
0.004985 -0.192231 -0.040842999
-0.0071149999 -0.192765 0.029914999
0.0078849997 -0.191746 -0.019533001
-0.0030420001 -0.192231 0.040649001
0.0062389998 -0.19265801 -0.029867999
-0.019772001 -0.19190601 0.0034169999
-0.029151 -0.192765 0.003064
-0.019545 -0.192534 -0.018186999
0.028662 -0.192798 0.019892
0.019692 -0.192297 0.01891
0.013344 -0.191651 -0.041110002
0.0062389998 -0.19265801 0.029867999
0.020236 -0.190052 -0.041226
0.017921999 -0.192864 0.029864
-0.0072730002 -0.19190601 -0.019967999
-0.01238 -0.191642 0.040107999
-0.0071149999 -0.192765 -0.029914999
-0.019624 -0.192793 -0.029039999
0.046642002 0.0075150002 -0
0.0059790001 -0.192238 0.040808
0.017921999 -0.192864 -0.029864
0.029914999 -0.192618 0.0084800003
-0.0080779996 -0.190891 -0.0082379999
-0.018007999 -0.19190601 -0.0092329998
-0.029720999 -0.19282199 -0.017917
-0.027954999 -0.192765 -0.009075
-0.033002999 -0.16496401 -0.034963001
-0.032625001 -0.179254 -0.034584001
-0.029843999 0.049853999 0.013611
0.050204001 -0.16496401 -0.010834
0.050062001 -0.171102 -0.010802
-0.038105998 0.039335001 0.010912
0.046673 -0.179254 -0.019819999
0.049922999 -0.16496401 0.012014
0.049403001 -0.179254 0.011884
0.040940002 -0.16496401 0.03042
0.040516999 -0.179254 0.030091001
-0.040451001 -0.16496401 -0.025420001
0.013974 -0.16496401 0.047963001
-0.040596001 -0.179254 -0.024107
0.013844 -0.179254 0.047444001
-0.0076870001 -0.16496401 -0.048494998
-0.007582 -0.179254 -0.047970001
-0.038361002 0.039336 -0.0099409996
0.036543999 -0.179254 0.034584001
0.040516999 -0.179254 -0.030091001
0.046124998 -0.16496401 0.022231
-0.016961999 -0.16496401 -0.045681
0.045646999 -0.179254 0.021989999
-0.016757 -0.179254 -0.045187
-0.039813999 -0.16496401 0.026453
-0.023460001 -0.16496401 -0.042410001
-0.039990999 -0.179254 0.025145
-0.023185 -0.179254 -0.041951001
0.020881999 -0.16496401 -0.045681
0.020677 -0.179254 -0.045187
-0.044172 -0.16496401 -0.017795
-0.043671999 -0.179254 -0.017602
0.041673999 -0.16496401 -0.029454
0.030431001 -0.16496401 0.040426001
0.041244 -0.179254 -0.029135
0.030245 -0.17578401 0.040162001
-0.037020002 -0.16496401 0.03042
-0.027495001 -0.16496401 -0.039714999
0.040181 -0.16496401 -0.031367999
0.036922999 -0.16496401 0.034963001
-0.036598001 -0.179254 0.030091001
-0.027176 -0.179254 -0.039283998
0.00196 -0.179254 -0.048909999
-0.043244001 -0.16496401 0.020036999
0.00196 -0.16496401 0.049445
0.00196 -0.179254 0.048909999
-0.039586 0.039338998 -0
-0.0088740001 -0.16496401 0.048243999
0.045421001 0.014303 -0.0097740004
-0.037755001 -0.16496401 -0.029454
0.034972999 -0.16426399 -0.029921001
0.024191 -0.16496401 0.044165999
-0.037324999 -0.179254 -0.029135
0.034657001 -0.17816 -0.029634999
0.023949999 -0.179254 0.043687001
-0.042254001 -0.179254 0.020911001
-0.0085169999 -0.188476 0.029478
0.00196 -0.189097 -0.045977999
-0.029060001 -0.192231 -0.026742
-0.039949 0.028527999 0.013784
0.043531999 -0.189099 -0.019664001
-0.039689999 0.014421 0.016040999
0.040851999 -0.192231 -0.012835
-0.0093489997 -0.192641 0.037280999
0.0057780002 -0.192641 -0.038771
0.039239999 -0.192641 0.011309
0.046289001 -0.1891 0.012268
0.041198999 -0.192238 0.011903
-0.039613001 -0.189099 -0.019664001
-0.016404999 -0.192641 0.034357999
-0.009943 -0.192238 -0.039239001
-0.019624 -0.192793 0.029039999
-0.0030420001 -0.192231 -0.040649001
-0.019639 -0.18862499 0.029082
-0.0081160003 -0.189098 -0.044863999
-0.0099240001 -0.179254 0.047444001
0.040189002 -0.189097 -0.025544001
0.04081 -0.190919 0.020765999
-0.028155001 -0.192641 0.024715001
-0.011414 -0.191651 -0.040506002
0.043044001 -0.1891 0.020680999
-0.027590999 -0.188474 0.024251999
-0.014588 -0.189098 -0.0429
0.039553002 -0.189098 0.026477
-0.039124001 -0.1891 0.020680999
-0.020710001 -0.1891 -0.04002
-0.024782 -0.192231 0.031020001
-0.01737 -0.192238 -0.036162999
0.039980002 -0.19259 0.006579
-0.037668001 -0.19221801 -0.0099440003
-0.034203 -0.192238 -0.019330001
-0.040941 -0.189098 -0.016548
-0.040194999 -0.190919 -0.012787
0.027344 -0.19263101 0.029455001
0.032074999 -0.192641 0.024715001
-0.032869 -0.1891 0.030042
-0.026339 -0.1891 -0.036260001
0.033665001 -0.189098 0.033302002
-0.031468999 -0.190055 0.030293999
-0.024054 -0.192238 -0.031697001
0.030556999 -0.191642 0.031567998
-0.040713001 -0.187002 0.020183001
0.013863 -0.192238 -0.039239001
0.0057780002 -0.192641 0.038771
0.018759999 -0.188655 -0.029705999
0.00082999998 -0.189098 0.045967001
0.040275 -0.190917 -0.0217
0.0048429999 -0.188347 -0.029270999
-0.0092160003 -0.189099 0.044610001
0.045710001 -0.0091300001 -0.0098270001
0.045554999 0.007516 -0.0097989999
0.021289 -0.192238 -0.036162999
0.013269 -0.192641 0.037280999
0.027344 -0.19263101 -0.029455001
0.014351 -0.191655 0.040849999
-0.040205002 -0.187002 -0.021224
0.026211999 -0.188474 -0.029550999
0.014228 -0.1891 0.044328999
-0.03032 -0.192231 -0.025207
0.033656999 -0.192238 -0.026013
0.022252999 -0.19005699 0.040311001
-0.030551 -0.189097 -0.032511
0.030258 -0.1891 -0.036260001
0.026559001 -0.189098 0.038848002
-0.034299999 -0.1891 -0.028298
0.037517 -0.1891 -0.029181
0.022640999 -0.1891 0.041083999
-0.030702 -0.190052 -0.031094
0.030556999 -0.191642 -0.031567998
0.020324999 -0.192641 0.034357999
0.041768 -0.157124 -0.029524
0.030498 -0.157124 0.040521
0.041841 -0.147339 -0.029578
0.030549999 -0.147339 0.040596001
0.041896001 -0.135958 -0.029619001
0.03059 -0.135958 0.040651999
0.041935999 -0.123335 -0.029648
0.030618001 -0.123335 0.040692002
0.041986 -0.067441002 -0.029685
0.031645998 -0.067442998 0.040026002
0.041985001 -0.081520997 -0.029684
0.031645 -0.081522003 0.040025
0.041962001 -0.10982 -0.029668
0.031628001 -0.10982 0.040002
0.041978002 -0.095765002 -0.029679
0.031638999 -0.095765002 0.040018
0.024243001 -0.157124 0.044270001
0.035045002 -0.15652999 -0.029987
-0.019269999 -0.147339 0.044886
0.024284 -0.147339 0.044351
0.035829 -0.14684001 -0.029216001
-0.019299001 -0.135958 0.044948
0.024315 -0.135958 0.044411998
0.035872001 -0.135548 -0.029253
-0.01932 -0.123335 0.044992
-0.008959 -0.067450002 0.048624001
-0.019347001 -0.067451 0.045051001
0.024360999 -0.095766 0.044503
0.035936002 -0.095600002 -0.029308001
-0.019346001 -0.081528001 0.045047998
0.024351999 -0.10982 0.044484999
0.035923999 -0.109574 -0.029297
-0.019342 -0.095767997 0.04504
-0.019334 -0.109821 0.045022
0.01167 -0.123335 -0.048813999
0.011682 -0.081524 -0.048875
0.00196 -0.081524998 -0.049832001
0.031484 -0.157125 -0.039808001
0.026768001 -0.15652999 0.037128001
-0.033085998 -0.157124 -0.035046
0.031537998 -0.147339 -0.039882001
0.02681 -0.14684001 0.037191
-0.033149999 -0.147339 -0.035110001
0.031578999 -0.135958 -0.039937001
0.026842 -0.135548 0.037239
-0.033199001 -0.135958 -0.035158999
0.031608 -0.123335 -0.039976001
0.026864 -0.123008 0.037271999
-0.033234 -0.123336 -0.035193
0.032618999 -0.067442998 -0.039285999
0.026896 -0.067446001 0.037319999
-0.033279002 -0.067454003 -0.035239
0.032618001 -0.081522003 -0.039283998
0.026892999 -0.081439003 0.037315998
-0.033277001 -0.081528999 -0.035236999
0.032612 -0.095765002 -0.039276998
0.026888 -0.095599003 0.037308998
-0.033271 -0.095769003 -0.035231002
0.032600001 -0.10982 -0.039262
0.026879 -0.109573 0.037294999
-0.033257 -0.109822 -0.035216998
-0.037849002 -0.157125 -0.029524
-0.037921999 -0.147339 -0.029578
-0.037976999 -0.135958 -0.029619001
-0.038015999 -0.123336 -0.029648
-0.038068 -0.067455001 -0.029687
0.035946 -0.067447998 -0.029317001
0.024366001 -0.067443997 0.044512
-0.038066 -0.081529997 -0.029686
-0.038059 -0.095769003 -0.029680001
-0.038043 -0.109822 -0.029668
0.000925 0.048780002 0.040238
0.016706999 0.04981 -0.029645
0.049725998 -0.157124 0.013219
0.050581999 -0.067440003 0.010918
-0.047876 -0.067456 0
-0.047874 -0.081531003 0
-0.047864001 -0.095770001 0
-0.047844 -0.109822 0
0.028348999 0.049798999 -0.019359
-0.0077089998 -0.157124 -0.048610002
-0.026578 -0.157124 0.040521
-0.026631 -0.147339 0.040596001
-0.02667 -0.135958 0.040651999
-0.026698999 -0.123335 0.040692002
-0.018116999 -0.15652999 -0.039884999
-0.029482 -0.157124 0.038311999
0.022035999 -0.15652999 -0.039884999
-0.018151 -0.14684001 -0.039953001
-0.02954 -0.147339 0.038382001
0.022071 -0.14684001 -0.039953001
-0.019152001 -0.135548 -0.039498001
-0.029583 -0.135958 0.038435001
-0.027659001 -0.135958 -0.039937001
-0.037238002 -0.135958 0.03059
0.023072001 -0.135548 -0.039498001
-0.019171 -0.123007 -0.039533999
-0.029614 -0.123335 0.038472999
-0.027689001 -0.123335 -0.039976001
-0.037276998 -0.123336 0.030621
-0.0287 -0.067452997 -0.039287999
-0.037328001 -0.067454003 0.030661
-0.028698999 -0.081528999 -0.039285999
-0.037326001 -0.081529997 0.030658999
-0.028681001 -0.109822 -0.039262
-0.037303001 -0.109822 0.030641001
-0.028693 -0.095769003 -0.039278001
-0.037317999 -0.095769003 0.030653
-0.027727 -0.067452997 0.040027998
-0.027725 -0.081528999 0.040026002
-0.027720001 -0.095769003 0.040019002
-0.027708 -0.109822 0.040003002
-0.019198 -0.067437999 -0.039581999
-0.029655 -0.067452997 0.038523
0.023111001 -0.095599003 -0.039572001
-0.019196 -0.081433997 -0.039579
-0.029654 -0.081528999 0.038520999
0.023104001 -0.109573 -0.039558001
-0.019192001 -0.095596001 -0.039572001
-0.029648 -0.095769003 0.038513999
-0.019184001 -0.109572 -0.039556999
-0.029634999 -0.109822 0.038499001
-0.040550999 -0.157124 -0.02548
0.014002 -0.157124 0.048076998
-0.040628999 -0.147339 -0.025527
0.014024 -0.147339 0.048165001
-0.040688001 -0.135958 -0.025562
0.014041 -0.135958 0.048230998
-0.04073 -0.123336 -0.025587
0.014053 -0.123335 0.048278999
0.00196 -0.157124 0.049562
-0.028623 0.059377 -0
0.00196 -0.147339 0.049653001
-0.027620999 0.069367997 -0
0.00196 -0.135958 0.049722001
-0.026893999 0.079049997 -0
0.00196 -0.123335 0.049771
-0.019808 0.13789 -0
-0.040786002 -0.067455001 -0.025621001
0.014069 -0.067446001 0.04834
-0.040782999 -0.081529997 -0.025619
0.014068 -0.081524 0.048339002
-0.040775001 -0.095770001 -0.025614001
0.014066 -0.095766 0.048330002
-0.040757999 -0.109822 -0.025604
0.014061 -0.10982 0.048310999
0.039088 -0.15652999 0.024808001
-0.039912999 -0.157124 0.026516
-0.02352 -0.157125 -0.042511001
0.039151002 -0.14684001 0.02485
-0.03999 -0.147339 0.026564
-0.023567 -0.147339 -0.042589001
0.039198 -0.135548 0.024882
-0.039382 -0.135958 0.027624
-0.023602 -0.135958 -0.042647999
0.039232001 -0.123008 0.024905
-0.039423 -0.123336 0.027651001
-0.023627 -0.123335 -0.042690001
0.039278999 -0.067449003 0.024937
0.0063439999 0.13789 -0.019897001
-0.039476998 -0.067455001 0.027688
-0.02366 -0.067451999 -0.042745002
0.039276 -0.081440002 0.024933999
-0.039475001 -0.081529997 0.027686
-0.023659 -0.081528001 -0.042743001
0.039267998 -0.095600002 0.024929
-0.039466999 -0.095769003 0.027681001
-0.023654001 -0.095769003 -0.042734999
0.039255001 -0.109574 0.02492
-0.039450999 -0.109822 0.02767
-0.023644 -0.109822 -0.042718001
-0.017007001 -0.157124 -0.045789
0.04623 -0.157124 0.022283999
-0.01591 -0.147339 -0.046326
0.046310998 -0.147339 0.022324
-0.017068001 -0.135958 -0.045937002
0.046372 -0.135958 0.022355
-0.017086999 -0.123335 -0.045981999
0.046416 -0.123335 0.022376999
0.041032001 -0.157124 0.030492
-0.037112001 -0.157124 0.030492
-0.027564 -0.157124 -0.039808001
0.040270999 -0.157124 -0.031442001
0.037005 -0.157124 0.035046
0.041103002 -0.147339 0.030548001
-0.037184 -0.147339 0.030548001
-0.027618 -0.147339 -0.039882001
0.040341999 -0.147339 -0.031498998
0.037069999 -0.147339 0.035110001
0.041157998 -0.135958 0.03059
0.040394999 -0.135958 -0.031543002
0.037117999 -0.135958 0.035158999
0.041196 -0.123335 0.030619999
0.040433001 -0.123335 -0.031574
0.037152998 -0.123335 0.035193
0.040481001 -0.067442 -0.031613
0.037197001 -0.067442 0.035236999
0.040479999 -0.081522003 -0.031613
0.037195999 -0.081522003 0.035236001
0.040458001 -0.10982 -0.031594999
0.037176002 -0.10982 0.035216
0.040472999 -0.095765002 -0.031606998
0.037190001 -0.095765002 0.03523
0.013321 0.117231 -0.019712999
-0.017109999 -0.081527002 -0.046039999
0.046470001 -0.081520997 0.022405
0.014922 0.108471 -0.019998999
-0.017107001 -0.095767997 -0.046030998
0.046461999 -0.095764004 0.022400999
0.017027 0.099963002 -0.019726999
-0.017099001 -0.109821 -0.046013001
0.046445001 -0.10982 0.022391999
0.019045001 0.13789 -0.0097319996
0.041246001 -0.067441002 0.030658999
0.041244 -0.081520997 0.030657999
0.041237 -0.095765002 0.030652
0.041221999 -0.10982 0.03064
0.047942001 -0.123335 -0.019045999
0.047998998 -0.067440003 -0.019069999
0.047998 -0.081520997 -0.019069999
0.047990002 -0.095764004 -0.019066
0.047972001 -0.109819 -0.019059001
-0.007038 0.047701001 -0.040227
-0.019805999 0.049844 0.026482999
-0.04665 -0.157124 -0.0096690003
-0.044280998 -0.157124 -0.017836999
-0.044365998 -0.147339 -0.01787
-0.019773999 0.069367997 0.019623
-0.044429999 -0.135958 -0.017895
-0.019710001 0.079049997 0.018623
-0.044475999 -0.123336 -0.017912
-0.019828999 0.108471 0.013087
-0.044071 -0.095770001 -0.019067001
-0.019661 0.099963002 0.015202
-0.044507001 -0.109822 -0.017924
0.050834998 -0.067440003 -0.009722
0.050834 -0.081520997 -0.009722
0.050825 -0.095764004 -0.0097200004
-0.0089560002 -0.095767997 0.048613001
-0.0089579998 -0.081527002 0.048622001
0.020926001 -0.157124 -0.045789
0.030498 -0.157124 -0.040521
0.020961 -0.147339 -0.045873001
0.030549999 -0.147339 -0.040596001
0.020987 -0.135958 -0.045937002
0.03059 -0.135958 -0.040651999
0.021005999 -0.123335 -0.045981999
0.030618001 -0.123335 -0.040692002
-0.019125 -0.14684001 0.039448
-0.019152001 -0.135548 0.039498001
-0.019171 -0.123007 0.039533999
0.021031 -0.067445002 -0.046039999
0.021029999 -0.081523001 -0.046039
0.021026 -0.095766 -0.04603
0.021019001 -0.10982 -0.046011999
0.030655 -0.067442998 -0.040743001
0.030653 -0.081523001 -0.040741999
0.030648001 -0.095765002 -0.040734001
0.030637 -0.10982 -0.040718
-0.019199001 -0.053963002 0.039583001
-0.019196 -0.081433997 0.039579
-0.019192001 -0.095596001 0.039572001
0.051681001 -0.135958 -0
0.051729999 -0.123335 -0
0.051793002 -0.067440003 -0
0.051791001 -0.081519999 -0
0.051782001 -0.095764004 -0
0.051763002 -0.109819 -0
0.011647 -0.147339 -0.048698999
0.01166 -0.135958 -0.048765998
-0.046602 -0.123336 0.010905
0.037494 0.039156999 -0.019331999
0.00196 -0.16496401 -0.049445
-0.04335 -0.157124 0.020085
-0.046665002 -0.067456 0.010919
-0.046663001 -0.081531003 0.010919
0.011676 -0.109821 -0.048847001
0.011629 -0.157124 -0.048610002
0.040298998 0.045724001 -0.016252
0.011606 -0.16496401 -0.048494998
0.043393001 0.039799001 -0.019831
0.049883001 0.029945999 0.0071350001
-0.019090001 -0.15652999 0.039379999
0.026713001 -0.16426399 0.037046
0.031413998 -0.16496401 -0.039714999
-0.040178999 0.046606001 -0.0071470002
0.026477 -0.17816 0.036692001
0.031095 -0.179254 -0.039283998
-0.044123001 0.039609998 -0.0090680001
-0.032644998 0.029805999 -0.034426
0.030757001 0.029914999 -0.039069999
0.029789999 0.029913001 0.03977
0.030431001 -0.16496401 -0.040426001
-0.04022 0.043584999 -0.014815
0.030245 -0.17578401 -0.040162001
-0.041476 0.039616 -0.017786
-0.031392999 0.039639998 -0.032855999
0.030009 0.039772 -0.036578
0.027241999 0.039765999 0.038580999
-0.035861999 0.039629001 -0.027682001
0.037323002 0.039786998 -0.029429
0.022328001 0.039756 0.041452002
0.026657 0.049908001 -0.029865
0.011156 0.046689998 0.040504999
-0.040049002 0.039620001 -0.020896001
0.029598 0.039174002 -0.029694
0.012742 0.039735999 0.045026001
-0.020236 0.040665999 -0.040463999
-0.03297 0.049841002 0.020298
0.010519 0.039731 -0.045527998
0.050868999 -0.179254 -0
0.029789999 0.029913001 -0.03977
0.050455 -0.16496401 -0.0096460003
-0.013262 0.045632999 -0.040036999
-0.029624 0.049844999 0.025046
0.020269999 0.039751999 -0.042428002
0.051405001 -0.16496401 -0
-0.016852001 0.049860001 -0.035255998
-0.024149001 0.049851 0.030515
0.041051999 0.042766001 0.020034
0.042893998 0.039797999 0.020855
-0.029662 0.039314002 0.026730999
-0.016311999 0.039673001 -0.042913999
-0.047602002 -0.157124 0
-0.0086939996 0.049869001 -0.038283002
-0.019398 0.049857002 0.033856999
0.0017810001 0.029867001 -0.048661999
-0.040049002 0.039620001 0.020896001
-0.0075969999 0.039693002 -0.045547999
0.049476001 0.029944999 -0.0094870003
0.047841001 0.039806999 -0
0.046951 0.039806001 -0.009048
-0.019181 -0.16496401 0.044698
-0.045017 0.039608002 -0
-0.040211 0.045582999 0.010339
-0.043887001 0.039611001 0.010184
-0.046535 -0.16496401 -0.0096460003
0.030014999 0.026040999 -0.040020999
-0.046009999 -0.179254 -0.0095419995
0.030347999 0.015331 -0.040392
-0.043134999 -0.189097 -0.0089699998
0.030538 0.000417 -0.040607002
-0.019200001 -0.041363001 0.039585002
0.026897 -0.053975999 0.037322
0.032618001 -0.053877998 -0.039283998
0.026898 -0.041381001 0.037324999
0.032616001 -0.04118 -0.039280999
-0.019197 -0.018893 0.03957
0.026896 -0.029689001 0.037324
0.032607999 -0.029375 -0.039271999
-0.019189 -0.009075 0.039542999
0.026885999 -0.018925 0.037314001
0.031615999 -0.01849 -0.039990999
-0.0086239995 0.039262 -0.039724
-0.019719999 0.039289001 0.035112999
-0.047486 -0.16496401 0
0.036832999 0.015339 0.034931999
0.040087 0.015343 -0.031339001
-0.019889999 0.028487001 0.038247999
-0.046950001 -0.179254 0
0.026674001 0.014327 0.037083998
0.031330001 0.015332 -0.039682001
0.037058 0.00042200001 0.035117999
0.04033 0.00042500001 -0.031505998
-0.01912 0.014391 0.039315999
-0.044008002 -0.189098 0.001129
0.026760999 0.0075369999 0.037179999
0.031525999 0.00041800001 -0.039891999
-0.019153001 0.0075929998 0.039421
-0.040580999 -0.191651 0.003146
0.026862999 -0.0091150003 0.037289999
0.031582002 -0.0085500004 -0.039953001
-0.019231001 -0.157125 0.044803001
-0.04008 0.047651 -0
0.014851 0.14836299 -0.019897001
0.046468999 -0.053874999 0.022404
-0.017109999 -0.053890999 -0.046039999
0.012763 0.159811 -0.019897001
0.046466 -0.041175999 0.022402
-0.017108999 -0.041198 -0.046038002
0.01417 0.17916 -0.019952999
0.046454001 -0.029369 0.022397
-0.017106 -0.029399 -0.046029001
0.013372 0.18981899 -0.019794
0.046427 -0.018482 0.022384999
-0.017099001 -0.018519999 -0.046007
0.045219999 0.029937999 0.021865999
-0.016845999 0.029835001 -0.044969
0.046023998 0.01535 0.02221
-0.017013 0.015272 -0.045662001
0.011274 0.19276699 -0.019525001
0.046378002 -0.0085399998 0.022363
-0.017088 -0.0085880002 -0.045965001
0.019962 -0.191746 -0.0096220002
0.046298999 0.00043099999 0.022329001
-0.017070999 0.00037299999 -0.045898002
0.023117 -0.067446001 -0.039584
-0.019199001 -0.053963002 -0.039583001
-0.029654 -0.053893998 0.038523
-0.028698999 -0.053893 -0.039287001
-0.037326999 -0.053895999 0.03066
0.023118 -0.053975001 -0.039586
-0.019200001 -0.041363001 -0.039585002
-0.029651999 -0.041202001 0.038520999
-0.019200001 -0.029665001 -0.039583001
-0.029647 -0.029405 0.038513999
0.023117 -0.029687 -0.039588001
-0.019197 -0.018893 -0.03957
-0.029634999 -0.018528 0.038495
0.023087 -0.0091120005 -0.039551999
-0.018178999 0.0075920001 -0.039926
-0.029578 0.00036100001 0.038405001
0.023108 -0.018921999 -0.039577
-0.019189 -0.009075 -0.039542999
-0.029612999 -0.0085979998 0.038461
-0.045729 0.029782999 0.010669
0.036318 -0.192641 -0.018364999
-0.046333998 0.015233 0.010831
-0.04654 0.000344 0.010886
0.0019 0.015296 -0.049415998
-0.042234998 0.029789001 0.020818001
-0.0077140001 0.029850001 -0.047733001
0.039526999 -0.19261099 -0.0094360001
0.00194 0.00039100001 -0.049674001
-0.043292999 0.015237 0.020033
-0.007741 0.015284 -0.048471
0.001951 -0.0085730003 -0.049748
-0.043483999 0.00034699999 0.020135
0.029914999 -0.192618 -0.0084800003
-0.0077510001 0.000382 -0.048721999
-0.020342 0.18981899 0.010017
0.050280001 -0.029368 -0.012104
0.050251 -0.018479001 -0.012097
0.018759999 -0.188655 0.029705999
0.020594001 -0.189098 -0.042036001
0.050096001 0.015354 -0.010823
0.050198 -0.008537 -0.012085
0.050112002 0.00043399999 -0.012067
-0.012001 0.17916 0.020274
-0.046907999 -0.029414 -0.0097200004
-0.011208 0.18981899 0.020096
-0.046888001 -0.018540001 -0.0097160004
-0.045977 0.029782001 -0.0094999997
-0.046585001 0.015233 -0.0096439999
-0.046792001 0.000344 -0.0096930005
-0.010504 0.190911 0.020020001
-0.046851002 -0.0086120004 -0.0097070001
-0.033723 0.039634001 0.030352
-0.026213 0.039650999 -0.037317
0.034267999 0.039779998 0.032805
0.030133 0.044711001 -0.032009002
0.022809001 0.049904 0.032795999
-0.030657001 0.043605 -0.030316999
-0.019723 0.14836299 0.01302
-0.044535998 -0.053897999 -0.017936001
-0.030657001 0.043605 0.030316999
-0.02262 0.049853001 -0.031707
0.031099999 0.045708999 0.030036001
-0.019882999 0.159811 0.01043
-0.04408 -0.041207999 -0.019071
-0.019746 0.17916 0.012337
-0.044526 -0.029413 -0.017932
-0.019825 0.18981899 0.011044
-0.044507999 -0.018538 -0.017922999
0.033684999 0.049915999 0.021910001
0.035948001 -0.053978 -0.029318999
0.024365 -0.053879999 0.044509999
-0.038067002 -0.053895999 -0.029687
0.035948001 -0.029693 -0.029321
0.024358001 -0.029379001 0.044496998
-0.038059 -0.029410001 -0.029680001
-0.039523002 0.039620999 0.021908
-0.021434 0.039662 -0.04042
0.039388999 0.039790999 0.02671
-0.018549999 0.14798599 -0
0.014069 -0.053883001 0.048338
-0.040784001 -0.053897001 -0.02562
-0.018393001 0.179205 -0
0.014065 -0.029384 0.048324998
-0.040775999 -0.029410999 -0.025614999
-0.044222001 0.015236 -0.017790999
-0.044417001 0.00034599999 -0.017882001
-0.018688001 0.19276699 0.010436
-0.044473 -0.0086099999 -0.017907999
-0.043203998 0.029787 -0.018634001
-0.040584002 0.029792 -0.023999
0.013603 0.029887 0.047196001
-0.023658 -0.041200001 -0.042741999
-0.039473999 -0.041205999 0.027686
0.011682 -0.053883001 -0.048873998
0.011682 -0.041188002 -0.048870999
-0.023644 -0.018524 -0.042713001
-0.039450999 -0.018534999 0.027667999
0.011679 -0.029385 -0.048861001
-0.023628 -0.0085929995 -0.042675
-0.039420001 -0.0086059999 0.027643001
0.011671 -0.018502001 -0.048836
0.049929999 -0.179254 -0.0095419995
0.011273 0.029882999 -0.047720999
0.047054 -0.189097 -0.0089699998
-0.023244999 0.029823 -0.041753002
-0.039981999 0.029793 0.025031
0.01154 0.015308 -0.048463002
0.041586999 -0.19221801 -0.0099440003
-0.02351 0.015263 -0.042394999
-0.039863002 0.015242 0.026447
0.01163 0.00039999999 -0.048717
-0.0089579998 -0.053888001 0.048622001
0.031644002 -0.053879 0.040024001
0.041983999 -0.053876001 -0.029684
-0.0089570004 -0.041195001 0.04862
-0.0089560002 -0.029394999 0.048610002
0.031635001 -0.029376 0.040011998
0.041971002 -0.029371001 -0.029673999
-0.0089530004 -0.018515 0.048586
-0.047844999 -0.018540001 0
-0.018952001 -0.179254 0.044213999
-0.046913002 0.02978 -0
-0.0085169999 -0.188476 -0.029478
-0.018720999 -0.1891 0.041083999
-0.047536001 0.015232 0
-0.047747001 0.00034299999 0
-0.047807999 -0.0086120004 0
-0.030816 0.049842998 -0.023519
0.030117 0.049911998 -0.026485
0.020314001 0.042725999 0.040302001
0.050832 -0.053874001 -0.0097209997
0.050829001 -0.041173998 -0.0097200004
0.050816 -0.029367 -0.009718
0.050786 -0.018479001 -0.0097129997
-0.018072 -0.16426399 -0.039797001
-0.029408 -0.16496401 0.038222
0.050044 0.029945999 -0.0059529999
-0.017881 -0.17816 -0.039416999
-0.029987 -0.179254 0.037035
0.050347 0.015355 -0.009637
-0.016061001 -0.188474 -0.033714
-0.029746 -0.189098 0.033302002
0.050646 0.00043399999 -0.0096880002
0.050732002 -0.008537 -0.0097030001
-0.017205 0.18997601 -0
0.014056 -0.018501 0.048300002
-0.040759001 -0.018536 -0.025603
-0.019819001 0.19276699 0.0079680001
0.014038 -0.008564 0.048255
-0.040727001 -0.0086070001 -0.02558
-0.038043 -0.018533999 -0.029665999
0.035936002 -0.018929999 -0.029313
0.024343001 -0.018495001 0.044473998
0.035907999 -0.0091220001 -0.029294999
0.024316 -0.008556 0.044431999
-0.038013998 -0.0086040003 -0.02964
0.041947 -0.018484 -0.029658001
0.030626001 -0.018491 0.040707
-0.038066 -0.041205999 -0.029686
0.041981 -0.041177001 -0.029681001
0.031643 -0.041181002 0.040020999
-0.037326001 0.029797999 -0.029003
0.034378 0.028386001 -0.029548001
0.023653001 0.029903 0.043453
0.040844999 0.029931 -0.028972
0.030014999 0.026040999 0.040020999
-0.037804 0.015245 -0.029447
0.034945 0.014316 -0.029955
0.024114 0.015323 0.044132002
0.041577999 0.015344 -0.029426999
0.030347999 0.015331 0.040392
-0.019545 -0.192534 0.018186999
0.014009 0.00040200001 0.048181999
-0.040677 0.00034999999 -0.025543001
0.013906 0.015311 0.047931001
-0.0405 0.015241 -0.025413999
-0.009513 -0.19190601 0.01877
-0.037967 0.000352 -0.029596999
0.035780001 0.0075269998 -0.029208999
0.024271 0.00041099999 0.044365
0.041901998 -0.0085429996 -0.02963
0.030593 -0.0085509997 0.040668
0.0078849997 -0.191746 0.019533001
0.04183 0.00042699999 -0.029584
0.030538 0.000417 0.040606
0.046452999 0.039804999 0.011269
-0.033278 -0.053895 -0.035239
-0.033270001 -0.029407 -0.035231002
0.039282002 -0.053978998 0.024938
0.00083700003 0.14798599 -0.019388
-0.039476 -0.053895999 0.027687
-0.023659 -0.053892002 -0.042744
0.039283 -0.029695 0.024940001
0.00083700003 0.179205 -0.019231001
-0.039466999 -0.029410001 0.027681001
-0.023654001 -0.029402001 -0.042734001
0.040479001 -0.053877 -0.031612001
0.037195999 -0.053877 0.035234999
0.040467001 -0.029371999 -0.031601999
0.037184 -0.029372999 0.035224002
-0.037317999 -0.029409001 0.030653
-0.028692 -0.029405 -0.039278001
-0.019346001 -0.053890999 0.045049001
-0.019345 -0.041198999 0.045047
-0.019340999 -0.0294 0.045038
0.050569002 -0.157124 -0.0096690003
-0.026879 0.05937 0.020555001
-0.027726 -0.053893 0.040027
0.039285 -0.041386001 0.024940001
0.00083700003 0.159832 -0.018270001
0.039269 -0.018933 0.024933999
0.00083700003 0.18997601 -0.018042
0.039239001 -0.0091249999 0.024917999
0.0096589997 0.192082 -0.019901
0.040477 -0.041177999 -0.031608999
0.037193 -0.041179001 0.035232998
-0.037324999 -0.041205 0.030658999
-0.028697999 -0.041202001 -0.039285
0.017467 0.14798599 -0.0099670002
0.041244 -0.053876001 0.030657001
0.040454 0.047768001 0.010928
-0.033275999 -0.041204002 -0.035236999
0.016272999 0.159832 -0.0097749997
0.041241001 -0.041177999 0.030654
0.040442999 -0.018485 -0.031585
0.037163001 -0.018487001 0.035206001
-0.037303001 -0.018533001 0.030639
-0.027708 -0.018526999 -0.039999001
0.017332001 0.179205 -0.0098869996
0.041230999 -0.029371999 0.030647
-0.033257 -0.018531 -0.035213999
0.040399998 -0.0085439999 -0.031553999
0.037122998 -0.0085460003 0.035172001
-0.037273999 -0.0086040003 0.030611999
-0.027688 -0.0085960003 -0.039963
0.01608 0.18997601 -0.0096530002
0.041207001 -0.018485 0.030631
-0.033232 -0.0086009996 -0.035183001
0.00196 -0.189495 0
-0.037069 0.015246 0.030412
-0.027543999 0.015258 -0.039701
-0.0094919996 -0.190891 0.0061209998
-0.033192001 0.00035700001 -0.035131998
-0.033052001 0.015251 -0.034952998
0.0059779999 -0.190603 0.0097009996
-0.037229002 0.00035300001 0.030568
-0.027655 0.00036199999 -0.039905
0.038364001 0.028379001 0.024445999
0.038984001 0.014311 0.024782
0.039101999 0.0075229998 0.024845
0.0059779999 -0.190603 -0.0097009996
-0.039964002 0.0083079999 0.026525
-0.023600999 0.00036599999 -0.042613
-0.035854001 0.029801 0.030887
-0.027217999 0.029816 -0.039101001
0.040414002 0.026056999 -0.030112
0.036173001 0.029924 0.034393001
-0.029103 0.029812999 0.037632
-0.017988 0.028484 -0.039266001
0.040414002 0.026056999 0.030112
-0.029456999 0.015256 0.038208999
-0.018149 0.014389 -0.039820001
0.040844999 0.015343 0.030392
0.019962 -0.191746 0.0096220002
0.041092001 0.00042600001 0.030554
0.019509999 0.19196101 -0.0099809999
0.041163001 -0.0085429996 0.030601
0.021029999 -0.053881001 -0.046038002
0.021028999 -0.041184001 -0.046034999
0.021024 -0.029381 -0.046025001
0.021011 -0.018497 -0.046000998
0.050149001 -0.179254 -0.0083619999
0.020398 0.029898001 -0.044946
0.050092001 -0.183539 -0.004741
0.020808 0.015319 -0.045648001
0.020947 0.00040799999 -0.045887999
0.011501 -0.179254 -0.047970001
0.046239998 0.02994 -0.019708
0.0048429999 -0.188347 0.029270999
0.012035 -0.189098 -0.044863999
0.047536999 0.015351 -0.018904001
0.047821 0.000432 -0.019005001
0.051789999 -0.053874001 -0
0.050579 -0.053874001 0.010918
0.051786002 -0.041173998 -0
0.050574999 -0.041173998 0.010917
0.051773001 -0.029367 -0
0.050563 -0.029367 0.010914
0.051743001 -0.018479001 -0
0.050533 -0.018479001 0.010908
0.010151 0.14836299 -0.022484001
0.049984999 -0.053874001 0.01329
0.010238 0.159811 -0.021207999
0.049981002 -0.041175 0.013289
0.010021 0.17916 -0.022171
0.049968001 -0.029368 0.013286
0.010332 0.18981899 -0.021419
0.049938999 -0.018479999 0.013278
-0.026511 -0.16496401 0.040426001
0.050409 0.029945999 -0
-0.025212999 -0.179254 0.040667001
0.051295999 0.015356 -0
-0.019639 -0.18862499 -0.029082
-0.020710001 -0.1891 0.04002
0.051600002 0.00043499999 -0
0.051688001 -0.0085359998 -0
0.050096001 0.015354 0.010823
0.028662 -0.192798 -0.019892
0.050393999 0.00043399999 0.010881
0.050480001 -0.008537 0.010897
0.048953 0.029944001 0.011816
0.049816001 0.015354 0.012002
0.018245 -0.19230901 -0.019843001
0.049802002 0.00043399999 0.013245
0.010303 0.19276699 -0.020013999
0.049885999 -0.008537 0.013266
0.032529999 0.069891997 0.01047
0.031865001 0.079475001 0.01025
0.030755 0.088947996 0.010705
-0.043538 -0.0086089997 0.020164
0.001957 -0.018508 -0.049794
-0.015729999 0.18981899 -0.016566999
-0.029986 0.088947996 0.0077209999
0.00196 -0.02939 -0.049819
-0.043572001 -0.018537 0.020182
0.020318 0.18981899 -0.013017
-0.0077579999 -0.018514 -0.048838999
-0.020090001 0.18981899 -0.010534
-0.030937999 0.088947996 -0
-0.021949001 0.17916 -0.007528
0.047897 -0.135958 -0.019028001
-0.03019 0.079475001 0.01025
-0.043590002 -0.029412 0.020191001
0.020112 0.17916 -0.014295
-0.0077590002 -0.029394001 -0.048863001
-0.020042 0.17916 -0.011828
-0.0089450004 -0.123335 0.048560999
-0.03184 0.079475001 -0
0.034215 0.069891997 -0
0.033514999 0.079475001 -0
0.050124999 -0.147339 -0.012065
-0.029999999 0.069891997 0.012773
0.050191 -0.135958 -0.012081
-0.029929999 0.079475001 0.011009
0.050239 -0.123335 -0.012093
-0.029081 0.088947996 0.010705
0.032777999 0.069891997 -0.0096890004
0.032106999 0.079475001 -0.0094860001
0.050659001 -0.147339 -0.009687
-0.025475999 0.069891997 0.020535
0.050726 -0.135958 -0.0097000003
-0.024924001 0.079475001 0.020104
0.050774001 -0.123335 -0.0097099999
-0.023724999 0.088947996 0.020158
-0.046806999 -0.135958 -0.0097000003
-0.019698 0.069891997 0.026312999
-0.026717 -0.018526001 0.040715002
-0.019918 0.088947996 0.024061
-0.0098670004 0.088947996 -0.029918
-0.01083 0.082405001 -0.030246001
-0.01083 0.082405001 0.030246001
-0.006883 0.088946998 -0.030823
-0.0096009998 0.16937 0.0252
0.050473001 -0.135958 0.010894
0.020057 0.069891997 -0.027288999
-0.0096969996 0.18981899 0.020927001
0.020386999 0.088947996 -0.025049999
-0.0099520003 0.17916 0.021435
0.050521001 -0.123335 0.010905
0.020303 0.079475001 -0.026247
-0.013433 0.069891997 -0.030173
-0.017480001 0.16937 0.02021
0.049880002 -0.135958 0.013261
0.015844001 0.069891997 -0.029813999
0.049927 -0.123335 0.013274
0.014079 0.079475001 -0.029874001
-0.016816 0.088947996 -0.026419999
0.011542 0.088947996 -0.029918
0.00083700003 0.088947996 0.031776
0.010061 0.088947996 -0.030407
0.019645 0.16937 0.019755
0.010526 0.069891997 -0.031939998
0.00083700003 0.069891997 0.033378001
-0.021631001 0.088947996 -0.022469001
-0.0091300001 0.088947996 0.030172
0.00083700003 0.088947996 -0.031776
0.025201 0.16937 0.012264
0.011307 0.069891997 0.031693
0.00196 -0.147339 -0.049653001
0.030429 0.059378002 -0.017736999
-0.043496002 -0.135958 0.020149
-0.026915001 0.069891997 -0.018544
-0.030304 0.069891997 -0.012012
0.00196 -0.135958 -0.049722001
0.030274 0.069891997 -0.015734
-0.043540999 -0.123336 0.020168999
-0.026333001 0.079475001 -0.018154001
-0.047865 -0.029414 0
-0.03019 0.079475001 -0.01025
-0.025583001 0.088947996 -0.017654
0.029879 0.069891997 0.016452
0.029656 0.079475001 0.015404
0.02922 0.088947996 0.014287
0.020101 0.19276699 -0.010912
-0.0077550001 -0.0085800001 -0.048794001
-0.0089520002 -0.109821 0.048594002
-0.030105 0.096441001 -0
-0.014818 0.19276699 -0.015655
0.00196 -0.109821 0.049803998
-0.024683001 0.099963002 -0
0.00196 -0.081524998 0.049832001
-0.027429 0.117816 -0
0.029914999 0.109045 0.004313
-0.025062 0.16937 -0.008556
0.047832999 -0.147339 -0.019001
-0.030856 0.069891997 0.01047
0.030232999 0.109045 -0
0.029104 0.117817 -0
-0.018937999 0.19276699 -0.0099539999
-0.022492999 0.099963002 0.010342
0.028113 0.16937 -0
0.015844001 0.069891997 0.029813999
0.042803001 -0.192231 0.003025
0.050289001 -0.095764004 -0.012106
-0.025535 0.117817 0.010173
-0.021841999 0.16937 -0.015154
-0.0089339996 -0.135958 0.048514001
-0.032540001 0.069891997 -0
0.030012 0.109045 -0.0035979999
0.024439 0.069891997 0.023602
0.022022 0.0075429999 -0.03994
-0.044534001 -0.081529997 -0.017935
-0.019634999 0.117817 0.019491
-0.026559999 0.015259 0.040410999
-0.046916001 -0.081531003 -0.009722
-0.018654 0.117817 0.020471999
-0.0086279996 0.19276699 0.020013999
0.050553001 -0.109819 0.010912
0.020467 0.096441001 -0.023918999
0.050579999 -0.081520997 0.010918
0.020328 0.117816 -0.020471999
0.050572 -0.095764004 0.010916
0.020037999 0.109045 -0.022259001
-0.042904001 -0.189098 0.010075
-0.019231001 0.015269 0.044679001
-0.0099799996 0.117817 0.026115
-0.0080289999 0.117816 -0.026839999
0.046787001 -0.123008 -0
0.00083700003 0.079475001 0.032676999
0.010323 0.079475001 -0.031270001
0.00083700003 0.100507 0.030458
-0.013341 0.099963002 -0.021219
0.00083700003 0.099963002 -0.025520001
0.049959 -0.109819 0.013283
0.010022 0.099963002 -0.023809999
0.049986001 -0.081520997 0.01329
0.01036 0.117817 -0.026613999
0.049977001 -0.095764004 0.013288
0.010058 0.109045 -0.027912
-0.019816 0.16937 0.017816
0.046746001 -0.135548 -0
0.016492 0.19276699 0.015655
0.00083700003 0.096441001 0.030943001
-0.0089499997 -0.0085810004 0.048542
0.00083700003 0.099963002 0.025520001
-0.039613001 -0.189099 0.019664001
-0.008928 0.015282 0.048220001
0.00083700003 0.117817 0.028267
-0.037280001 -0.192238 0.011903
-0.0089440001 0.00038000001 0.048470002
0.00083700003 0.109045 0.029395999
-0.046634 -0.109822 0.010912
-0.021042001 0.096441001 -0.021880001
0.01168 -0.095766 -0.048866
-0.01915 0.117816 -0.019988
-0.0077399998 -0.135958 -0.048765998
0.027647 0.069891997 -0.019882999
-0.014867 0.117816 -0.023503
-0.046652999 -0.095770001 0.010916
-0.020453 0.109045 -0.020269999
-0.0066809999 0.096441001 0.030014999
0.00083700003 0.096441001 -0.030943001
-0.0043700002 0.100507 0.03001
0.00083700003 0.100507 -0.030458
0.00083700003 0.117817 -0.028267
0.00083700003 0.109045 -0.029395999
0.030193999 0.088947996 -0.01216
-0.043570999 -0.109822 0.020183001
-0.020382 0.099963002 -0.014178
0.00196 -0.109821 -0.049803998
0.030119 0.092572004 -0.011295
-0.043589 -0.095770001 0.020191001
-0.023605 0.109045 -0.016332
0.00196 -0.095766999 -0.049823001
-0.043598 -0.081529997 0.020195
-0.022665 0.117816 -0.015704
-0.026001999 0.117816 -0.0088670002
0.023633 0.099963002 0.011474
0.026086001 0.117817 0.012709
0.027094999 0.109045 0.013217
-0.026301 0.126449 -0
0.001463 0.039712001 -0.046429999
0.00196 -0.067447998 0.049835
-0.024747999 0.138391 -0
0.045527998 -0.15652999 -0.009784
0.010159 0.046689 -0.040743001
-0.030097 0.053319 0.020675
0.001961 -0.041191 0.049830001
-0.022360001 0.159811 -0
0.000925 0.048780002 -0.040238
0.001961 -0.053886 0.049833
-0.023499001 0.14836299 -0
-0.029720999 -0.19282199 0.017917
0.00194 0.00039100001 0.049674001
0.014054 0.109045 0.026257001
-0.0099870004 0.059372 0.032763001
0.00083700003 0.059374001 -0.034504
0.050296001 -0.053874001 -0.012108
-0.02005 0.157245 0.010514
0.027976001 0.126449 -0
0.026423 0.138391 -0
0.018573999 0.059377 0.029593
0.024034999 0.159811 -0
-0.023159999 0.17916 -0
0.00196 -0.02939 0.049819
0.024835 0.17916 -0
0.015529 0.079475001 0.029188
0.047927 -0.189098 0.001129
0.050298002 -0.081520997 -0.012108
-0.024235001 0.126449 0.010385
-0.022592001 0.18981899 -0
0.001957 -0.018508 0.049794
0.024266001 0.18981899 -0
0.015124 0.088947996 0.028383
0.049929999 -0.179254 0.0095419995
-0.022553001 0.138391 0.010368
-0.021302 0.19276699 -0
0.001951 -0.0085730003 0.049748
0.022977 0.19276699 -0
0.012312 0.099963002 0.022794999
0.011283 0.039216001 -0.039749
-0.0096310005 0.049867999 0.038036
0.000895 0.049880002 -0.039459001
0.050299 -0.067440003 -0.012108
-0.021163 0.14836299 0.010405
0.023944 0.079475001 0.023105999
0.021947 0.014334 -0.039836001
0.050324999 -0.18354 -0
-0.019711999 0.126449 0.017726
0.023305999 0.088947996 0.022469001
-0.044082999 -0.067456 -0.019072
-0.019712999 0.138391 0.015241
0.022717001 0.096441001 0.021880001
0.046613 -0.15652999 -0
0.000895 0.049880002 0.039459001
0.010481 0.049890999 -0.03827
0.021808 0.159811 -0.0099179996
-0.025264001 0.029820001 0.040476002
-0.017387999 0.126449 0.020107999
0.050062001 -0.171102 0.010802
-0.021434 0.039662 0.04042
-0.046918999 -0.067456 -0.0097230002
-0.014904 0.138391 0.020169999
0.021624001 0.109045 0.020786
0.051522002 -0.157124 -0
0.01327 0.049894001 0.037459001
0.020337 0.049902 -0.034320999
-0.014677 0.059370998 -0.030820999
-0.020579999 0.053326 0.030422
0.046689 -0.14684001 -0
0.00083700003 0.059374001 0.034504
0.010039 0.059374999 -0.033252999
0.049814001 -0.147339 0.013243
0.018573999 0.059377 -0.029593
-0.046916001 -0.041209001 -0.009722
-0.010597 0.159811 0.020183999
0.050204001 -0.16496401 0.010833
-0.046918001 -0.053897999 -0.009722
-0.012683 0.14836299 0.020235
-0.0077610002 -0.041193999 -0.048873
0.020126 0.159811 -0.012888
-0.0077610002 -0.053888001 -0.048875999
0.020022999 0.14836299 -0.014973
0.019549999 0.126449 -0.019655
-0.017111 -0.067451 -0.046041999
0.046472002 -0.067441002 0.022405
0.017069001 0.138391 -0.019778
0.030653 -0.053879 -0.040741
-0.045761 -0.179254 0.010716
-0.019030999 0.029831 0.044002999
-0.0095480001 0.126449 0.025072999
-0.046284001 -0.16496401 0.010834
-0.019423001 0.039666999 0.041492999
-0.0095309997 0.138391 0.023390001
0.050406002 -0.147339 0.010879
0.020005001 0.059377 -0.028687
-0.0095929997 0.159811 0.020721
-0.046397999 -0.157124 0.010859
-0.013262 0.045632999 0.040036999
0.050317001 -0.157124 0.010859
-0.0095680002 0.14836299 0.022
0.00196 -0.123335 -0.049771
0.030025 0.079475001 -0.014692
-0.007675 0.126449 -0.025769001
-0.031539999 0.069891997 -0.0081099998
-0.0064389999 0.159811 -0.022027001
-0.0077599999 -0.095767997 -0.048866
0.022617999 0.109045 -0.019741001
-0.010597 0.159811 -0.020183999
0.025886999 0.088947996 -0.019548999
-0.013377 0.138391 -0.021274
-0.0077559999 -0.109821 -0.048847001
0.020160999 0.099963002 -0.016669
-0.012683 0.14836299 -0.020235
0.049986999 -0.067440003 0.013291
0.010045 0.138391 -0.023871001
0.00083700003 0.126449 -0.027138
0.00083700003 0.138391 -0.025586
0.00083700003 0.159811 -0.023197999
0.00083700003 0.14836299 -0.024336999
0.028515 0.109045 -0.0099029997
0.001961 -0.041191 -0.049830001
-0.015566 0.159811 -0.016403001
0.011682 -0.067446001 -0.048877001
-0.043598 -0.041207999 0.020195
0.00196 -0.053886 -0.049833
-0.016371001 0.14836299 -0.017209001
-0.0089189997 -0.147339 0.048447002
-0.033670001 0.059367999 -0
-0.02005 0.157245 -0.010514
0.00196 -0.067447998 -0.049835
-0.043598998 -0.053897001 0.020195
-0.0088989995 -0.157124 0.048358001
-0.038591001 0.049834002 -0
-0.020036999 0.14836299 -0.012511
0.001463 0.039712001 0.046429999
-0.039701 -0.15652999 0.016070001
-0.0080230003 0.047699999 0.04002
0.040031999 0.039792001 -0.025770999
0.012341 0.138391 0.022853
-0.024931001 0.126449 -0.0085129999
-0.023457 0.138391 -0.0080260001
0.047749002 -0.157124 -0.018967001
-0.032184001 0.059369002 0.010017
-0.021189 0.159811 -0.0072770002
0.047641002 -0.16496401 -0.018921999
-0.037160002 0.049835999 0.010531
-0.022271 0.14836299 -0.0076339999
0.018928999 0.138391 0.018092001
0.025078001 0.126449 0.012202
-0.047692999 -0.147339 0
-0.007547 0.059372999 -0.033470001
-0.016171001 0.059370998 0.030022999
0.023691 0.138391 0.011503
0.00083700003 0.069891997 -0.033378001
-0.009633 0.069891997 0.031693
0.047993001 -0.041175 -0.019067001
0.020037999 0.055744 -0.030322
0.01166 0.059376001 0.032761
0.021558 0.159811 0.01043
-0.047761999 -0.135958 0
-0.0072730002 0.069891997 -0.032377001
-0.013433 0.069891997 0.030173
0.016833 0.159811 0.016801
0.051612999 -0.147339 -0
0.018045999 0.14836299 0.017209001
-0.022593001 0.096441001 0.020211
0.047997002 -0.053874999 -0.019068999
0.022575 0.14836299 0.010942
0.028782999 0.049911 0.027888
-0.047873002 -0.041209001 0
-0.030356999 0.059369002 -0.014753
-0.017433001 0.159832 -0
-0.040782999 -0.041207001 -0.02562
0.014068 -0.041187 0.048335001
0.025233001 0.059378002 0.024396
0.010604 0.126449 -0.025319999
0.050269999 -0.109819 -0.012101
-0.026589001 0.109045 0.010579
0.00196 -0.157124 -0.049562
0.035207 0.049918 -0.019438
-0.043434002 -0.147339 0.020121001
-0.027853999 0.059369002 -0.019171
-0.030097 0.053319 -0.020675
-0.023562999 0.05937 -0.024398999
-0.017254001 0.138391 -0.018092001
0.017403999 0.18981899 0.016566999
-0.020579999 0.053326 -0.030422
0.000248 0.17916 0.02399
-0.018332999 0.059370998 -0.028689999
-0.039772 -0.14684001 0.016098
0.040091999 0.041783001 -0.023238
0.011779 0.14836299 0.021738
-0.047811002 -0.123336 0
-0.0071020001 0.079475001 -0.031698
-0.011668 0.079475001 0.03019
-0.043600999 -0.067456 0.020196
-0.020436 0.138391 -0.014215
0.047981001 -0.029369 -0.019063
0.011088 0.079475001 0.031028001
0.022272 0.17916 0.010789
0.017805999 0.17916 0.016969001
-0.0066809999 0.096441001 -0.030014999
0.00083700003 0.14836299 0.024336999
-0.046487 -0.147339 0.010879
-0.015494 0.109045 -0.024442
-0.0077269999 -0.147339 -0.048698999
0.029044 0.059378002 -0.019866001
-0.018352 0.126449 -0.01919
