# .PCD v0.7 - Point Cloud Data file format
VERSION 0.7
FIELDS x y z
SIZE 4 4 4
TYPE F F F
COUNT 1 1 1
WIDTH 1316
HEIGHT 1
VIEWPOINT 0 0 0 1 0 0 0
POINTS 1316
DATA ascii
-0.067563221 -0.061843581 0.39635852
-0.066934839 -0.061923679 0.39687186
-0.066308342 -0.062007263 0.39740756
-0.065683417 -0.062094156 0.39796448
-0.065059863 -0.062184289 0.39854214
-0.06443803 -0.062278096 0.39914334
-0.063818 -0.062375784 0.39976943
-0.063199751 -0.062477469 0.40042114
-0.062583469 -0.062583469 0.40110049
-0.061969277 -0.062694065 0.4018093
-0.061357379 -0.062809624 0.40254995
-0.060748119 -0.062930688 0.40332583
-0.060141582 -0.063057542 0.40413883
-0.059537679 -0.063190296 0.40498969
-0.058937307 -0.063330151 0.40588602
-0.058340386 -0.06347727 0.40682894
-0.057747684 -0.063632801 0.40782571
-0.057160608 -0.063798614 0.40888843
-0.056578916 -0.06397485 0.41001794
-0.056003563 -0.064163022 0.41122395
-0.055437893 -0.064367488 0.41253436
-0.054881457 -0.064588383 0.41395009
-0.054340385 -0.064833701 0.41552234
-0.05381735 -0.065107703 0.41727844
-0.053321309 -0.065422602 0.41929662
-0.05286992 -0.065802127 0.42172906
-0.05250987 -0.066308081 0.42497173
-0.12909926 -0.063254945 0.41014558
-0.12741363 -0.062788852 0.40712342
-0.1260214 -0.062462784 0.40500921
-0.12477271 -0.062204473 0.40333432
-0.12360951 -0.061986003 0.40191776
-0.12250995 -0.061797053 0.40069261
-0.12145746 -0.06162975 0.39960781
-0.12044176 -0.061479229 0.39863184
-0.11945659 -0.061342575 0.39774576
-0.11849829 -0.061218146 0.39693898
-0.11756141 -0.061103348 0.39619461
-0.11664338 -0.060996998 0.39550504
-0.11574411 -0.060899206 0.39487097
-0.1148604 -0.06080845 0.39428249
-0.11398994 -0.060723614 0.39373243
-0.11313237 -0.060644623 0.39322025
-0.11228625 -0.060570817 0.39274168
-0.11145093 -0.060501937 0.39229506
-0.11062531 -0.060437471 0.39187706
-0.10980931 -0.060377464 0.39148799
-0.10900144 -0.060321189 0.39112309
-0.10820146 -0.060268566 0.39078188
-0.10740892 -0.060219426 0.39046326
-0.10662407 -0.060173977 0.39016858
-0.10584603 -0.060131799 0.38989508
-0.10507429 -0.06009265 0.38964126
-0.10430845 -0.060056377 0.38940606
-0.10354806 -0.060022775 0.38918817
-0.10279278 -0.059991691 0.38898662
-0.10204249 -0.059963111 0.38880131
-0.10129768 -0.059937384 0.3886345
-0.10055748 -0.059914041 0.38848314
-0.099821515 -0.059892911 0.38834614
-0.09908957 -0.059873909 0.38822293
-0.098361619 -0.05985707 0.38811374
-0.09763848 -0.05984294 0.38802212
-0.096918724 -0.059830692 0.3879427
-0.096202344 -0.059820369 0.38787577
-0.095489189 -0.059811912 0.38782093
-0.094779745 -0.059805669 0.38778046
-0.09407369 -0.059801493 0.38775337
-0.093370505 -0.059799086 0.38773778
-0.092669919 -0.059798323 0.38773283
-0.09197256 -0.059799649 0.38774142
-0.09127824 -0.059802987 0.38776305
-0.090586267 -0.059807923 0.38779506
-0.089896522 -0.059814416 0.38783717
-0.089209914 -0.059823122 0.38789362
-0.08852575 -0.059833609 0.38796163
-0.087843604 -0.059845641 0.38803965
-0.0871635 -0.059859272 0.38812801
-0.086486362 -0.059875175 0.38823113
-0.08581119 -0.05989271 0.38834482
-0.085137822 -0.059911802 0.38846862
-0.084466293 -0.059932519 0.38860294
-0.083797507 -0.059955541 0.38875222
-0.08313033 -0.059980113 0.38891155
-0.082464784 -0.060006287 0.38908127
-0.08180096 -0.060034182 0.38926214
-0.08113955 -0.060064342 0.3894577
-0.080479659 -0.060096163 0.38966402
-0.079821073 -0.060129527 0.38988036
-0.079164319 -0.060164884 0.3901096
-0.078509621 -0.06020245 0.39035317
-0.077856228 -0.060241695 0.39060766
-0.077204138 -0.060282681 0.3908734
-0.076553747 -0.06032576 0.39115274
-0.075905249 -0.060371149 0.39144704
-0.075258099 -0.060418472 0.39175388
-0.074612111 -0.060467634 0.39207265
-0.07396742 -0.060518801 0.39240441
-0.073324874 -0.060572721 0.39275402
-0.072683506 -0.060628679 0.39311686
-0.072043382 -0.060686789 0.39349365
-0.071404658 -0.060747243 0.39388564
-0.070767306 -0.0608101 0.39429319
-0.070131801 -0.060875829 0.39471939
-0.069497705 -0.06094414 0.39516231
-0.068865016 -0.061015118 0.39562252
-0.068233654 -0.061088767 0.39610007
-0.067603603 -0.061165165 0.39659545
-0.066975176 -0.061244678 0.397111
-0.066348761 -0.061327774 0.39764979
-0.065723501 -0.061413765 0.39820737
-0.065100387 -0.061503682 0.39879039
-0.064478904 -0.061597165 0.39939654
-0.06385918 -0.061694466 0.40002742
-0.063241318 -0.061795805 0.40068451
-0.062625617 -0.061901618 0.40137061
-0.062012035 -0.062012035 0.40208656
-0.061400875 -0.062127512 0.40283531
-0.060792428 -0.062248532 0.40362
-0.060186651 -0.062375255 0.40444168
-0.059584092 -0.062508464 0.40530542
-0.058984466 -0.062648095 0.40621078
-0.058389083 -0.06279581 0.40716854
-0.057798527 -0.062952533 0.40818477
-0.057212975 -0.06311883 0.40926301
-0.056633018 -0.063295729 0.41041002
-0.056061197 -0.063486524 0.41164714
-0.055497624 -0.063691899 0.41297883
-0.054945908 -0.063916668 0.41443622
-0.054408789 -0.064164847 0.4160454
-0.053892229 -0.064444549 0.41785902
-0.053405985 -0.064768963 0.4199625
-0.052970186 -0.06516476 0.42252886
-0.052651685 -0.065718524 0.42611948
-0.12966458 -0.062788866 0.41194156
-0.12774926 -0.062217943 0.40819588
-0.12628227 -0.06186001 0.40584758
-0.12499352 -0.061585728 0.40404809
-0.12380497 -0.061357889 0.40255329
-0.12268382 -0.061160963 0.4012613
-0.12161533 -0.060988102 0.4001272
-0.12058783 -0.06083386 0.39911526
-0.11959252 -0.060694098 0.39819834
-0.11862424 -0.060566455 0.39736089
-0.11768128 -0.06045026 0.39659858
-0.11675744 -0.060342532 0.39589179
-0.11585189 -0.060242984 0.3952387
-0.11496173 -0.060150255 0.39463031
-0.11408687 -0.060064428 0.39406723
-0.11322572 -0.059984785 0.3935447
-0.11237622 -0.05991035 0.39305636
-0.1115381 -0.059841078 0.39260188
-0.11070997 -0.05977631 0.39217696
-0.10989143 -0.059715923 0.39178076
-0.10908159 -0.059659507 0.39141065
-0.10827995 -0.05960688 0.39106536
-0.1074865 -0.059558097 0.39074531
-0.10669992 -0.0595125 0.39044616
-0.10592036 -0.059470236 0.39016888
-0.10514693 -0.059430875 0.38991064
-0.10437962 -0.05939446 0.38967174
-0.10361785 -0.059360731 0.38945046
-0.10286103 -0.059329402 0.38924491
-0.10211042 -0.059301239 0.38906014
-0.10136454 -0.059275456 0.38889098
-0.10062312 -0.059251945 0.38873672
-0.099886179 -0.059230752 0.3885977
-0.099153444 -0.059211776 0.38847318
-0.09842521 -0.059195235 0.38836467
-0.097701125 -0.059180968 0.38827106
-0.096980505 -0.059168611 0.38819
-0.096263155 -0.059158087 0.38812095
-0.095549203 -0.059149504 0.38806465
-0.094839454 -0.059143424 0.38802475
-0.094132535 -0.059139024 0.3879959
-0.093428493 -0.059136387 0.38797858
-0.092727199 -0.059135459 0.3879725
-0.092029557 -0.059136864 0.38798171
-0.091334529 -0.059139986 0.38800219
-0.090641893 -0.059144709 0.38803318
-0.089951508 -0.05915099 0.3880744
-0.089264564 -0.059159651 0.38813123
-0.088579781 -0.059169892 0.38819841
-0.087897055 -0.059181679 0.38827574
-0.087216437 -0.05919509 0.38836372
-0.086538844 -0.059210788 0.38846672
-0.085863121 -0.059228033 0.38857985
-0.085189231 -0.059246834 0.3887032
-0.084517442 -0.05926742 0.38883826
-0.083848186 -0.059290137 0.3889873
-0.08318048 -0.059314348 0.38914615
-0.082514338 -0.059340101 0.3893151
-0.081850179 -0.059367727 0.38949636
-0.081188329 -0.059397522 0.38969183
-0.080527991 -0.059428956 0.38989806
-0.079869077 -0.059462 0.39011484
-0.079211809 -0.059496868 0.39034361
-0.078556791 -0.059534069 0.39058769
-0.077903092 -0.059572954 0.3908428
-0.077250667 -0.05961353 0.39110899
-0.076599658 -0.059655957 0.39138734
-0.075950995 -0.059701018 0.39168298
-0.075303599 -0.059747923 0.39199072
-0.074657321 -0.05979662 0.3923102
-0.074012317 -0.05984728 0.39264259
-0.073369123 -0.059900392 0.39299104
-0.072727516 -0.059955854 0.39335489
-0.072087266 -0.06001354 0.39373335
-0.071448229 -0.060073387 0.394126
-0.070810571 -0.06013561 0.39453423
-0.07017456 -0.060200512 0.39496005
-0.069540456 -0.060268391 0.39540538
-0.068907596 -0.060338773 0.39586714
-0.068276048 -0.060411792 0.39634618
-0.067646168 -0.060487848 0.39684516
-0.067017652 -0.060566753 0.39736286
-0.066390581 -0.060648691 0.39790043
-0.065765455 -0.06073422 0.39846155
-0.06514208 -0.060823265 0.39904577
-0.064520694 -0.060916189 0.3996554
-0.06390126 -0.061013065 0.400291
-0.063283846 -0.061114114 0.40095395
-0.06266813 -0.061219156 0.4016431
-0.062055051 -0.06132926 0.40236548
-0.061444316 -0.061444316 0.40312031
-0.060836472 -0.061565053 0.40391243
-0.060231477 -0.061691634 0.4047429
-0.059629519 -0.061824471 0.40561441
-0.059031449 -0.061964687 0.40653434
-0.058438022 -0.062113371 0.4075098
-0.057848964 -0.062270541 0.40854096
-0.057265103 -0.062437434 0.4096359
-0.056688495 -0.062616706 0.41081205
-0.056119028 -0.062808715 0.41207176
-0.055559162 -0.063016772 0.41343677
-0.055011176 -0.063244142 0.4149285
-0.05448018 -0.063497588 0.41659132
-0.053971957 -0.063785039 0.41847721
-0.053497147 -0.064120695 0.42067933
-0.053084448 -0.064541519 0.42344028
-0.052833013 -0.065173574 0.427587
-0.1281364 -0.061667945 0.40943286
-0.12656836 -0.061266426 0.40676704
-0.12522832 -0.060971223 0.40480709
-0.12400577 -0.0607301 0.4032062
-0.12286343 -0.060525641 0.40184873
-0.12177719 -0.060346562 0.40065977
-0.12073495 -0.060187273 0.3996022
-0.11972949 -0.060044516 0.3986544
-0.11875302 -0.059914663 0.39779225
-0.11780029 -0.059795283 0.39699966
-0.1168711 -0.059686463 0.39627716
-0.11596037 -0.059585787 0.39560875
-0.11506686 -0.059492771 0.39499119
-0.11418813 -0.059406288 0.39441699
-0.11332309 -0.059325881 0.39388314
-0.11247054 -0.059251044 0.39338627
-0.11162989 -0.05918156 0.39292496
-0.11079936 -0.059116594 0.39249364
-0.10997882 -0.059056148 0.39209232
-0.10916689 -0.058999583 0.39171675
-0.10836339 -0.058946863 0.39136672
-0.10756794 -0.058897853 0.39104134
-0.10678019 -0.058852449 0.39073989
-0.10599916 -0.058810167 0.39045915
-0.10522421 -0.058770709 0.39019719
-0.10445542 -0.058734193 0.38995475
-0.10369217 -0.058700312 0.3897298
-0.10293521 -0.058669556 0.38952559
-0.1021833 -0.058641281 0.38933787
-0.10143623 -0.058615398 0.38916603
-0.10069415 -0.058592066 0.38901111
-0.099956378 -0.058570933 0.38887081
-0.099222966 -0.058552068 0.38874555
-0.098494194 -0.058535695 0.38863686
-0.097769067 -0.058521267 0.38854107
-0.097047485 -0.058508772 0.3884581
-0.096329272 -0.058498137 0.3883875
-0.095615156 -0.058489855 0.38833252
-0.09490443 -0.058483541 0.38829058
-0.094196707 -0.058478996 0.38826042
-0.09349189 -0.058476202 0.38824186
-0.092790268 -0.058475375 0.38823637
-0.092091955 -0.058476642 0.38824478
-0.09139619 -0.058479555 0.38826412
-0.090702854 -0.058484077 0.38829416
-0.090012126 -0.058490369 0.38833591
-0.08932472 -0.058498934 0.38839278
-0.088639386 -0.058509 0.38845962
-0.087956101 -0.058520589 0.38853657
-0.087275207 -0.058533978 0.38862544
-0.086597018 -0.0585494 0.38872784
-0.085920744 -0.058566384 0.38884062
-0.085246332 -0.058584929 0.38896373
-0.084574088 -0.05860528 0.38909885
-0.083904229 -0.058627639 0.3892473
-0.083235972 -0.058651511 0.38940579
-0.082569323 -0.058676925 0.38957453
-0.081904665 -0.058704197 0.38975561
-0.081242226 -0.058733556 0.38995051
-0.080581255 -0.058764495 0.39015594
-0.079921767 -0.058797073 0.39037222
-0.07926406 -0.058831546 0.3906011
-0.078608587 -0.058868311 0.39084521
-0.077954516 -0.058906805 0.39110076
-0.07730177 -0.058947016 0.39136773
-0.076650254 -0.058988906 0.39164588
-0.076000944 -0.059033293 0.39194056
-0.075353235 -0.059079766 0.39224911
-0.074706726 -0.059128072 0.39256984
-0.074061416 -0.059178263 0.39290306
-0.073417731 -0.059230726 0.39325139
-0.07277593 -0.05928576 0.39361677
-0.072135203 -0.059342753 0.39399517
-0.071495861 -0.05940203 0.39438874
-0.070857905 -0.059463669 0.39479795
-0.070221253 -0.059527662 0.39522284
-0.069586642 -0.059594713 0.395668
-0.068953425 -0.059664361 0.39613041
-0.068321832 -0.059736889 0.39661196
-0.067691788 -0.059812322 0.39711279
-0.067063168 -0.059890635 0.39763272
-0.066436097 -0.05997204 0.39817321
-0.065810718 -0.060056776 0.39873579
-0.065187111 -0.060145013 0.39932162
-0.064565182 -0.060236789 0.39993095
-0.063945875 -0.060333114 0.40057048
-0.063328393 -0.060433384 0.40123621
-0.062713034 -0.060538016 0.4019309
-0.062100045 -0.060647413 0.40265721
-0.061489426 -0.060761742 0.40341628
-0.060881574 -0.060881574 0.40421188
-0.06027757 -0.061008207 0.40505263
-0.059676997 -0.061141465 0.40593737
-0.05908002 -0.061281759 0.40686885
-0.058487132 -0.061429881 0.40785226
-0.057899181 -0.061587028 0.40889561
-0.057317853 -0.061755367 0.41001326
-0.05674313 -0.061935309 0.41120797
-0.056176692 -0.062129188 0.4124952
-0.055621155 -0.062340491 0.41389808
-0.055079222 -0.062572993 0.41544175
-0.054554842 -0.062832132 0.41716224
-0.054056454 -0.063128866 0.41913235
-0.053597298 -0.063480489 0.42146689
-0.053215019 -0.063934594 0.42448184
-0.0531037 -0.064732246 0.42977771
-0.1286297 -0.061163977 0.4110091
-0.12688659 -0.060684893 0.40778977
-0.12547843 -0.060361341 0.40561557
-0.12421507 -0.060104068 0.40388674
-0.12304556 -0.059889432 0.40244442
-0.12194232 -0.059704695 0.40120304
-0.12088642 -0.059541073 0.40010354
-0.119869 -0.05939455 0.39911893
-0.11888408 -0.059262458 0.3982313
-0.11792596 -0.059142198 0.39742318
-0.11698917 -0.059031229 0.39667749
-0.11607367 -0.058929708 0.39599529
-0.11517639 -0.05883624 0.39536721
-0.1142941 -0.058749299 0.39478299
-0.11342578 -0.058668505 0.39424005
-0.11257095 -0.058593713 0.39373747
-0.11172776 -0.058524065 0.39326945
-0.11089519 -0.058459125 0.39283308
-0.11007212 -0.058398396 0.39242497
-0.10925831 -0.058341816 0.39204478
-0.1084533 -0.05828923 0.39169142
-0.10765652 -0.058240414 0.39136338
-0.10686708 -0.058194946 0.39105785
-0.10608435 -0.058152549 0.39077294
-0.10530809 -0.058113158 0.39050823
-0.10453846 -0.058076922 0.39026475
-0.10377453 -0.058043379 0.39003935
-0.10301617 -0.058012519 0.38983196
-0.1022634 -0.057984401 0.38964301
-0.10151565 -0.057958759 0.38947073
-0.10077238 -0.057935338 0.38931334
-0.10003377 -0.057914287 0.38917187
-0.099300027 -0.057895776 0.38904747
-0.098570116 -0.05787925 0.38893643
-0.097844124 -0.057864804 0.38883936
-0.097121589 -0.057852209 0.38875473
-0.096402653 -0.057841592 0.38868338
-0.09568806 -0.057833444 0.38862863
-0.094976485 -0.057827011 0.38858539
-0.094267905 -0.057822321 0.38855389
-0.093562268 -0.057819378 0.3885341
-0.092860319 -0.057818688 0.38852948
-0.092161439 -0.057819914 0.3885377
-0.091465123 -0.057822779 0.38855696
-0.09077131 -0.057827286 0.38858724
-0.090080366 -0.057833698 0.38863033
-0.089392163 -0.057841986 0.38868603
-0.08870621 -0.057851877 0.38875249
-0.088022299 -0.057863265 0.38882902
-0.087340981 -0.057876553 0.38891831
-0.086662136 -0.057891712 0.38902017
-0.085985199 -0.057908401 0.38913232
-0.085310139 -0.057926636 0.38925487
-0.084637448 -0.057946801 0.38939035
-0.083966985 -0.05796884 0.38953847
-0.083298206 -0.057992421 0.38969693
-0.082631044 -0.058017541 0.38986573
-0.081965841 -0.058044482 0.39004675
-0.081302963 -0.058073547 0.39024207
-0.080641605 -0.05810421 0.39044812
-0.07998164 -0.058136437 0.39066467
-0.079323247 -0.058170382 0.39089277
-0.078667 -0.058206521 0.39113563
-0.07801228 -0.058244463 0.39139059
-0.077358954 -0.058284145 0.39165723
-0.076706856 -0.058325492 0.39193508
-0.076056808 -0.058369175 0.39222863
-0.075408518 -0.058415052 0.39253691
-0.074761629 -0.058462888 0.39285836
-0.074116051 -0.058512669 0.39319289
-0.073471799 -0.058564477 0.39354101
-0.072829507 -0.058618873 0.39390653
-0.072188519 -0.058675397 0.39428636
-0.071548939 -0.058734205 0.39468154
-0.0709107 -0.058795307 0.39509213
-0.070273682 -0.058858667 0.39551792
-0.069638297 -0.058924709 0.3959617
-0.069004595 -0.058993567 0.39642441
-0.068372428 -0.059065189 0.39690569
-0.06774202 -0.059139859 0.39740747
-0.067113228 -0.059217554 0.39792955
-0.066486031 -0.059298355 0.39847252
-0.065860562 -0.059382472 0.39903778
-0.065236643 -0.059469871 0.39962506
-0.064614706 -0.05956104 0.40023771
-0.063994668 -0.059656046 0.40087613
-0.063376836 -0.059755303 0.40154311
-0.062761612 -0.059859343 0.40224224
-0.062149081 -0.059968412 0.40297517
-0.061538741 -0.060082201 0.40373981
-0.06093118 -0.060201462 0.40454122
-0.060326971 -0.060326971 0.4053846
-0.059726764 -0.060459606 0.4062759
-0.059130359 -0.060599435 0.40721551
-0.058538146 -0.060747135 0.40820801
-0.057951707 -0.060904663 0.40926656
-0.057372212 -0.061073642 0.41040209
-0.05679927 -0.061254114 0.41161481
-0.056235898 -0.061449822 0.41292992
-0.055683892 -0.061663371 0.41436493
-0.05514697 -0.061899658 0.41595274
-0.054630432 -0.062165663 0.41774023
-0.054143474 -0.062473238 0.41980708
-0.053704593 -0.062845804 0.42231062
-0.053368311 -0.063350871 0.4257046
-0.12932891 -0.060751043 0.41324329
-0.12724686 -0.060119532 0.40894759
-0.12574421 -0.059755996 0.40647474
-0.12443662 -0.059481435 0.40460712
-0.12323936 -0.059256684 0.40307829
-0.12211411 -0.05906409 0.40176824
-0.12104473 -0.058896389 0.40062749
-0.12001743 -0.058747269 0.39961314
-0.11902363 -0.058612846 0.39869875
-0.11805719 -0.05849034 0.39786544
-0.11711626 -0.058379058 0.39710847
-0.11619625 -0.058276892 0.39641351
-0.11529405 -0.058182448 0.39577109
-0.11440729 -0.058094669 0.395174
-0.11353672 -0.058014058 0.39462566
-0.11267924 -0.057939172 0.39411625
-0.11183361 -0.057869457 0.39364204
-0.11099865 -0.057804409 0.39319956
-0.11017347 -0.057743654 0.39278629
-0.10935809 -0.057687279 0.39240283
-0.10855195 -0.057635073 0.3920477
-0.10775351 -0.057586301 0.39171594
-0.10696256 -0.057540916 0.39140722
-0.1061788 -0.057498816 0.39112085
-0.10540167 -0.057459775 0.39085528
-0.10463063 -0.057423539 0.39060882
-0.10386533 -0.057389997 0.39038065
-0.10310646 -0.057359565 0.39017364
-0.10235275 -0.057331607 0.38998345
-0.10160381 -0.057305958 0.38980898
-0.10085984 -0.057282764 0.38965121
-0.10012082 -0.057262082 0.38951054
-0.099385969 -0.057243507 0.38938418
-0.098654889 -0.057226859 0.38927093
-0.09792763 -0.0572122 0.38917121
-0.097204216 -0.057199594 0.38908547
-0.096485287 -0.057189461 0.38901654
-0.095769465 -0.057181034 0.38895923
-0.095057033 -0.057174522 0.38891494
-0.094347961 -0.057169955 0.38888386
-0.093642265 -0.057167374 0.38886631
-0.092939846 -0.057166774 0.38886222
-0.092240132 -0.057167839 0.38886946
-0.091542959 -0.057170507 0.38888761
-0.090848155 -0.057174709 0.38891619
-0.090157062 -0.057181329 0.38896123
-0.089467958 -0.057189319 0.38901559
-0.088781297 -0.057199016 0.38908154
-0.088096701 -0.057210211 0.38915768
-0.087414958 -0.057223447 0.38924772
-0.086735509 -0.057238411 0.38934952
-0.086057849 -0.057254814 0.3894611
-0.085382111 -0.057272773 0.38958326
-0.084708869 -0.057292722 0.38971895
-0.084037744 -0.057314444 0.38986671
-0.083368301 -0.05733769 0.39002484
-0.082700558 -0.057362515 0.3901937
-0.082034692 -0.057389077 0.39037439
-0.081371367 -0.057417888 0.39057037
-0.080709301 -0.057448108 0.39077592
-0.08004871 -0.057479911 0.39099225
-0.079389825 -0.05751352 0.39122087
-0.078732975 -0.057549212 0.39146367
-0.078077689 -0.057586711 0.39171875
-0.077423811 -0.057625942 0.3919856
-0.076771207 -0.057666849 0.39226386
-0.076120406 -0.057709891 0.39255664
-0.075471565 -0.057755236 0.39286509
-0.074823797 -0.057802271 0.39318502
-0.074177504 -0.057851356 0.39351892
-0.073532864 -0.057902694 0.39386812
-0.07288973 -0.057956226 0.39423227
-0.072248355 -0.058012228 0.39461321
-0.071608447 -0.058070529 0.39500979
-0.070969835 -0.058131073 0.39542162
-0.070332445 -0.058193851 0.39584866
-0.069696553 -0.058259174 0.39629298
-0.069062166 -0.058327112 0.39675513
-0.068429455 -0.058397908 0.3972367
-0.067798324 -0.058471572 0.39773777
-0.06716904 -0.058548413 0.39826047
-0.066541664 -0.058628604 0.39880595
-0.06591589 -0.058711972 0.39937302
-0.065292031 -0.058798898 0.39996433
-0.064669766 -0.058889229 0.40057877
-0.064049467 -0.058983412 0.40121943
-0.063431494 -0.059081905 0.40188941
-0.062815577 -0.059184615 0.40258807
-0.062202934 -0.059292853 0.40332434
-0.061592802 -0.059406076 0.40409449
-0.060985386 -0.059524659 0.40490112
-0.060381323 -0.059649426 0.40574983
-0.059780873 -0.059780873 0.40664396
-0.059184875 -0.059920091 0.40759096
-0.058594186 -0.060068253 0.40859878
-0.058008652 -0.060225543 0.40966871
-0.057429146 -0.060393233 0.41080937
-0.056859229 -0.060575519 0.41204932
-0.056297686 -0.060771674 0.41338363
-0.055750009 -0.060988266 0.41485694
-0.055218782 -0.061228991 0.4164944
-0.054709382 -0.061500892 0.41834393
-0.054235045 -0.061820365 0.42051709
-0.05382061 -0.062218152 0.42322293
-0.053551391 -0.062797673 0.42716497
-0.12766899 -0.059578862 0.41030425
-0.12603629 -0.05915989 0.40741888
-0.12467368 -0.058863524 0.40537789
-0.12344398 -0.058626786 0.40374753
-0.12230031 -0.05842834 0.40238088
-0.12121426 -0.058255214 0.40118861
-0.12017679 -0.058103494 0.40014377
-0.11917404 -0.057966828 0.39920259
-0.11820126 -0.057843171 0.39835098
-0.11725384 -0.057730485 0.39757493
-0.11632933 -0.057627756 0.39686748
-0.11542334 -0.057532992 0.39621487
-0.11453395 -0.057445381 0.39561149
-0.11366067 -0.057364788 0.39505649
-0.1128002 -0.057289694 0.39453933
-0.1119514 -0.057219606 0.39405665
-0.1111143 -0.057154641 0.39360926
-0.11028654 -0.057093676 0.3931894
-0.10947043 -0.057037991 0.3928059
-0.10866237 -0.056985799 0.39244649
-0.10786276 -0.056937393 0.39211312
-0.10707024 -0.056892104 0.39180124
-0.10628493 -0.056850079 0.39151183
-0.10550611 -0.056810983 0.39124256
-0.1047339 -0.056774944 0.39099437
-0.1039682 -0.056741968 0.39076728
-0.10320772 -0.056711409 0.39055684
-0.10245286 -0.05668354 0.39036492
-0.10170319 -0.056658179 0.39019024
-0.10095847 -0.056635242 0.39003229
-0.10021823 -0.056614511 0.38988951
-0.099482112 -0.056595832 0.38976088
-0.098749883 -0.056579117 0.38964576
-0.098021723 -0.056564506 0.38954514
-0.097297907 -0.056552213 0.38946047
-0.096578099 -0.056542087 0.38939077
-0.09586174 -0.056533847 0.38933399
-0.095148526 -0.056527354 0.38928929
-0.094438493 -0.056522667 0.38925701
-0.093732156 -0.056520142 0.38923961
-0.093028694 -0.056519322 0.38923398
-0.092328012 -0.056520186 0.38923994
-0.09162993 -0.056522675 0.38925707
-0.090934679 -0.056526963 0.38928661
-0.090242483 -0.056533225 0.38932973
-0.089552693 -0.056541111 0.38938403
-0.088865109 -0.056550525 0.38944885
-0.088179633 -0.056561437 0.38952401
-0.087497339 -0.056574583 0.38961455
-0.086817175 -0.056589331 0.38971612
-0.086138897 -0.056605559 0.38982788
-0.085462406 -0.056623239 0.38994962
-0.084788509 -0.056642946 0.39008534
-0.08411663 -0.05666434 0.39023268
-0.08344654 -0.05668731 0.39039087
-0.082778141 -0.056711834 0.39055976
-0.082111724 -0.056738146 0.39074096
-0.081447609 -0.056766514 0.39093632
-0.080785014 -0.05679645 0.39114249
-0.080123931 -0.056827985 0.39135966
-0.079464525 -0.056861281 0.39158896
-0.078806944 -0.056896493 0.39183146
-0.078151092 -0.0569336 0.39208701
-0.077496633 -0.056972411 0.39235428
-0.076843709 -0.057013072 0.3926343
-0.076192245 -0.057055589 0.39292711
-0.07554242 -0.05710014 0.39323393
-0.074894406 -0.057146918 0.39355606
-0.074247658 -0.057195567 0.3938911
-0.0736022 -0.057246156 0.39423949
-0.072958261 -0.057298925 0.39460289
-0.072315954 -0.057354033 0.39498243
-0.071675479 -0.057411704 0.39537957
-0.071036518 -0.057471756 0.39579314
-0.070398904 -0.057534132 0.39622271
-0.06976264 -0.057598896 0.39666873
-0.069127902 -0.057666279 0.39713278
-0.068494529 -0.057736225 0.39761448
-0.067862637 -0.05780891 0.39811504
-0.067232519 -0.057884686 0.39863688
-0.066604309 -0.057963748 0.39918137
-0.065978155 -0.058046352 0.39975023
-0.065353997 -0.058132559 0.40034392
-0.064731523 -0.058222208 0.40096131
-0.064111188 -0.058315825 0.40160602
-0.06349273 -0.058413316 0.40227741
-0.062876448 -0.058515076 0.40297821
-0.06226315 -0.058622029 0.40371478
-0.061652996 -0.05873451 0.4044894
-0.061045419 -0.05885217 0.40529969
-0.060441528 -0.058976278 0.40615439
-0.059841428 -0.059107177 0.40705585
-0.059246007 -0.059246007 0.40801194
-0.058655906 -0.059393715 0.40902919
-0.058070332 -0.059549831 0.4101043
-0.057493009 -0.059718546 0.41126621
-0.056924179 -0.059900608 0.41252002
-0.056365892 -0.060098734 0.41388446
-0.055820368 -0.06031597 0.41538051
-0.055294134 -0.060560245 0.41706276
-0.054793149 -0.060839288 0.41898447
-0.054333106 -0.061172236 0.4212774
-0.053948622 -0.061600909 0.42422956
-0.053808205 -0.06232461 0.42921349
-0.12821969 -0.059092555 0.41207409
-0.12636875 -0.058579098 0.40849358
-0.12493641 -0.058254808 0.40623218
-0.12366927 -0.058004171 0.40448439
-0.12250305 -0.057798177 0.40304792
-0.12140173 -0.057620525 0.4018091
-0.12035144 -0.057465103 0.40072528
-0.1193405 -0.057326704 0.39976019
-0.11835895 -0.05720083 0.39888242
-0.11740818 -0.057088383 0.39809826
-0.11647863 -0.056984931 0.39737687
-0.11556627 -0.056888659 0.39670551
-0.11467401 -0.056801144 0.39609525
-0.1137978 -0.056720532 0.39553311
-0.11293463 -0.056645446 0.39500952
-0.11208358 -0.056575526 0.39452192
-0.11124339 -0.056510221 0.39406654
-0.11041517 -0.056450196 0.39364797
-0.10959666 -0.056394398 0.39325887
-0.10878685 -0.056342375 0.39289609
-0.10798514 -0.056293894 0.39255801
-0.10719062 -0.056248542 0.39224175
-0.10640328 -0.056206379 0.39194775
-0.10562328 -0.056167565 0.39167708
-0.10484988 -0.056131758 0.39142737
-0.10408285 -0.056098893 0.39119819
-0.10332142 -0.056068622 0.3909871
-0.10256537 -0.056040872 0.39079359
-0.10181413 -0.056015387 0.39061588
-0.10106752 -0.055992112 0.39045358
-0.10032562 -0.055971138 0.39030731
-0.099587984 -0.055952258 0.39017567
-0.098854773 -0.055935618 0.39005962
-0.098126419 -0.055921506 0.38996121
-0.097401671 -0.055909261 0.38987583
-0.096680529 -0.055898923 0.38980374
-0.095962681 -0.055890352 0.38974395
-0.095248215 -0.055883642 0.38969716
-0.094537728 -0.055879179 0.38966605
-0.093830422 -0.055876542 0.38964766
-0.093125649 -0.055875387 0.38963962
-0.092423819 -0.055875994 0.38964385
-0.091724761 -0.055878304 0.38965994
-0.091028988 -0.055882663 0.38969034
-0.090335749 -0.055888653 0.38973212
-0.089644946 -0.05589626 0.38978517
-0.08895649 -0.055905461 0.38984933
-0.088270411 -0.055916317 0.38992503
-0.0875872 -0.055929177 0.39001471
-0.086905926 -0.055943489 0.39011452
-0.086226828 -0.055959452 0.39022583
-0.085549727 -0.055976983 0.39034808
-0.084875166 -0.055996481 0.39048404
-0.084202528 -0.056017581 0.39063117
-0.0835317 -0.056040257 0.3907893
-0.082862735 -0.056064572 0.39095888
-0.082195625 -0.056090575 0.39114019
-0.081530772 -0.056118581 0.39133549
-0.080867551 -0.056148212 0.39154211
-0.080205932 -0.056179486 0.3917602
-0.079545885 -0.056212429 0.39198992
-0.07888747 -0.056247123 0.39223185
-0.078231223 -0.056284003 0.39248905
-0.077576347 -0.056322552 0.39275786
-0.076922894 -0.056362856 0.3930389
-0.07627093 -0.056405012 0.39333287
-0.075620539 -0.056449134 0.39364055
-0.074972011 -0.056495495 0.39396384
-0.074324869 -0.056543801 0.3943007
-0.073679045 -0.056594051 0.39465111
-0.07303454 -0.056646302 0.39501548
-0.072391681 -0.056700874 0.39539602
-0.071750276 -0.056757681 0.39579216
-0.071110867 -0.056817226 0.39620739
-0.070472777 -0.056879044 0.39663848
-0.069836184 -0.056943353 0.39708692
-0.069201112 -0.057010245 0.39755338
-0.068567485 -0.057079736 0.39803797
-0.067935459 -0.057152055 0.39854228
-0.067305103 -0.057227332 0.39906722
-0.066676043 -0.057305358 0.39961132
-0.066048793 -0.057386655 0.40017822
-0.065423951 -0.057471868 0.40077245
-0.064801216 -0.057560861 0.40139303
-0.064180531 -0.057653695 0.40204039
-0.063561976 -0.057750594 0.4027161
-0.062945582 -0.057851717 0.40342128
-0.06233165 -0.0579575 0.40415895
-0.061721172 -0.058069032 0.4049367
-0.061114293 -0.058186661 0.40575698
-0.060510434 -0.058310054 0.40661743
-0.059910387 -0.058440194 0.40752494
-0.059314165 -0.05857734 0.40848133
-0.0587245 -0.0587245 0.40950751
-0.05814131 -0.058881965 0.41060558
-0.057563864 -0.059049383 0.41177306
-0.056997061 -0.059232239 0.41304818
-0.056440823 -0.059431065 0.41443464
-0.055899274 -0.059650905 0.41596767
-0.055377994 -0.059898648 0.41769528
-0.054884389 -0.06018357 0.41968215
-0.05444235 -0.060533803 0.42212445
-0.054095197 -0.061000969 0.42538217
-0.12927331 -0.058828726 0.41546023
-0.12676191 -0.05802222 0.40976453
-0.12523593 -0.057659943 0.40720606
-0.12392382 -0.057392448 0.40531695
-0.12273005 -0.057176907 0.40379477
-0.12161146 -0.056994025 0.40250322
-0.12054927 -0.05683554 0.40138397
-0.11952467 -0.056692973 0.40037712
-0.11853945 -0.056567457 0.39949071
-0.11758028 -0.056452915 0.39868179
-0.11664394 -0.056347996 0.39794081
-0.11572848 -0.056251921 0.39726233
-0.11483312 -0.056164484 0.39664483
-0.11395254 -0.056083225 0.39607096
-0.11308577 -0.05600778 0.39553815
-0.1122312 -0.055937458 0.39504153
-0.11138893 -0.055872403 0.39458209
-0.11055799 -0.055812228 0.39415714
-0.10973682 -0.055756249 0.39376178
-0.10892396 -0.055703785 0.39339128
-0.10812011 -0.055655271 0.39304867
-0.10732355 -0.055609889 0.39272818
-0.10653488 -0.055568028 0.39243254
-0.10575338 -0.055529363 0.39215949
-0.10497828 -0.055493567 0.39190668
-0.10420892 -0.055460338 0.39167202
-0.10344559 -0.055429887 0.39145696
-0.1026874 -0.055401795 0.39125857
-0.10193422 -0.055376031 0.39107662
-0.10118584 -0.055352531 0.39091066
-0.10044225 -0.055331346 0.39076105
-0.099703997 -0.055312816 0.39063019
-0.098969817 -0.055296306 0.39051357
-0.098239571 -0.055281766 0.3904109
-0.0975134 -0.055269327 0.39032304
-0.096790634 -0.055258654 0.39024767
-0.096071243 -0.055249762 0.39018488
-0.095356159 -0.055243235 0.39013878
-0.094644375 -0.055238537 0.39010561
-0.093935497 -0.055235479 0.390084
-0.093229659 -0.055234175 0.39007479
-0.092526332 -0.05523435 0.39007604
-0.091826782 -0.055236798 0.39009333
-0.091129862 -0.055240884 0.39012218
-0.090435505 -0.055246592 0.3901625
-0.089743629 -0.055253919 0.39021423
-0.089053854 -0.055262666 0.39027601
-0.088367172 -0.055273492 0.39035246
-0.087682925 -0.05528602 0.39044094
-0.087000862 -0.055300143 0.39054069
-0.086320832 -0.0553158 0.39065126
-0.08564274 -0.055332962 0.39077246
-0.084967479 -0.055352256 0.39090872
-0.0842942 -0.055373177 0.39105645
-0.083622679 -0.055395614 0.39121491
-0.082952805 -0.055419531 0.39138383
-0.08228521 -0.055445399 0.39156651
-0.081619449 -0.055472963 0.39176115
-0.080955632 -0.055502333 0.39196858
-0.080293424 -0.055533335 0.39218754
-0.079632744 -0.055565961 0.39241794
-0.078973718 -0.055600327 0.39266065
-0.078316979 -0.05563695 0.39291927
-0.077661701 -0.055675283 0.39319
-0.077007905 -0.055715393 0.39347327
-0.07635539 -0.055757195 0.39376846
-0.075704403 -0.0558009 0.39407712
-0.075055227 -0.055846781 0.39440113
-0.074407674 -0.055894759 0.39473999
-0.073761657 -0.05594483 0.39509359
-0.073116913 -0.055996854 0.39546099
-0.072473772 -0.056051143 0.3958444
-0.071832024 -0.056107603 0.39624313
-0.071191519 -0.056166176 0.39665678
-0.070553176 -0.056227658 0.39709097
-0.069916226 -0.056291528 0.39754203
-0.069280937 -0.056358069 0.39801195
-0.068647273 -0.056427337 0.39850116
-0.068014883 -0.056499138 0.39900821
-0.067384511 -0.056574166 0.39953807
-0.066755645 -0.056652084 0.40008837
-0.066128373 -0.056733087 0.40066043
-0.065503053 -0.056817569 0.40125704
-0.064879805 -0.056905754 0.40187982
-0.064258829 -0.056997947 0.40253091
-0.063640542 -0.05709466 0.40321392
-0.063024163 -0.057195336 0.40392491
-0.062410377 -0.057300754 0.4046694
-0.061799396 -0.057411272 0.4054499
-0.061191838 -0.057527654 0.40627182
-0.060588043 -0.057650439 0.40713894
-0.059988271 -0.057780117 0.40805474
-0.059393648 -0.057918027 0.40902871
-0.058803517 -0.05806385 0.41005853
-0.05822086 -0.05822086 0.41116735
-0.057645842 -0.05838966 0.41235948
-0.057078838 -0.058571097 0.4136408
-0.056526311 -0.058772389 0.41506237
-0.055989061 -0.058995187 0.41663581
-0.055474281 -0.059248041 0.41842154
-0.05499104 -0.059542023 0.42049769
-0.054567557 -0.059909835 0.42309526
-0.054280344 -0.060439814 0.42683807
-0.12726709 -0.057511371 0.41139755
-0.12558387 -0.057083581 0.40833741
-0.12421515 -0.056794535 0.40626979
-0.12298885 -0.056567572 0.40464625
-0.12184883 -0.056377817 0.40328887
-0.12077204 -0.056215215 0.40212572
-0.11973628 -0.056069858 0.40108594
-0.11874164 -0.055942111 0.40017211
-0.11777531 -0.055826217 0.3993431
-0.11683305 -0.055720381 0.398586
-0.11591203 -0.05562342 0.39789242
-0.11501017 -0.055534508 0.3972564
-0.1141251 -0.055452637 0.39667076
-0.11325425 -0.055376682 0.39612743
-0.11239582 -0.05530588 0.39562094
-0.11155086 -0.05524084 0.3951557
-0.11071651 -0.055180255 0.39472231
-0.10989124 -0.055123441 0.3943159
-0.10907555 -0.055070717 0.39393875
-0.10826846 -0.055021677 0.39358795
-0.10746912 -0.054975953 0.39326087
-0.10667793 -0.05493382 0.39295948
-0.10589374 -0.054894749 0.39267999
-0.10511569 -0.054858357 0.39241967
-0.10434401 -0.054824818 0.39217976
-0.1035781 -0.054793876 0.39195842
-0.10281724 -0.054765195 0.39175326
-0.10206237 -0.054739334 0.39156827
-0.10131276 -0.05471595 0.39140099
-0.10056787 -0.054694805 0.39124975
-0.099827737 -0.054675967 0.39111498
-0.099091612 -0.054659072 0.39099413
-0.0983596 -0.05464422 0.39088789
-0.097631417 -0.054631297 0.39079544
-0.096906908 -0.054620255 0.39071646
-0.096186928 -0.054611623 0.39065471
-0.095470153 -0.054604698 0.39060518
-0.094756708 -0.054599591 0.39056864
-0.094046369 -0.054596204 0.39054441
-0.093339071 -0.05459455 0.39053258
-0.092634879 -0.054594699 0.39053366
-0.091933958 -0.054596797 0.39054865
-0.091235727 -0.054600533 0.39057538
-0.090540148 -0.054605924 0.39061394
-0.08984714 -0.054612964 0.39066431
-0.089156844 -0.054621782 0.39072737
-0.088469334 -0.054632459 0.39080375
-0.087784089 -0.054644711 0.3908914
-0.087100893 -0.054658458 0.39098972
-0.086419836 -0.054673772 0.39109927
-0.085741282 -0.054690942 0.39122209
-0.085065134 -0.054709941 0.39135802
-0.08439099 -0.054730557 0.39150548
-0.08371868 -0.054752726 0.39166406
-0.083048083 -0.054776393 0.39183336
-0.082379557 -0.054801855 0.39201549
-0.081713244 -0.054829232 0.39221135
-0.081048541 -0.054858185 0.39241844
-0.080385648 -0.054888878 0.392638
-0.079724476 -0.054921303 0.39286995
-0.079064839 -0.054955382 0.39311373
-0.078407325 -0.054991562 0.39337254
-0.077751592 -0.055029668 0.39364511
-0.077097401 -0.055069569 0.39393055
-0.076444581 -0.055111207 0.3942284
-0.075793184 -0.055154666 0.39453927
-0.075143278 -0.055200037 0.39486381
-0.074495316 -0.055247724 0.39520493
-0.073849089 -0.055297624 0.3955619
-0.073204234 -0.05534954 0.39593327
-0.072560735 -0.055403519 0.39631939
-0.071918763 -0.055459742 0.39672157
-0.071278177 -0.05551818 0.39713961
-0.07063932 -0.055579163 0.39757583
-0.070001706 -0.055642385 0.39802808
-0.069366343 -0.055708721 0.39850262
-0.068732187 -0.055777427 0.39899409
-0.068100289 -0.05584944 0.39950922
-0.067469493 -0.055923909 0.40004191
-0.066840924 -0.056001857 0.40059951
-0.066213943 -0.056082848 0.40117887
-0.065588631 -0.056167062 0.40178126
-0.064965487 -0.056255031 0.40241054
-0.064344384 -0.056346778 0.40306684
-0.063726112 -0.056443129 0.40375605
-0.06311024 -0.056543857 0.40447661
-0.062496599 -0.056648962 0.40522847
-0.061886117 -0.056759454 0.40601885
-0.061278999 -0.056875717 0.40685052
-0.060676079 -0.056998741 0.40773055
-0.060077265 -0.057128686 0.40866008
-0.059482645 -0.0572659 0.40964162
-0.058893535 -0.057411935 0.41068625
-0.058312383 -0.057569548 0.41181371
-0.057738934 -0.057738934 0.41302538
-0.057174511 -0.05792189 0.41433412
-0.056625195 -0.058125202 0.41578847
-0.056092039 -0.058350775 0.41740209
-0.055583652 -0.05860861 0.41924646
-0.055113681 -0.058914624 0.42143548
-0.054715808 -0.059307344 0.42424473
-0.054537192 -0.059952233 0.42885783
-0.12801979 -0.057105038 0.41383067
-0.12601423 -0.056540109 0.40973672
-0.12455752 -0.056216225 0.40738958
-0.12328971 -0.05597426 0.4056361
-0.12212169 -0.055774983 0.40419197
-0.12102596 -0.055606522 0.40297118
-0.11997773 -0.055457987 0.40189475
-0.11897038 -0.055326648 0.40094298
-0.11799422 -0.055208307 0.40008536
-0.11704297 -0.055100225 0.39930212
-0.11611393 -0.055001337 0.3985855
-0.11520699 -0.054911744 0.39793622
-0.11431526 -0.054828323 0.39733168
-0.11343818 -0.054750923 0.39677078
-0.1125753 -0.054679431 0.39625269
-0.11172529 -0.054613322 0.39577362
-0.11088571 -0.054551493 0.39532554
-0.11005639 -0.054493941 0.39490849
-0.10923643 -0.054440308 0.39451981
-0.10842572 -0.054390609 0.39415964
-0.10762386 -0.054344721 0.39382711
-0.10682905 -0.054301813 0.39351615
-0.10604173 -0.054262154 0.39322877
-0.10526118 -0.05422546 0.39296284
-0.1044872 -0.054191668 0.39271796
-0.10371863 -0.054160241 0.39249021
-0.10295587 -0.054131437 0.39228147
-0.10219852 -0.054105096 0.39209059
-0.1014467 -0.054081343 0.39191845
-0.10069971 -0.054059844 0.39176264
-0.099956878 -0.05404029 0.39162096
-0.09921854 -0.054022904 0.39149496
-0.098484367 -0.054007556 0.39138374
-0.097755119 -0.053994704 0.39129061
-0.097029418 -0.05398364 0.39121041
-0.096307278 -0.053974405 0.3911435
-0.095588796 -0.053967107 0.3910906
-0.094873607 -0.053961568 0.39105046
-0.094161734 -0.05395785 0.39102352
-0.093453079 -0.053955927 0.3910096
-0.09274777 -0.053955927 0.3910096
-0.092045471 -0.05395769 0.39102235
-0.091345981 -0.053961139 0.39104736
-0.090649202 -0.053966254 0.39108443
-0.089955047 -0.05397303 0.39113352
-0.089263782 -0.053981654 0.39119601
-0.088575222 -0.05399207 0.3912715
-0.087888792 -0.054003958 0.39135766
-0.087204628 -0.054017439 0.39145535
-0.086522795 -0.054032601 0.39156523
-0.085843459 -0.054049585 0.39168832
-0.085166343 -0.05406826 0.39182365
-0.084491327 -0.054088589 0.39197096
-0.083818242 -0.054110512 0.39212984
-0.083147012 -0.054134011 0.39230013
-0.082477495 -0.054159045 0.39248154
-0.081810497 -0.054186173 0.39267814
-0.081145316 -0.054214995 0.392887
-0.080481879 -0.054245494 0.39310804
-0.079820171 -0.054277718 0.39334154
-0.079160161 -0.054311682 0.39358768
-0.078501679 -0.054347318 0.39384592
-0.077845216 -0.054385014 0.39411911
-0.077190392 -0.054424562 0.39440569
-0.076537266 -0.054466054 0.3947064
-0.075885713 -0.054509453 0.3950209
-0.075235598 -0.054554719 0.39534894
-0.074587137 -0.054602068 0.39569205
-0.073940322 -0.054651543 0.3960506
-0.073295124 -0.054703187 0.39642486
-0.072651744 -0.054757226 0.39681646
-0.072009787 -0.054813419 0.39722368
-0.071369171 -0.054871775 0.39764658
-0.070730157 -0.054932557 0.39808705
-0.070092723 -0.054995827 0.39854556
-0.069456965 -0.055061739 0.39902321
-0.068822756 -0.055130273 0.39951986
-0.068190403 -0.055201754 0.40003788
-0.067559965 -0.055276334 0.40057835
-0.066931345 -0.055354029 0.40114141
-0.066304728 -0.055435102 0.40172893
-0.065679781 -0.055519376 0.40233964
-0.065057084 -0.055607453 0.40297791
-0.064436235 -0.055699117 0.40364221
-0.063818328 -0.055795453 0.40434033
-0.063203454 -0.055896696 0.405074
-0.062590964 -0.056002442 0.40584034
-0.061981365 -0.056113306 0.40664375
-0.061374832 -0.056229636 0.40748677
-0.060772337 -0.056352533 0.40837738
-0.060175084 -0.056483362 0.40932548
-0.059582599 -0.056621972 0.41032997
-0.058995083 -0.056768853 0.41139439
-0.058415435 -0.056927145 0.41254151
-0.057844575 -0.057098195 0.41378108
-0.05728481 -0.05728481 0.41513345
-0.056738425 -0.057489928 0.4166199
-0.056211837 -0.057720881 0.41829357
-0.055713296 -0.05798731 0.42022434
-0.055259958 -0.058308784 0.42255402
-0.05490436 -0.058743827 0.42570668
-0.12656814 -0.0560463 0.41153774
-0.12496735 -0.055663925 0.40873003
-0.1236432 -0.05540096 0.40679914
-0.1224393 -0.055189054 0.40524316
-0.12131693 -0.055011582 0.40393999
-0.12024824 -0.054856446 0.40280086
-0.11922533 -0.054720443 0.40180221
-0.11823677 -0.054598629 0.40090775
-0.11727353 -0.054487087 0.40008873
-0.11633623 -0.054386284 0.39934856
-0.11541998 -0.054294132 0.3986719
-0.11452022 -0.054208633 0.39804408
-0.11363623 -0.054129563 0.3974635
-0.11276758 -0.054056846 0.39692953
-0.11191162 -0.053989314 0.39643368
-0.11106719 -0.053926516 0.39597255
-0.1102333 -0.053868052 0.39554328
-0.1094092 -0.053813647 0.39514378
-0.10859457 -0.053763218 0.39477348
-0.10778841 -0.053716335 0.39442924
-0.10698994 -0.053672697 0.3941088
-0.10619894 -0.053632241 0.39381176
-0.10541455 -0.0535946 0.39353538
-0.10463706 -0.053559985 0.39328119
-0.10386552 -0.053527962 0.39304605
-0.1030997 -0.053498469 0.39282948
-0.10233992 -0.053471725 0.39263311
-0.10158539 -0.053447366 0.39245424
-0.1008356 -0.053425174 0.39229131
-0.10009062 -0.053405244 0.39214495
-0.099350639 -0.053387709 0.3920162
-0.09861467 -0.053372096 0.39190155
-0.097882949 -0.053358577 0.39180228
-0.097155228 -0.053347055 0.39171767
-0.096431188 -0.053337399 0.39164677
-0.095710821 -0.053329647 0.39158985
-0.094993941 -0.053323735 0.39154646
-0.09428069 -0.053319789 0.39151749
-0.093570814 -0.053317711 0.3915022
-0.092864022 -0.053317364 0.39149967
-0.092160225 -0.053318754 0.39150986
-0.09145923 -0.053321794 0.39153218
-0.090761065 -0.05332654 0.39156705
-0.090066053 -0.05333323 0.39161617
-0.089373603 -0.053341556 0.39167732
-0.08868365 -0.053351518 0.39175045
-0.08799614 -0.053363122 0.39183566
-0.087310985 -0.053376351 0.39193279
-0.086628117 -0.053391207 0.39204189
-0.085947707 -0.053407837 0.39216399
-0.085269883 -0.053426359 0.39230001
-0.084593982 -0.053446408 0.3924472
-0.083919987 -0.053468008 0.39260581
-0.083248034 -0.053491287 0.39277676
-0.082577661 -0.053515997 0.39295819
-0.081910126 -0.053542983 0.39315635
-0.081244312 -0.053571578 0.39336631
-0.08058022 -0.05360182 0.39358836
-0.079918049 -0.053633891 0.39382386
-0.079257436 -0.053667594 0.39407134
-0.078598484 -0.053703036 0.39433157
-0.077941656 -0.053740595 0.39460737
-0.077286445 -0.053779967 0.39489648
-0.076632842 -0.053821202 0.39519927
-0.075980924 -0.053864412 0.39551654
-0.075330682 -0.053909633 0.3958486
-0.074681923 -0.053956795 0.39619491
-0.074034803 -0.054006062 0.39655665
-0.073389418 -0.054057576 0.3969349
-0.072745509 -0.05411119 0.39732859
-0.072103612 -0.05416739 0.39774126
-0.071463041 -0.054225724 0.39816958
-0.070824087 -0.05428648 0.39861572
-0.070186883 -0.054349847 0.39908099
-0.069551349 -0.054415818 0.39956543
-0.068917416 -0.054484449 0.40006936
-0.068285428 -0.054556079 0.40059534
-0.067655064 -0.054630563 0.40114224
-0.06702669 -0.054708272 0.40171286
-0.066400424 -0.05478942 0.4023087
-0.06577611 -0.054873995 0.40292972
-0.065154001 -0.054962315 0.40357825
-0.064534232 -0.055054627 0.40425608
-0.063916884 -0.055151138 0.40496475
-0.063302018 -0.055252049 0.40570572
-0.062690429 -0.05535822 0.40648529
-0.062082414 -0.055470083 0.4073067
-0.061478134 -0.055588014 0.40817264
-0.060877323 -0.055711973 0.40908286
-0.060281124 -0.055843249 0.41004679
-0.059691284 -0.055983748 0.41107845
-0.059107158 -0.056133211 0.41217592
-0.058530301 -0.056293473 0.4133527
-0.057963517 -0.056467686 0.4146319
-0.057409011 -0.056658566 0.41603351
-0.056868922 -0.056868922 0.4175781
-0.05635225 -0.057108656 0.41933843
-0.055866268 -0.057386439 0.42137814
-0.055439971 -0.057734039 0.4239305
-0.055155817 -0.058241457 0.42765638
-0.12741895 -0.05567573 0.4143042
-0.12548782 -0.055155411 0.41043231
-0.12406043 -0.054851644 0.40817186
-0.12280405 -0.054620307 0.40645039
-0.1216464 -0.054430369 0.40503699
-0.12055068 -0.054266017 0.40381399
-0.11950772 -0.054123554 0.40275386
-0.11850179 -0.053996228 0.40180638
-0.1175252 -0.053880781 0.4009473
-0.1165766 -0.053776823 0.40017369
-0.11564877 -0.053681202 0.39946216
-0.1147392 -0.053592917 0.3988052
-0.11384791 -0.053512111 0.39820388
-0.11297218 -0.053437635 0.39764968
-0.11210895 -0.053368162 0.39713269
-0.11125796 -0.053303648 0.39665264
-0.11041816 -0.053243712 0.39620662
-0.10958859 -0.053187951 0.39579168
-0.10876896 -0.053136315 0.39540744
-0.10795791 -0.053088214 0.39504951
-0.10715531 -0.053043656 0.39471793
-0.10636017 -0.053002223 0.39440963
-0.10557237 -0.052963916 0.39412457
-0.10479116 -0.052928414 0.39386037
-0.10401701 -0.052896023 0.39361933
-0.1032485 -0.052866068 0.39339644
-0.10248549 -0.052838542 0.39319161
-0.10172828 -0.052813634 0.39300627
-0.10097601 -0.052790962 0.39283755
-0.1002286 -0.052770536 0.39268553
-0.099485971 -0.05275235 0.3925502
-0.098747618 -0.052736185 0.39242992
-0.098013371 -0.052721996 0.39232433
-0.09728352 -0.052709978 0.39223492
-0.096557498 -0.052699879 0.39215976
-0.095835239 -0.052691702 0.3920989
-0.095116772 -0.052685499 0.39205274
-0.094402015 -0.052681271 0.3920213
-0.093690515 -0.052678816 0.39200303
-0.092982069 -0.052678052 0.39199734
-0.092276581 -0.052678969 0.39200416
-0.091574036 -0.052681588 0.39202365
-0.09087462 -0.052686062 0.39205694
-0.090178363 -0.052692454 0.39210451
-0.089484528 -0.052700374 0.39216346
-0.088793308 -0.052709971 0.39223486
-0.088104598 -0.052721225 0.39231861
-0.087418325 -0.052734129 0.39241463
-0.086734489 -0.052748732 0.39252329
-0.086053468 -0.052765295 0.39264655
-0.085374422 -0.052783355 0.39278093
-0.084697604 -0.05280311 0.39292794
-0.084022723 -0.052824412 0.39308646
-0.083349943 -0.052847411 0.39325759
-0.082679138 -0.052872069 0.39344108
-0.082010746 -0.052898705 0.3936393
-0.081344388 -0.052927136 0.39385086
-0.080679603 -0.052957099 0.39407381
-0.080017023 -0.052989051 0.39431161
-0.079356007 -0.053022623 0.39456141
-0.078696772 -0.053058006 0.39482471
-0.078039244 -0.053095192 0.39510143
-0.077383503 -0.053134296 0.39539242
-0.076729774 -0.05317552 0.39569917
-0.076077685 -0.053218663 0.39602023
-0.075427167 -0.053263731 0.3963556
-0.0747784 -0.05331092 0.39670673
-0.074131303 -0.053360213 0.39707354
-0.073485687 -0.053411547 0.39745554
-0.072841741 -0.05346512 0.39785421
-0.072199404 -0.053520948 0.39826965
-0.071558967 -0.05357933 0.39870408
-0.070920043 -0.053640034 0.3991558
-0.070283189 -0.053703561 0.39962855
-0.069647782 -0.053769533 0.40011945
-0.069014281 -0.053838365 0.40063167
-0.068382427 -0.053909957 0.40116441
-0.067752756 -0.053984817 0.40172148
-0.067125015 -0.054062851 0.40230215
-0.066498935 -0.054143939 0.40290555
-0.065875538 -0.054229032 0.40353876
-0.065254278 -0.05431781 0.40419939
-0.064635761 -0.054410893 0.40489206
-0.064019904 -0.054508377 0.40561748
-0.063406758 -0.054610446 0.40637702
-0.062796541 -0.054717451 0.40717328
-0.062189739 -0.054830007 0.40801084
-0.0615872 -0.054949056 0.40889674
-0.060989089 -0.055074997 0.40983391
-0.060395595 -0.05520824 0.41082543
-0.059808165 -0.055350412 0.41188338
-0.059228044 -0.055503011 0.41301891
-0.058655631 -0.055666808 0.4142378
-0.058094557 -0.055845737 0.41556928
-0.057546992 -0.056042496 0.41703343
-0.057016674 -0.056261487 0.41866302
-0.056513429 -0.056513429 0.42053783
-0.056050077 -0.056812663 0.42276454
-0.055665083 -0.05720067 0.42565185
-0.055609226 -0.057942484 0.43117195
-0.12618527 -0.054717507 0.41271347
-0.1245653 -0.054335605 0.40983292
-0.12322553 -0.054072101 0.40784541
-0.12201726 -0.053863477 0.40627185
-0.12088857 -0.053687673 0.40494582
-0.11981806 -0.05353573 0.40379977
-0.11879052 -0.053401243 0.40278539
-0.1177969 -0.053280443 0.40187424
-0.11683326 -0.053171795 0.40105474
-0.11589277 -0.053072389 0.40030497
-0.11497209 -0.05298087 0.39961466
-0.11407179 -0.052897643 0.39898694
-0.11318667 -0.052820448 0.39840466
-0.11231498 -0.052748565 0.39786249
-0.11145686 -0.05268218 0.39736176
-0.11061087 -0.052620701 0.39689806
-0.10977591 -0.052563708 0.39646819
-0.10895067 -0.052510653 0.39606801
-0.10813487 -0.052461471 0.39569706
-0.10732722 -0.052415617 0.39535117
-0.10652756 -0.052373081 0.39503035
-0.10573551 -0.052333739 0.39473361
-0.10495052 -0.052297376 0.39445934
-0.10417238 -0.052263957 0.39420727
-0.10340037 -0.052233178 0.39397511
-0.10263411 -0.052204896 0.39376178
-0.10187346 -0.052179091 0.39356714
-0.10111807 -0.05215564 0.39339027
-0.10036791 -0.052134566 0.39323133
-0.099622339 -0.052115601 0.39308828
-0.098881647 -0.05209893 0.39296255
-0.098145179 -0.052084263 0.39285192
-0.097413115 -0.052071739 0.39275745
-0.096685529 -0.052061439 0.39267975
-0.095961429 -0.052052878 0.39261517
-0.095241025 -0.05204621 0.39256489
-0.094524249 -0.052041441 0.39252892
-0.093810722 -0.052038398 0.39250597
-0.093100511 -0.052037168 0.39249668
-0.092393562 -0.052037753 0.39250109
-0.091689646 -0.05204007 0.39251858
-0.090989232 -0.052044425 0.39255142
-0.090291411 -0.052050345 0.39259607
-0.089596272 -0.052057914 0.39265317
-0.088903829 -0.052067183 0.39272308
-0.088213935 -0.052078106 0.39280546
