# .PCD v0.7 - Point Cloud Data file format
VERSION 0.7
FIELDS x y z
SIZE 4 4 4
TYPE F F F
COUNT 1 1 1
WIDTH 88
HEIGHT 1
VIEWPOINT 0 0 0 1 0 0 0
POINTS 88
DATA ascii
-0.23879275 0.0029584942 0.46861088
-0.23789918 0.0021203137 0.47018608
-0.24601991 0.00041487339 0.45999727
-0.24295975 0.0054930029 0.46849629
-0.25028548 0.0012535165 0.46328527
-0.25851804 -0.0045645237 0.46008965
-0.23247455 -0.0029749942 0.4712244
-0.24902269 -0.0012430417 0.45941389
-0.25908792 -0.0053718388 0.45816225
-0.26227933 -0.0077986028 0.45509586
-0.22920981 -0.0062172641 0.45956585
-0.22940828 -0.0055953241 0.47722322
-0.23932503 -0.0012443243 0.45988789
-0.22937147 -0.0046465676 0.46835941
-0.23982893 -0.0068986327 0.44993913
-0.23523049 -0.0004238387 0.46993771
-0.24927694 -0.0068905824 0.44941407
-0.24973837 -0.00041553806 0.46073422
-0.25878498 -0.0093146395 0.44903263
-0.24980247 -0.010024176 0.44457841
-0.25771287 -0.010082663 0.44717234
-0.2199887 -0.01201445 0.45935193
-0.21940318 -0.019872006 0.44966111
-0.21975005 -0.010585262 0.46946293
-0.22993256 -0.01013812 0.44963187
-0.22001919 -0.01051717 0.46644297
-0.21582787 -0.018673236 0.48149392
-0.23960589 -0.010033747 0.44500288
-0.22190231 -0.010369267 0.45988339
-0.21637459 -0.015979759 0.4788596
-0.23982543 -0.015459821 0.4395209
-0.22053705 -0.01074742 0.47665471
-0.24950138 -0.014676552 0.43980685
-0.25330472 -0.01625273 0.43952352
-0.21875377 -0.02069841 0.44999373
-0.21147504 -0.024156468 0.4698922
-0.22026303 -0.02061177 0.44811016
-0.21349795 -0.021971634 0.45964882
-0.22971798 -0.021821225 0.43990219
-0.21228024 -0.028102273 0.4793666
-0.23933318 -0.020108718 0.43717358
-0.24940892 -0.020094557 0.43686569
-0.25201729 -0.020114057 0.43728963
-0.21709608 -0.039361343 0.44992265
-0.21067162 -0.035182584 0.46999076
-0.22013021 -0.03984075 0.44620249
-0.21256708 -0.039364275 0.45942891
-0.22991681 -0.039968327 0.43876731
-0.21245612 -0.036779571 0.47976375
-0.23995692 -0.039665546 0.43544343
-0.24996904 -0.038064357 0.43509737
-0.25095594 -0.039665964 0.43544802
-0.23138469 -0.049610782 0.44005376
-0.21508059 -0.048230194 0.48176551
-0.21439095 -0.04934724 0.45978582
-0.22975782 -0.04563411 0.43997845
-0.25344661 -0.059891138 0.43976969
-0.21296245 -0.049535997 0.4694342
-0.22002468 -0.049839843 0.44927394
-0.21397813 -0.047118414 0.47929606
-0.23940292 -0.049300436 0.43730095
-0.25490078 -0.069808505 0.4422929
-0.22260529 -0.059604693 0.44957566
-0.2147714 -0.058034874 0.4696866
-0.23772585 -0.059927553 0.44003707
-0.21606052 -0.055855323 0.48008102
-0.21641774 -0.059180103 0.47895512
-0.23981991 -0.059855878 0.43951079
-0.22009747 -0.059209894 0.45275781
-0.23060727 -0.020242635 0.44008496
-0.21350296 -0.026524808 0.4821277
-0.24989055 -0.059799485 0.43909669
-0.21953769 -0.049913373 0.44993678
-0.22009091 -0.069784924 0.45784089
-0.21819314 -0.06697017 0.47905943
-0.23991029 -0.060671531 0.43967643
-0.21743076 -0.069933869 0.46994093
-0.22579695 -0.069320068 0.44947192
-0.2495687 -0.063880064 0.43992552
-0.21676812 -0.059269294 0.45955065
-0.2535634 -0.060712364 0.43997234
-0.21289763 -0.037723206 0.48076075
-0.21777886 -0.063645117 0.48005104
-0.23950371 -0.069739014 0.44185263
-0.24942288 -0.049254123 0.43689016
-0.21923487 -0.069210254 0.4595086
-0.24946848 -0.069628365 0.44115156
-0.25202391 -0.049300451 0.4373011
