# .PCD v0.7 - Point Cloud Data file format
VERSION 0.7
FIELDS x y z
SIZE 4 4 4
TYPE F F F
COUNT 1 1 1
WIDTH 73
HEIGHT 1
VIEWPOINT 0 0 0 1 0 0 0
POINTS 73
DATA ascii
-0.097503729 -0.035841294 0.42730737
-0.10161123 -0.036426667 0.42514345
-0.072256848 -0.041010644 0.43305889
-0.11059523 -0.039633103 0.41851252
-0.11085662 -0.039237913 0.42238486
-0.079136789 -0.038243137 0.41982841
-0.10943758 -0.039003707 0.4198637
-0.080298193 -0.040334117 0.41028509
-0.08978875 -0.03879761 0.40968996
-0.11495609 -0.04135384 0.42065787
-0.072235562 -0.040560074 0.42830104
-0.10964336 -0.040040407 0.41491047
-0.071583338 -0.041283514 0.4199425
-0.099566907 -0.040047206 0.40736657
-0.11854033 -0.044310603 0.41991508
-0.10888418 -0.041708179 0.40924412
-0.12304083 -0.049291588 0.41719702
-0.060547501 -0.050520524 0.42759857
-0.0669223 -0.048435476 0.409951
-0.07968238 -0.047232542 0.39976954
-0.070158325 -0.050528534 0.40305245
-0.060153905 -0.051830724 0.41947529
-0.11950165 -0.050374541 0.40769014
-0.099298224 -0.050182976 0.39461806
-0.057183262 -0.055668473 0.41988626
-0.1317071 -0.068278752 0.4136892
-0.061899487 -0.049441729 0.43164787
-0.052308831 -0.067807749 0.42961648
-0.12001743 -0.058747269 0.39961314
-0.064706706 -0.050656103 0.40996888
-0.12676191 -0.05802222 0.40976453
-0.065292031 -0.058798898 0.39996433
-0.1097251 -0.050005868 0.39888328
-0.1193405 -0.057326704 0.39976019
-0.12519699 -0.051062219 0.41937795
-0.12932891 -0.060751043 0.41324329
-0.10514693 -0.059430875 0.38991064
-0.074635066 -0.050117265 0.39977187
-0.067041159 -0.044315342 0.41995999
-0.077793665 -0.038316283 0.429129
-0.055803183 -0.066889904 0.40975258
-0.055609226 -0.057942484 0.43117195
-0.10999324 -0.065714814 0.38963804
-0.065535188 -0.045370515 0.42995948
-0.075694151 -0.039205689 0.43039519
-0.052639939 -0.067788124 0.41989458
-0.089943103 -0.050126396 0.39417315
-0.056967035 -0.055416908 0.42968079
-0.11218908 -0.069986299 0.38994163
-0.087801635 -0.035971597 0.42886087
-0.060326971 -0.060326971 0.4053846
-0.089644946 -0.05589626 0.38978517
-0.078712165 -0.041019015 0.40973392
-0.08589229 -0.036702871 0.4195348
-0.061666574 -0.068157792 0.39984658
-0.099482112 -0.056595832 0.38976088
-0.080958478 -0.040294405 0.40988111
-0.099360138 -0.036646135 0.41888624
-0.07017456 -0.060200512 0.39496005
-0.089769095 -0.044343773 0.39973041
-0.097987704 -0.038825318 0.40998256
-0.073500596 -0.069983825 0.38992786
-0.059482645 -0.0572659 0.40964162
-0.11995307 -0.049826659 0.4092302
-0.10980931 -0.060377464 0.39148799
-0.12952091 -0.066051975 0.40914047
-0.099865995 -0.045065884 0.39973995
-0.10239741 -0.039554235 0.40987259
-0.089845344 -0.060479552 0.3876164
-0.11972949 -0.060044516 0.3986544
-0.10930037 -0.048698183 0.39996195
-0.099760421 -0.060556326 0.38810843
-0.12366832 -0.066701569 0.3997643
