# .PCD v0.7 - Point Cloud Data file format
VERSION 0.7
FIELDS x y z
SIZE 4 4 4
TYPE F F F
COUNT 1 1 1
WIDTH 71
HEIGHT 1
VIEWPOINT 0 0 0 1 0 0 0
POINTS 71
DATA ascii
-0.019922655 -0.0648546 0.46999046
-0.003813731 -0.068223409 0.46983701
-0.029218277 -0.067329071 0.46951038
-0.030913439 -0.068178952 0.46953085
-0.009519564 -0.0699481 0.45891145
-0.013686001 -0.068430007 0.45983529
-0.025296539 -0.069254458 0.45980209
-0.00042269856 -0.07059066 0.46867356
0.007195916 -0.079155073 0.4693284
-0.010317843 -0.070574053 0.45760274
-0.041005049 -0.077360041 0.46871114
0.0037326941 -0.079216063 0.45985356
-0.037742116 -0.077557974 0.45985883
-0.002903172 -0.072579302 0.45984811
-0.0085221324 -0.079134084 0.44995454
-0.029519921 -0.070265725 0.46099532
-0.019075017 -0.076705925 0.44999406
-0.038533527 -0.074102938 0.46950155
-0.027989389 -0.079911739 0.4497633
-0.029440541 -0.070906095 0.45975569
-0.029658025 -0.080036037 0.45046291
0.010596815 -0.08858937 0.46997526
-0.034483552 -0.088034481 0.44981375
-0.043638002 -0.081768297 0.46975058
-0.00040928417 -0.080628984 0.45380014
-0.00040583534 -0.089689612 0.44997621
-0.010113974 -0.080507234 0.44856098
-0.029627256 -0.080764711 0.44999558
0.0070480048 -0.086649001 0.45968142
0.010588801 -0.098687619 0.46961984
-0.035300311 -0.09778592 0.44988236
-0.045984939 -0.097454317 0.46776614
-0.00040607087 -0.099487364 0.45023733
0.0097392518 -0.085112594 0.469502
-0.039383758 -0.080011211 0.4596563
-0.0012165015 -0.099347621 0.44960493
0.0070423316 -0.099835403 0.4593114
-0.042717498 -0.087508664 0.45984161
-0.010839767 -0.099966735 0.4451392
-0.02882535 -0.11989675 0.4631964
-0.013391096 -0.11159246 0.44992679
-0.041860778 -0.10320132 0.45954239
-0.012029864 -0.11988382 0.4599413
-0.030420545 -0.10667472 0.44972333
-0.043314833 -0.10639469 0.46627176
-0.0095369769 -0.11900489 0.45975089
-0.026372125 -0.10995148 0.44985387
-0.03946925 -0.1092675 0.46065408
-0.029695159 -0.10942463 0.45102692
0.0063164188 -0.10906349 0.4668951
-0.038572095 -0.10990973 0.45986456
0.00041447731 -0.11232335 0.4595581
-0.041748811 -0.11006504 0.46757209
0.0096608391 -0.099548645 0.46572194
-0.039786529 -0.099671409 0.45478275
-0.0093344329 -0.10998397 0.44998682
0.0037317134 -0.10821968 0.45973274
0.0046306304 -0.1115561 0.46675301
-0.030274723 -0.11736639 0.45982966
-0.022314832 -0.11157416 0.44985297
-0.034812555 -0.11702051 0.46504766
-0.00041107836 -0.10975792 0.45578948
-0.030090412 -0.12163307 0.46990433
-0.042661086 -0.099818662 0.45923436
-0.010138243 -0.10989854 0.44963729
-0.0088086138 -0.1212233 0.46508029
-0.02940399 -0.09949021 0.44660449
-0.0021112184 -0.11865048 0.46816921
-0.028611571 -0.11817823 0.45976117
-0.013966603 -0.1240065 0.46926323
-0.028370891 -0.12237593 0.46950242
