# .PCD v0.7 - Point Cloud Data file format
VERSION 0.7
FIELDS x y z
SIZE 4 4 4
TYPE F F F
COUNT 1 1 1
WIDTH 1416
HEIGHT 1
VIEWPOINT 0 0 0 1 0 0 0
POINTS 1416
DATA ascii
0.13659957 -0.10934779 0.37769797
0.13728839 -0.10935378 0.37771866
0.13798277 -0.10936412 0.37775439
0.13868298 -0.10937896 0.37780562
0.13938934 -0.10939847 0.37787303
0.14010198 -0.10942272 0.37795678
0.1408212 -0.10945184 0.37805736
0.14154752 -0.10948615 0.37817588
0.14228089 -0.10952558 0.37831208
0.14302289 -0.10957124 0.37846979
0.14377424 -0.10962359 0.37865061
0.14453393 -0.10968178 0.37885159
0.14530317 -0.10974663 0.37907562
0.14608425 -0.10981978 0.37932825
0.14687705 -0.10990101 0.37960884
0.14768066 -0.10998953 0.37991461
0.14850225 -0.11009058 0.38026363
0.14933652 -0.11020005 0.38064176
0.15019172 -0.1103239 0.38106954
0.15106405 -0.11045913 0.38153666
0.15196228 -0.110612 0.38206467
0.15288793 -0.11078335 0.38265654
0.15384471 -0.11097563 0.38332069
0.15484126 -0.11119473 0.38407749
0.15588978 -0.11144905 0.38495591
0.15700901 -0.11175142 0.38600037
0.15822868 -0.1121223 0.38728142
0.15962444 -0.11261417 0.38898036
0.16149156 -0.1134328 0.391808
0.10713346 -0.11506927 0.39995244
0.10749298 -0.11468314 0.39861035
0.10787266 -0.11432352 0.39736038
0.1082705 -0.11398775 0.39619336
0.1086868 -0.11367571 0.39510876
0.10911859 -0.11338381 0.3940942
0.10956388 -0.11310964 0.39314124
0.11002328 -0.11285346 0.39225084
0.11049543 -0.11261355 0.39141697
0.11097853 -0.11238778 0.39063224
0.1114701 -0.11217339 0.38988706
0.11196952 -0.11196952 0.38917845
0.11247797 -0.11177716 0.3885099
0.11299358 -0.11159427 0.38787422
0.11351445 -0.1114188 0.38726431
0.11404229 -0.11125226 0.38668546
0.11457533 -0.1110928 0.3861312
0.1151128 -0.11093953 0.38559845
0.11565743 -0.11079495 0.38509595
0.11620472 -0.11065464 0.3846083
0.11675803 -0.1105217 0.38414618
0.11731519 -0.11039393 0.38370213
0.11787646 -0.11027152 0.38327664
0.11844242 -0.11015491 0.38287133
0.11901214 -0.11004311 0.38248274
0.11958563 -0.10993607 0.38211071
0.12016317 -0.10983396 0.3817558
0.12074459 -0.10973653 0.38141716
0.12132993 -0.10964376 0.38109472
0.12191851 -0.10955495 0.380786
0.12251202 -0.10947152 0.38049605
0.1231075 -0.10939079 0.38021544
0.12370861 -0.10931592 0.3799552
0.12431265 -0.10924445 0.3797068
0.1249199 -0.10917657 0.37947085
0.12553203 -0.10911367 0.37925225
0.12614684 -0.10905377 0.37904403
0.1267657 -0.108998 0.37885019
0.12738888 -0.10894652 0.37867126
0.12801555 -0.10889856 0.37850457
0.12864552 -0.10885391 0.37834936
0.12928054 -0.10881396 0.37821051
0.12991925 -0.10877752 0.37808388
0.13056149 -0.10874443 0.37796885
0.13120747 -0.10871476 0.37786573
0.13185868 -0.10868971 0.37777865
0.13251387 -0.10866819 0.37770385
0.13317338 -0.1086504 0.37764204
0.13383713 -0.10863625 0.37759283
0.13450526 -0.10862577 0.37755641
0.13517801 -0.10861912 0.37753329
0.13585559 -0.10861637 0.37752375
0.1365384 -0.10861783 0.37752882
0.13722624 -0.10862324 0.37754765
0.13791959 -0.10863296 0.37758142
0.13861863 -0.10864704 0.37763035
0.13932368 -0.10866565 0.37769505
0.14003469 -0.10868872 0.37777522
0.14075221 -0.10871661 0.37787214
0.14147651 -0.10874941 0.37798616
0.14220771 -0.10878719 0.3781175
0.14294626 -0.10883021 0.37826699
0.14369428 -0.10887999 0.37844002
0.14445087 -0.10893577 0.37863389
0.14521617 -0.10899755 0.37884861
0.14599214 -0.10906673 0.37908909
0.14678051 -0.10914447 0.3793593
0.14757942 -0.10922932 0.3796542
0.14839339 -0.10932446 0.37998489
0.14922187 -0.10942937 0.38034955
0.15006784 -0.10954609 0.38075522
0.15093039 -0.10967379 0.38119909
0.15181866 -0.10981894 0.38170359
0.1527296 -0.1099791 0.38226026
0.15366969 -0.11015872 0.38288456
0.15464669 -0.11036307 0.38359487
0.15566947 -0.11059812 0.38441184
0.15674892 -0.1108712 0.38536096
0.15791295 -0.1112014 0.38650867
0.15920123 -0.11161581 0.38794908
0.16073623 -0.11219882 0.38997546
0.10694248 -0.114144 0.39923948
0.10731208 -0.11377233 0.39793953
0.10770184 -0.11342685 0.39673114
0.10811038 -0.11310558 0.39560744
0.10853606 -0.11280633 0.39456075
0.10897662 -0.11252634 0.39358145
0.10943068 -0.11226384 0.39266327
0.10989854 -0.11201877 0.39180613
0.11037733 -0.1117879 0.3909986
0.11086623 -0.11157015 0.39023697
0.11136268 -0.11136268 0.38951132
0.11186679 -0.11116543 0.38882142
0.11237989 -0.11097953 0.38817117
0.11289867 -0.11080148 0.38754842
0.11342244 -0.1106305 0.3869504
0.11395367 -0.11046885 0.38638499
0.11448916 -0.11031327 0.3858408
0.11502989 -0.11016458 0.38532072
0.11557607 -0.11002287 0.38482508
0.1161254 -0.10988582 0.38434574
0.11668089 -0.10975621 0.38389239
0.11723932 -0.10963087 0.38345399
0.1178029 -0.10951179 0.38303748
0.11836983 -0.10939718 0.38263664
0.11894123 -0.10928804 0.38225487
0.11951651 -0.10918366 0.38188982
0.12009533 -0.10908372 0.38154024
0.12067797 -0.10898837 0.38120672
0.12126487 -0.10889792 0.38089037
0.12185442 -0.10881085 0.38058582
0.12244906 -0.10872928 0.38030052
0.12304606 -0.1086507 0.38002568
0.12364803 -0.10857735 0.37976912
0.12425321 -0.10850763 0.37952524
0.1248614 -0.10844126 0.37929314
0.12547459 -0.10837996 0.37907872
0.12609036 -0.10832153 0.37887436
0.12671028 -0.10826728 0.37868458
0.12733446 -0.10821722 0.37850949
0.12796155 -0.10817016 0.37834489
0.12859268 -0.10812701 0.37819397
0.1292285 -0.10808823 0.37805831
0.12986767 -0.10805263 0.37793383
0.13051023 -0.10802022 0.37782043
0.13115725 -0.10799181 0.3777211
0.13180892 -0.10796751 0.3776361
0.13246433 -0.10794651 0.37756264
0.1331238 -0.10792901 0.37750146
0.13378739 -0.10791501 0.37745249
0.13445537 -0.10790469 0.37741637
0.13512792 -0.10789812 0.37739336
0.13580534 -0.10789547 0.37738413
0.13648777 -0.10789681 0.37738881
0.13717511 -0.10790201 0.37740698
0.13786754 -0.10791114 0.37743893
0.13856526 -0.10792429 0.37748492
0.1392689 -0.10794191 0.37754655
0.13997856 -0.10796399 0.3776238
0.14069468 -0.10799082 0.37771764
0.14141709 -0.10802221 0.37782741
0.14214624 -0.10805842 0.37795407
0.14288266 -0.10809977 0.3780987
0.14362662 -0.1081464 0.3782618
0.14438039 -0.10819996 0.37844914
0.14514263 -0.10825933 0.37865677
0.14591372 -0.10832471 0.37888545
0.14669739 -0.10839877 0.37914452
0.14749219 -0.10848033 0.37942979
0.14829972 -0.10857046 0.37974504
0.14912198 -0.1086705 0.38009495
0.14995964 -0.10878079 0.38048068
0.15081483 -0.10890274 0.38090724
0.15169224 -0.10903955 0.38138574
0.15259141 -0.10919069 0.38191441
0.15351851 -0.10936037 0.38250789
0.15447935 -0.10955247 0.38317978
0.15548028 -0.10977115 0.38394466
0.15653166 -0.11002336 0.38482681
0.1576492 -0.11031964 0.3858631
0.15887018 -0.11068538 0.38714233
0.16025496 -0.11116153 0.38880777
0.16205987 -0.11192371 0.39147362
0.10640784 -0.11362193 0.39993671
0.10676512 -0.11323573 0.39857736
0.10714638 -0.11287997 0.3973251
0.10754611 -0.11254825 0.3961575
0.10796534 -0.11224119 0.39507666
0.10839976 -0.11195385 0.39406529
0.1088485 -0.11168494 0.39311874
0.10931121 -0.11143376 0.39223459
0.10978579 -0.11119782 0.39140412
0.11027104 -0.11097565 0.39062211
0.11076438 -0.11076438 0.38987848
0.11126503 -0.11056304 0.38916975
0.11177417 -0.11037261 0.38849947
0.11229049 -0.11019161 0.38786235
0.11281186 -0.11001775 0.38725042
0.11333977 -0.10985239 0.38666835
0.11387334 -0.1096945 0.3861126
0.11441063 -0.10954209 0.38557616
0.11495408 -0.10939738 0.38506678
0.11550193 -0.10925858 0.38457823
0.1160536 -0.10912502 0.3841081
0.11661079 -0.10899822 0.38366175
0.11717086 -0.10887558 0.38323009
0.11773643 -0.10875946 0.38282135
0.11830455 -0.10864703 0.38242564
0.11887784 -0.10854064 0.38205114
0.11945423 -0.10843828 0.38169083
0.12003471 -0.10834078 0.38134766
0.12061837 -0.10824726 0.38101846
0.12120686 -0.10815909 0.38070813
0.12179768 -0.108074 0.38040861
0.12239353 -0.1079943 0.38012806
0.12299197 -0.10791774 0.37985861
0.12359502 -0.10784607 0.37960634
0.12420122 -0.10777792 0.37936643
0.12481099 -0.1077136 0.37914005
0.12542497 -0.10765358 0.37892878
0.12604204 -0.10759687 0.37872916
0.12666307 -0.10754412 0.3785435
0.12728812 -0.10749533 0.37837178
0.1279162 -0.10744961 0.37821081
0.12854876 -0.10740811 0.37806475
0.1291851 -0.10737019 0.3779313
0.12982477 -0.10733544 0.37780896
0.1304681 -0.10730405 0.37769848
0.13111632 -0.10727698 0.3776032
0.13176826 -0.10725323 0.37751961
0.13242392 -0.10723273 0.37744746
0.13308349 -0.10721561 0.37738717
0.13374722 -0.10720197 0.37733918
0.13441531 -0.10719196 0.37730393
0.13508844 -0.10718604 0.3772831
0.13576588 -0.10718359 0.37727448
0.13644792 -0.10718478 0.37727866
0.13713479 -0.10718972 0.37729606
0.13782659 -0.10719846 0.37732682
0.13852358 -0.10721112 0.37737137
0.13922583 -0.10722771 0.37742978
0.13993371 -0.10724846 0.3775028
0.1406481 -0.10727397 0.37759259
0.1413691 -0.10730426 0.37769923
0.14209658 -0.10733914 0.37782198
0.14283095 -0.10737888 0.37796187
0.1435722 -0.10742338 0.37811852
0.14432243 -0.10747414 0.37829718
0.14508177 -0.1075312 0.37849802
0.1458496 -0.10759397 0.37871897
0.14662835 -0.10766417 0.37896606
0.14741853 -0.10774209 0.3792403
0.14822023 -0.10782765 0.37954149
0.14903671 -0.10792313 0.37987757
0.14986706 -0.10802774 0.3802458
0.1507159 -0.10814467 0.38065737
0.15158342 -0.10827386 0.38111213
0.15247181 -0.10841674 0.38161504
0.1533878 -0.10857788 0.38218224
0.15433329 -0.10875835 0.38281748
0.15531535 -0.10896289 0.38353741
0.15634342 -0.10919774 0.38436404
0.15743022 -0.10947134 0.3853271
0.15859583 -0.10979711 0.38647377
0.159895 -0.1102121 0.38793448
0.16143766 -0.11079055 0.38997057
0.10623609 -0.1127183 0.39929122
0.10660345 -0.1123464 0.39797381
0.10699471 -0.1120045 0.39676267
0.10740489 -0.11168681 0.3956373
0.10783295 -0.11139179 0.39459223
0.10827649 -0.11111652 0.39361712
0.10873358 -0.11085866 0.39270368
0.10920393 -0.11061758 0.39184967
0.10968418 -0.11038954 0.39104187
0.11017447 -0.11017447 0.39028001
0.11067199 -0.10996931 0.38955325
0.11117666 -0.10977381 0.3888607
0.11169048 -0.10958972 0.3882086
0.11220916 -0.10941268 0.38758144
0.11273343 -0.10924324 0.38698122
0.11326444 -0.10908237 0.38641137
0.11379985 -0.10892768 0.38586342
0.11433983 -0.10877923 0.38533753
0.11488589 -0.10863832 0.38483837
0.11543512 -0.10850208 0.38435575
0.11598943 -0.10837221 0.38389573
0.11654762 -0.1082475 0.38345394
0.11710958 -0.10812773 0.38302967
0.11767667 -0.10801407 0.38262704
0.11824591 -0.1079037 0.38223606
0.11882129 -0.10780019 0.38186941
0.11939837 -0.10769939 0.38151234
0.11998131 -0.10760502 0.38117802
0.12056574 -0.10751304 0.38085222
0.12115594 -0.10742722 0.38054821
0.1217479 -0.10734393 0.38025314
0.12234547 -0.10726647 0.37997878
0.12294509 -0.10719168 0.37971383
0.12354959 -0.10712194 0.3794668
0.12415715 -0.10705562 0.37923184
0.12476812 -0.10699293 0.37900978
0.12538357 -0.10693476 0.37880373
0.12600143 -0.10687926 0.37860712
0.1266242 -0.1068285 0.37842733
0.12725025 -0.10678104 0.37825918
0.12787913 -0.10673644 0.3781012
0.12851304 -0.1066965 0.37795973
0.12915035 -0.10665979 0.37782967
0.12979083 -0.10662606 0.37771019
0.13043529 -0.10659593 0.37760347
0.13108411 -0.10656968 0.37751046
0.1317365 -0.10654657 0.37742862
0.13239269 -0.10652676 0.37735844
0.13305262 -0.10651015 0.37729961
0.13371691 -0.10649718 0.37725365
0.13438575 -0.10648795 0.37722096
0.13505875 -0.10648208 0.37720016
0.13573608 -0.10647968 0.37719166
0.13641788 -0.10648079 0.3771956
0.13710439 -0.10648555 0.37721244
0.13779572 -0.10649398 0.3772423
0.13849206 -0.10650618 0.37728551
0.13919361 -0.10652225 0.37734243
0.13990065 -0.10654235 0.37741366
0.14061324 -0.10656645 0.37749904
0.14133225 -0.10659517 0.37760076
0.14205821 -0.10662882 0.37771997
0.14279079 -0.10666711 0.3778556
0.14353025 -0.10671014 0.37800804
0.1442766 -0.10675787 0.37817711
0.1450334 -0.10681283 0.3783718
0.14579825 -0.10687318 0.37858561
0.14657243 -0.10693979 0.37882152
0.14735888 -0.10701469 0.37908685
0.14815509 -0.10709594 0.37937468
0.14896609 -0.10718709 0.37969759
0.14978956 -0.10728634 0.38004917
0.15063201 -0.10739822 0.38044548
0.15149093 -0.10752077 0.38087961
0.15237033 -0.10765669 0.3813611
0.15327564 -0.1078096 0.38190275
0.15420854 -0.10798047 0.38250804
0.15517457 -0.10817292 0.38318974
0.15618198 -0.10839237 0.38396713
0.15724242 -0.10864653 0.38486746
0.1583717 -0.10894581 0.38592762
0.15960619 -0.10931452 0.38723373
0.16101258 -0.10979725 0.38894373
0.16286635 -0.11057954 0.39171493
0.10607763 -0.11183099 0.39869562
0.10645656 -0.11147471 0.39742541
0.10685743 -0.11114602 0.39625359
0.10727809 -0.11084215 0.39517024
0.10771411 -0.11055804 0.39415735
0.1081655 -0.11029334 0.39321366
0.10863107 -0.11004645 0.39233345
0.10910682 -0.10981302 0.39150122
0.1095932 -0.1095932 0.39071751
0.11008698 -0.10938355 0.38997009
0.11058794 -0.10918365 0.3892574
0.11109791 -0.10899511 0.38858524
0.11161444 -0.10881533 0.38794431
0.11213544 -0.10864212 0.38732678
0.11266302 -0.10847739 0.38673949
0.11319628 -0.10832013 0.38617882
0.11373392 -0.10816896 0.38563988
0.11427652 -0.10802431 0.38512418
0.11482375 -0.10788576 0.38463023
0.11537476 -0.10775241 0.3841548
0.1159316 -0.10762605 0.38370433
0.11649107 -0.10750363 0.38326788
0.11705542 -0.10738713 0.38285252
0.11762336 -0.10727526 0.38245371
0.11819506 -0.10716812 0.38207173
0.11877143 -0.10706642 0.38170916
0.11935029 -0.10696813 0.38135871
0.11993428 -0.10687554 0.38102862
0.12052044 -0.10678591 0.38070908
0.12111198 -0.10670206 0.38041013
0.12170559 -0.10662095 0.38012099
0.12230449 -0.10654537 0.37985152
0.12290576 -0.10647268 0.37959236
0.12351155 -0.10640469 0.37934998
0.12412065 -0.10634028 0.37912035
0.12473325 -0.10627957 0.3789039
0.12534982 -0.10622288 0.37870178
0.12596905 -0.10616904 0.37850985
0.12659347 -0.10612013 0.37833548
0.12722042 -0.10607386 0.37817052
0.12785088 -0.10603099 0.37801769
0.12848604 -0.10599246 0.37788031
0.1291241 -0.10595672 0.37775287
0.12976524 -0.10592385 0.37763572
0.1304113 -0.10589533 0.37753403
0.13106084 -0.10586992 0.37744343
0.13171376 -0.10584749 0.37736347
0.13237031 -0.10582819 0.37729466
0.13303109 -0.10581245 0.37723854
0.1336962 -0.1058003 0.37719524
0.13436522 -0.10579135 0.37716332
0.1350383 -0.10578568 0.37714309
0.13571562 -0.10578335 0.3771348
0.1363973 -0.10578445 0.3771387
0.13708359 -0.10578907 0.37715518
0.13777459 -0.10579727 0.37718442
0.13847046 -0.10580912 0.37722668
0.13917144 -0.10582474 0.37728235
0.13987772 -0.10584421 0.37735179
0.14058948 -0.10586762 0.37743524
0.14130698 -0.10589511 0.37753323
0.14203058 -0.10592689 0.37764654
0.1427618 -0.105964 0.37777886
0.1434994 -0.1060055 0.3779268
0.14424403 -0.10605175 0.37809169
0.14499709 -0.10610376 0.37827709
0.14575936 -0.10616197 0.37848464
0.14652996 -0.10622568 0.37871179
0.14731187 -0.10629696 0.37896591
0.14810412 -0.10637501 0.37924415
0.14890982 -0.10646196 0.37955415
0.14972815 -0.10655711 0.37989336
0.15056297 -0.10666306 0.38027111
0.15141393 -0.10677944 0.38068601
0.15228619 -0.10690971 0.38115045
0.15318075 -0.10705441 0.38166633
0.15410194 -0.10721634 0.38224363
0.15505396 -0.10739818 0.38289192
0.1560439 -0.10760456 0.38362768
0.15708247 -0.1078425 0.38447598
0.15818329 -0.10812088 0.38546848
0.15936832 -0.10845415 0.38665664
0.1606946 -0.10888022 0.38817564
0.16228803 -0.10948281 0.39032397
0.10556656 -0.11133128 0.39948311
0.10593345 -0.1109608 0.39815372
0.10632434 -0.11062028 0.39693183
0.10673445 -0.11030417 0.39579758
0.1071638 -0.11001201 0.39474922
0.1076089 -0.10973977 0.39377236
0.10806807 -0.10948536 0.39285949
0.10853909 -0.10924619 0.39200127
0.10902037 -0.10902037 0.39119101
0.10951056 -0.10880631 0.39042291
0.11000818 -0.10860232 0.38969094
0.11051363 -0.1084086 0.38899583
0.11102678 -0.10822484 0.38833645
0.11154549 -0.10804877 0.38770464
0.11206944 -0.10787993 0.38709882
0.11259975 -0.10771926 0.38652232
0.11313528 -0.10756554 0.38597071
0.11367424 -0.10741694 0.38543752
0.11421985 -0.10727639 0.3849332
0.11476882 -0.10714068 0.3844462
0.11532175 -0.10701027 0.38397828
0.11587987 -0.10688621 0.38353312
0.1164411 -0.10676647 0.38310346
0.11700737 -0.10665273 0.38269535
0.1175767 -0.10654312 0.38230202
0.11815044 -0.10643874 0.38192749
0.118728 -0.106339 0.38156959
0.11930871 -0.1062432 0.38122585
0.11989401 -0.10615258 0.38090068
0.12048221 -0.10606553 0.38058832
0.12107517 -0.10598364 0.3802945
0.12167048 -0.10590474 0.38001135
0.1222708 -0.10583103 0.37974688
0.1228737 -0.10576037 0.37949336
0.12348118 -0.10569441 0.37925667
0.12409175 -0.10563182 0.37903208
0.12470613 -0.10557313 0.37882149
0.12532398 -0.10551801 0.37862369
0.1259449 -0.10546605 0.37843725
0.12657066 -0.10541869 0.37826732
0.12719877 -0.10537378 0.37810618
0.12783103 -0.10533277 0.37795901
0.12846693 -0.10529518 0.37782413
0.12910603 -0.10526059 0.3777
0.12974887 -0.1052294 0.37758809
0.13039578 -0.10520182 0.37748912
0.13104592 -0.10517712 0.37740049
0.1316994 -0.10515533 0.37732232
0.13235696 -0.10513702 0.3772566
0.13301872 -0.10512221 0.37720346
0.13368414 -0.10511043 0.3771612
0.13435338 -0.10510176 0.37713009
0.13502665 -0.10509631 0.37711054
0.13570409 -0.10509413 0.37710273
0.13638577 -0.10509527 0.37710682
0.13707194 -0.10509983 0.37712315
0.13776271 -0.10510785 0.37715194
0.13845827 -0.10511943 0.37719348
0.13915886 -0.10513469 0.37724826
0.13986453 -0.10515363 0.37731621
0.14057556 -0.10517639 0.37739787
0.14129212 -0.10520305 0.37749353
0.14201444 -0.10523372 0.37760359
0.14274327 -0.10526891 0.37772986
0.14347954 -0.10530921 0.37787446
0.14422259 -0.10535409 0.37803549
0.14497249 -0.10540353 0.3782129
0.14573216 -0.10545958 0.37841403
0.14649999 -0.10552098 0.37863433
0.14727794 -0.10558905 0.37887862
0.14806697 -0.10566442 0.37914905
0.14886683 -0.10574678 0.3794446
0.14968051 -0.10583816 0.37977248
0.15050909 -0.1059392 0.38013503
0.15135291 -0.10605 0.38053259
0.15221718 -0.10617406 0.38097775
0.15310284 -0.10631187 0.38147223
0.15401256 -0.10646506 0.38202193
0.15495244 -0.10663765 0.38264123
0.1559274 -0.10683275 0.38334128
0.15694664 -0.10705633 0.38414353
0.15802294 -0.10731668 0.38507774
0.15917282 -0.10762451 0.38618231
0.16043666 -0.10800638 0.38755256
0.16189981 -0.10851853 0.38939026
0.16395794 -0.10942333 0.39263692
0.10542535 -0.11046274 0.39894876
0.10580283 -0.11010667 0.39766276
0.10620433 -0.10978024 0.39648381
0.10662466 -0.10947749 0.39539042
0.10706211 -0.10919624 0.39437464
0.10751504 -0.10893439 0.39342892
0.10798019 -0.10868826 0.39254001
0.10845619 -0.10845619 0.39170185
0.10894199 -0.10823686 0.39090976
0.10943559 -0.10802805 0.39015561
0.10993717 -0.10782975 0.3894394
0.11044711 -0.1076421 0.3887617
0.11096259 -0.1074622 0.38811195
0.11148342 -0.10728969 0.38748893
0.11201077 -0.10712557 0.38689616
0.11254319 -0.10696829 0.38632816
0.1130805 -0.10681758 0.38578385
0.11362224 -0.10667287 0.38526121
0.11416923 -0.10653482 0.38476261
0.11471969 -0.10640164 0.38428164
0.11527538 -0.1062749 0.3838239
0.11583476 -0.10615305 0.38338381
0.11639775 -0.10603593 0.38296083
0.11696578 -0.10592476 0.38255933
0.11753671 -0.1058175 0.38217196
0.11811233 -0.10571569 0.38180426
0.11869115 -0.10561793 0.38145116
0.11927401 -0.10552485 0.38111499
0.11986084 -0.10543633 0.38079527
0.12045083 -0.10535158 0.38048923
0.12104519 -0.10527159 0.38020033
0.12164248 -0.10519505 0.37992388
0.12224451 -0.10512343 0.37966523
0.12284914 -0.10505483 0.37941748
0.12345847 -0.104991 0.37918693
0.12407039 -0.10493006 0.37896684
0.12468663 -0.10487341 0.37876225
0.12530598 -0.10482 0.37856933
0.12592891 -0.10477012 0.37838921
0.12655552 -0.10472383 0.37822205
0.12718497 -0.1046804 0.37806517
0.12781906 -0.1046412 0.37792361
0.12845613 -0.10460486 0.37779236
0.12909594 -0.10457112 0.3776705
0.12974055 -0.1045416 0.37756389
0.13038817 -0.1045148 0.3774671
0.13103899 -0.10449083 0.37738052
0.13169365 -0.10447015 0.37730584
0.13235241 -0.10445293 0.37724364
0.13301463 -0.1044386 0.3771919
0.13368045 -0.10442723 0.3771508
0.13435005 -0.1044189 0.37712073
0.13502353 -0.10441367 0.37710184
0.13570108 -0.1044116 0.37709439
0.13638294 -0.10441288 0.37709898
0.13706924 -0.10441751 0.37711573
0.13775988 -0.10442539 0.37714419
0.13845506 -0.10443662 0.37718475
0.1391553 -0.10445154 0.3772386
0.1398606 -0.10447008 0.3773056
0.14057104 -0.10449228 0.37738574
0.14128695 -0.1045183 0.37747973
0.14200848 -0.10454822 0.37758777
0.14273585 -0.10458212 0.37771022
0.14347015 -0.10462075 0.37784976
0.14421163 -0.10466424 0.37800679
0.14495996 -0.10471225 0.37818021
0.14571628 -0.10476557 0.37837279
0.1464821 -0.10482518 0.37858808
0.14725582 -0.10488988 0.37882173
0.14804164 -0.10496254 0.37908417
0.14883663 -0.10504102 0.37936759
0.14964648 -0.10512922 0.37968615
0.15046899 -0.10522547 0.38003373
0.15130672 -0.10533144 0.38041645
0.15216431 -0.10545021 0.38084543
0.15304123 -0.10558125 0.38131872
0.15394118 -0.10572694 0.38184488
0.15486951 -0.10589073 0.38243642
0.15583101 -0.10607565 0.38310429
0.15683259 -0.10628611 0.38386437
0.15788817 -0.10653114 0.38474935
0.15900941 -0.10681815 0.38578588
0.16022585 -0.10716631 0.38704333
0.16159987 -0.10761639 0.38866886
0.16332892 -0.108298 0.39113057
0.1049313 -0.10997955 0.39980826
0.10529743 -0.10960995 0.39846468
0.1056866 -0.1092692 0.39722595
0.106097 -0.10895483 0.39608312
0.10652681 -0.10866447 0.39502755
0.10697164 -0.10839319 0.39404139
0.10743055 -0.10813966 0.39311975
0.10790154 -0.10790154 0.39225408
0.10838209 -0.10767602 0.39143425
0.10887162 -0.10746228 0.39065725
0.10936958 -0.10725956 0.38992029
0.10987533 -0.10706701 0.38922033
0.11038751 -0.10688315 0.38855192
0.1109052 -0.10670689 0.3879112
0.11142827 -0.106538 0.38729721
0.1119587 -0.10637821 0.38671634
0.11249308 -0.10622411 0.38615614
0.11303175 -0.10607595 0.38561752
0.11357649 -0.10593526 0.38510609
0.11412498 -0.10579975 0.38461345
0.11467725 -0.10566936 0.38413948
0.11523498 -0.10554555 0.38368937
0.11579575 -0.10542598 0.38325471
0.11636085 -0.10531175 0.38283944
0.1169303 -0.10520278 0.38244328
0.11750286 -0.10509787 0.3820619
0.11808053 -0.10499872 0.38170147
0.11866105 -0.10490324 0.38135439
0.11924567 -0.10481247 0.38102442
0.1198343 -0.10472625 0.38071099
0.12042617 -0.10464382 0.38041133
0.12102251 -0.10456619 0.3801291
0.12162142 -0.10449164 0.37985811
0.12222566 -0.10442249 0.37960669
0.12283187 -0.10435576 0.37936413
0.12344307 -0.10429401 0.37913963
0.1240566 -0.10423488 0.3789247
0.12467477 -0.10418028 0.37872621
0.12529552 -0.10412843 0.37853771
0.12592037 -0.10408052 0.37836355
0.12654832 -0.10403568 0.37820053
0.12717952 -0.10399397 0.37804893
0.12781473 -0.10395598 0.37791079
0.12845269 -0.10392061 0.37778223
0.12909454 -0.10388874 0.37766638
0.12974001 -0.10386012 0.37756231
0.13038841 -0.10383411 0.37746778
0.13104023 -0.10381109 0.3773841
0.13169624 -0.1037916 0.37731326
0.13235556 -0.10377492 0.37725261
0.13301829 -0.10376107 0.37720224
0.13368455 -0.10375009 0.37716234
0.13435453 -0.10374211 0.37713331
0.13502887 -0.10373754 0.37711671
0.13570707 -0.10373598 0.37711102
0.13638921 -0.10373743 0.37711632
0.13707557 -0.10374206 0.37713316
0.1377663 -0.10374993 0.37716177
0.13846144 -0.10376102 0.37720209
0.13916115 -0.10377543 0.37725446
0.13986559 -0.1037932 0.37731907
0.14057526 -0.10381466 0.37739706
0.14129075 -0.10384019 0.37748989
0.14201173 -0.1038695 0.37759641
0.14273836 -0.10390262 0.37771684
0.14347079 -0.10393964 0.37785143
0.14421067 -0.10398169 0.37800425
0.14495765 -0.10402843 0.37817419
0.14571157 -0.10407969 0.37836054
0.14647494 -0.1041372 0.37856957
0.14724623 -0.10419976 0.37879702
0.1480283 -0.10426936 0.37905002
0.14882031 -0.10434528 0.37932602
0.14962512 -0.10442943 0.37963194
0.15044229 -0.10452141 0.37996632
0.15127562 -0.10462372 0.38033825
0.15212581 -0.10473673 0.38074908
0.15299465 -0.1048615 0.38120264
0.1538859 -0.10500045 0.38170776
0.15480334 -0.10515594 0.38227302
0.15575272 -0.10533166 0.3829118
0.15674068 -0.1055318 0.3836394
0.15777689 -0.10576253 0.38447815
0.15887418 -0.10603201 0.38545778
0.16005346 -0.10635361 0.3866269
0.16136844 -0.10676221 0.38811228
0.16293061 -0.1073301 0.39017674
0.10480483 -0.10912668 0.39932635
0.1051824 -0.10877225 0.39802939
0.10558221 -0.10844546 0.39683357
0.10600132 -0.10814276 0.39572594
0.10643952 -0.10786346 0.39470387
0.10689125 -0.10760149 0.39374527
0.10735582 -0.10735582 0.39284626
0.1078314 -0.10712431 0.39199913
0.10831574 -0.10690446 0.39119461
0.10880951 -0.1066967 0.39043438
0.10931155 -0.10649968 0.38971341
0.10981989 -0.10631127 0.38902396
0.11033417 -0.10613097 0.38836417
0.11085423 -0.10595846 0.38773292
0.11138131 -0.10579479 0.38713402
0.11191298 -0.10563748 0.38655838
0.11244901 -0.10548623 0.38600489
0.11299039 -0.10534181 0.38547644
0.11353684 -0.10520387 0.38497165
0.11408652 -0.10507056 0.38448384
0.11464141 -0.10494364 0.3840194
0.11520049 -0.10482207 0.38357455
0.11576282 -0.10470488 0.38314572
0.11633035 -0.10459375 0.38273907
0.11690105 -0.10448678 0.38234761
0.11747559 -0.10438447 0.38197324
0.11805505 -0.10428769 0.3816191
0.11863747 -0.10419465 0.38127863
0.11922428 -0.10410651 0.38095608
0.11981477 -0.10402256 0.38064891
0.12040855 -0.10394242 0.38035566
0.12100709 -0.10386728 0.38008067
0.12160777 -0.1037948 0.37981546
0.12221386 -0.10372773 0.37957004
0.12282205 -0.10366318 0.37933382
0.12343506 -0.10360339 0.37911502
0.12405033 -0.10354614 0.37890553
0.1246703 -0.10349343 0.37871265
0.12529236 -0.103443 0.37852815
0.12591909 -0.10339697 0.37835971
0.12654838 -0.10335353 0.37820074
0.12718156 -0.10331371 0.37805501
0.12781787 -0.10327684 0.37792009
0.12845695 -0.10324258 0.37779474
0.12910038 -0.10321218 0.37768349
0.12974665 -0.10318433 0.3775816
0.13039589 -0.10315914 0.37748942
0.13104926 -0.10313747 0.37741011
0.13170595 -0.10311862 0.37734112
0.13236584 -0.10310245 0.37728193
0.13302907 -0.10308903 0.37723285
0.13369621 -0.10307876 0.37719527
0.13436721 -0.10307156 0.37716889
0.13504189 -0.10306723 0.3771531
0.13572039 -0.10306586 0.37714806
0.13640279 -0.10306744 0.37715384
0.13708928 -0.10307209 0.37717086
0.13778012 -0.10307994 0.37719956
0.1384753 -0.10309094 0.37723985
0.13917497 -0.10310517 0.37729192
0.1398793 -0.1031227 0.37735605
0.1405886 -0.10314369 0.37743288
0.1413029 -0.10316814 0.37752235
0.14202344 -0.10319689 0.37762752
0.14274947 -0.10322933 0.37774625
0.14348124 -0.10326559 0.37787893
0.1442192 -0.10330595 0.37802663
0.14496511 -0.1033516 0.37819368
0.14571741 -0.10340135 0.37837571
0.14647837 -0.10345675 0.37857845
0.14724782 -0.10351761 0.37880114
0.14802617 -0.10358413 0.37904456
0.14881569 -0.10365783 0.37931424
0.1496163 -0.10373853 0.37960956
0.15042889 -0.10382678 0.37993246
0.15125744 -0.10392518 0.38029256
0.15210146 -0.10403327 0.3806881
0.15296276 -0.10415217 0.38112319
0.15384649 -0.1042852 0.38160998
0.15475479 -0.10443363 0.38215312
0.15569283 -0.10460073 0.38276458
0.15666655 -0.10479021 0.38345796
0.15768747 -0.10500945 0.38426024
0.15876383 -0.10526354 0.38519001
0.1599149 -0.10556473 0.38629216
0.16118179 -0.10593944 0.38766333
0.16264586 -0.10643995 0.38949484
0.16466258 -0.10729627 0.39262834
0.10469256 -0.10829023 0.39889857
0.10507897 -0.10794801 0.39763796
0.10548879 -0.10763433 0.39648247
0.10591722 -0.10734372 0.39541197
0.10636187 -0.10707331 0.39441592
0.10681973 -0.10681973 0.39348182
0.10728873 -0.10658056 0.39260077
0.10776822 -0.10635486 0.39176941
0.10825804 -0.10614225 0.39098623
0.10875539 -0.10593972 0.39024019
0.10925988 -0.1057467 0.3895292
0.10977057 -0.10556211 0.38884923
0.11028737 -0.10538571 0.38819942
0.11081066 -0.1052177 0.38758054
0.11133958 -0.1050571 0.38698897
0.11187308 -0.10490279 0.38642055
0.11241087 -0.1047544 0.38587394
0.11295492 -0.10461363 0.38535541
0.11350272 -0.10447804 0.38485593
0.11405383 -0.10434712 0.38437369
0.11461118 -0.10422346 0.38391817
0.11517187 -0.1041043 0.38347924
0.11573606 -0.10398971 0.38305715
0.11630557 -0.10388124 0.38265756
0.11687834 -0.10377693 0.38227335
0.11745509 -0.10367736 0.38190657
0.11803631 -0.10358289 0.38155857
0.11862063 -0.10349219 0.38122448
0.11920958 -0.10340659 0.38090912
0.11980221 -0.10332511 0.38060901
0.12039796 -0.10324725 0.38032219
0.12099832 -0.10317421 0.38005313
0.12160131 -0.10310422 0.37979531
0.12220905 -0.103039 0.37955511
0.12281945 -0.10297675 0.37932578
0.12343404 -0.10291868 0.37911189
0.12405141 -0.10286357 0.37890884
0.1246728 -0.10281236 0.37872025
0.12529698 -0.10276401 0.37854213
0.12592509 -0.10271939 0.37837777
0.12655559 -0.10267717 0.37822226
0.12719044 -0.10263894 0.37808141
0.12782776 -0.10260308 0.37794933
0.12846869 -0.1025705 0.37782931
0.12911303 -0.10254095 0.37772048
0.12976009 -0.10251387 0.37762073
0.13041084 -0.10248999 0.37753272
0.13106501 -0.102469 0.37745544
0.13172224 -0.10245064 0.37738779
0.13238263 -0.1024349 0.3773298
0.13304704 -0.1024224 0.37728378
0.13371497 -0.10241275 0.3772482
0.13438642 -0.10240585 0.37722281
0.13506141 -0.10240173 0.37720764
0.13574024 -0.10240053 0.3772032
0.1364229 -0.10240223 0.37720948
0.13710965 -0.10240696 0.37722692
0.13780066 -0.10241482 0.37725583
0.13849597 -0.10242577 0.37729618
0.13919571 -0.10243987 0.37734812
0.1399001 -0.10245725 0.37741214
0.14060947 -0.10247809 0.37748891
0.14132367 -0.10250223 0.37757784
0.14204293 -0.10252979 0.37767935
0.14276861 -0.1025617 0.37779689
0.14349988 -0.1025973 0.37792805
0.14423701 -0.10263674 0.3780733
0.14498131 -0.10268088 0.37823591
0.14573298 -0.10272981 0.37841615
0.14649123 -0.10278289 0.37861168
0.14725929 -0.10284234 0.37883067
0.14803506 -0.1029066 0.37906736
0.14882186 -0.10297789 0.37932998
0.14961883 -0.10305554 0.37961599
0.15042825 -0.10314101 0.37993085
0.15125145 -0.10323512 0.38027751
0.15209037 -0.10333906 0.38066038
0.15294561 -0.10345309 0.38108045
0.15382142 -0.10357998 0.38154784
0.15472178 -0.10372217 0.38207161
0.1556502 -0.10388184 0.38265976
0.15661204 -0.1040623 0.38332453
0.15761749 -0.10427003 0.38408974
0.15867579 -0.10451075 0.38497645
0.15980262 -0.10479431 0.38602096
0.16103201 -0.10514237 0.38730308
0.16242586 -0.10559435 0.38896799
0.16419323 -0.10628422 0.39150921
0.10422304 -0.10782938 0.39985782
0.10459372 -0.10746916 0.39852202
0.10498854 -0.10713848 0.39729577
0.10540631 -0.10683554 0.39617243
0.10584216 -0.1065549 0.39513174
0.10629293 -0.10629293 0.3941603
0.10675581 -0.10604647 0.39324635
0.10723098 -0.10581539 0.39238945
0.107715 -0.10559601 0.39157596
0.10820731 -0.10538758 0.39080301
0.10870758 -0.10518954 0.39006865
0.10921443 -0.10500037 0.38936716
0.10972758 -0.10481963 0.38869694
0.11024761 -0.10464773 0.3880595
0.11077314 -0.10448318 0.38744929
0.11130343 -0.10432516 0.38686332
0.1118387 -0.10417374 0.38630182
0.11237964 -0.10402945 0.38576674
0.11292482 -0.10389084 0.38525274
0.113474 -0.10375758 0.38475856
0.11402829 -0.10363058 0.38428763
0.11458694 -0.10350905 0.38383698
0.11514894 -0.10339199 0.38340288
0.11571601 -0.10328086 0.38299078
0.11628724 -0.10317473 0.38259724
0.11686172 -0.10307272 0.38221896
0.11744086 -0.102976 0.38186032
0.11802385 -0.10288377 0.38151827
0.11861046 -0.10279574 0.38119182
0.11920153 -0.10271256 0.3808834
0.11979628 -0.10263348 0.38059017
0.1203941 -0.10255794 0.38031003
0.12099666 -0.10248726 0.38004792
0.12160189 -0.10241962 0.3797971
0.12221131 -0.10235626 0.37956214
0.1228239 -0.10229623 0.37933955
0.12344003 -0.1022398 0.3791303
0.12405952 -0.10218677 0.37893364
0.12468224 -0.10213695 0.37874892
0.12530832 -0.10209043 0.37857637
0.12593767 -0.10204706 0.37841555
0.12657006 -0.1020066 0.37826553
0.12720595 -0.10196938 0.37812752
0.12784439 -0.10193459 0.3779985
0.12848687 -0.10190338 0.37788275
0.12913199 -0.10187458 0.37777594
0.12978016 -0.10184847 0.37767914
0.13043211 -0.10182559 0.37759432
0.13108686 -0.10180511 0.37751836
0.13174462 -0.10178719 0.3774519
0.13240625 -0.10177242 0.37739712
0.13307124 -0.10176037 0.37735242
0.1337395 -0.10175092 0.3773174
0.13441129 -0.10174424 0.37729263
0.13508675 -0.10174039 0.37727836
0.13576585 -0.10173932 0.37727439
0.13644888 -0.10174118 0.37728128
0.13713606 -0.1017461 0.37729955
0.13782726 -0.10175395 0.37732863
0.13852268 -0.10176482 0.37736896
0.13922258 -0.10177886 0.37742099
0.13992734 -0.10179628 0.37748563
0.14063668 -0.10181687 0.37756196
0.14135085 -0.10184073 0.37765044
0.14207038 -0.10186822 0.37775236
0.14279489 -0.10189898 0.37786645
0.14352599 -0.10193413 0.3779968
0.14426303 -0.10197315 0.37814149
0.14500588 -0.1020159 0.37830001
0.14575663 -0.10206378 0.37847754
0.14651401 -0.10211583 0.37867057
0.14727993 -0.10217331 0.37888375
0.14805388 -0.10223582 0.37911555
0.14883848 -0.10230507 0.37937233
0.14963217 -0.10237991 0.37964985
0.15043874 -0.10246284 0.37995735
0.15125817 -0.10255372 0.38029438
0.15209144 -0.10265315 0.38066307
0.15294163 -0.10276303 0.38107055
0.15381134 -0.10288499 0.3815228
0.15470429 -0.10302134 0.38202843
0.15562333 -0.10317378 0.38259372
0.156574 -0.10334575 0.38323143
0.15756649 -0.10354369 0.38396543
0.15860803 -0.103772 0.38481206
0.1597129 -0.10403955 0.38580421
0.16091254 -0.10436627 0.38701576
0.16225247 -0.10478075 0.38855276
0.16387218 -0.10537157 0.39074367
0.10412452 -0.10700686 0.39947981
0.10450608 -0.10666085 0.39818808
0.10491061 -0.10634284 0.39700088
0.10533569 -0.10604983 0.39590701
0.10577778 -0.10577778 0.39489138
0.1062343 -0.10552371 0.39394289
0.1067021 -0.10528414 0.39304852
0.10718073 -0.10505833 0.39220557
0.1076681 -0.10484402 0.39140546
0.10816333 -0.1046401 0.39064419
0.10866607 -0.10444602 0.38991967
0.10917507 -0.10426044 0.38922682
0.10969174 -0.10408449 0.38856998
0.11021401 -0.10391606 0.38794121
0.11074106 -0.10375424 0.38733709
0.11127324 -0.10359923 0.38675839
0.11181127 -0.10345154 0.38620704
0.11235373 -0.10330977 0.38567778
0.11290053 -0.10317372 0.38516986
0.11345156 -0.10304316 0.38468248
0.11400813 -0.10291919 0.38421968
0.11456849 -0.10280012 0.38377514
0.11513215 -0.10268543 0.38334697
0.11570176 -0.10257738 0.3829436
0.11627482 -0.10247365 0.38255638
0.11685147 -0.1023743 0.38218546
0.11743297 -0.10228033 0.38183466
0.11801821 -0.1021907 0.38150004
0.11860684 -0.10210502 0.3811802
0.11920032 -0.10202448 0.38087952
0.11979689 -0.10194749 0.38059211
0.12039704 -0.10187442 0.3803193
0.1210016 -0.10180588 0.38006344
0.12160895 -0.10174045 0.37981915
0.12222033 -0.10167909 0.37959012
0.1228347 -0.10162091 0.37937289
0.12345263 -0.1015663 0.37916902
0.124074 -0.10151508 0.37897784
0.12469813 -0.1014667 0.3787972
0.12532613 -0.10142195 0.37863016
0.12595655 -0.10137966 0.37847227
0.12659068 -0.10134079 0.37832716
0.12722751 -0.10130449 0.37819162
0.12786762 -0.10127116 0.3780672
0.12851077 -0.10124058 0.37795305
0.12915663 -0.10121246 0.37784806
0.1298061 -0.10118744 0.37775466
0.13045859 -0.10116502 0.37767097
0.13111392 -0.10114502 0.37759632
0.13177289 -0.10112803 0.37753287
0.1324351 -0.10111368 0.37747931
0.13310046 -0.10110189 0.3774353
0.13376909 -0.10109267 0.37740088
0.13444129 -0.10108623 0.37737682
0.13511738 -0.10108278 0.37736395
0.13579716 -0.10108209 0.37736139
0.13648055 -0.10108411 0.3773689
0.13716811 -0.10108915 0.37738773
0.13785958 -0.10109703 0.37741715
0.13855527 -0.1011079 0.37745774
0.13925543 -0.10112192 0.37751007
0.13996002 -0.10113899 0.37757379
0.14066945 -0.10115939 0.37764993
0.14138414 -0.10118334 0.37773937
0.14210355 -0.10121045 0.37784055
0.14282838 -0.10124112 0.37795505
0.14355876 -0.10127541 0.37808308
0.14429568 -0.10131399 0.37822708
0.1450384 -0.10135624 0.37838483
0.14578797 -0.10140287 0.3785589
0.1465448 -0.10145409 0.37875015
0.14730935 -0.10151015 0.37895942
0.1480822 -0.10157139 0.37918803
0.14886436 -0.10163842 0.37943828
0.14965607 -0.10171134 0.3797105
0.1504599 -0.10179178 0.38001078
0.15127563 -0.10187951 0.38033831
0.15210494 -0.10197555 0.38069683
0.15295023 -0.1020814 0.38109198
0.15381463 -0.10219898 0.38153097
0.15470038 -0.10232965 0.38201877
0.15561154 -0.1024759 0.38256475
0.15655315 -0.1026408 0.38318038
0.1575325 -0.1028289 0.38388261
0.15855978 -0.10304651 0.38469499
0.15964653 -0.10330069 0.3856439
0.16081971 -0.10360836 0.38679248
0.16211818 -0.10399374 0.38823119
0.16365089 -0.1045254 0.39021599
0.1660469 -0.10560156 0.39423355
0.10403734 -0.10619728 0.39914533
0.10442872 -0.10586417 0.39789334
0.10484212 -0.10555776 0.39674169
0.10527439 -0.10527439 0.39567664
0.10572231 -0.10501038 0.39468431
0.10618342 -0.10476291 0.39375421
0.10665506 -0.10452905 0.39287522
0.10713672 -0.10430802 0.39204451
0.10762705 -0.1040983 0.39125624
0.10812471 -0.10389834 0.39050469
0.10863072 -0.10370895 0.38979286
0.10914308 -0.103528 0.38911277
0.10966139 -0.10335498 0.38846248
0.11018559 -0.10318968 0.38784117
0.11071441 -0.10303076 0.38724387
0.11124895 -0.10287911 0.38667393
0.11178894 -0.10273439 0.38612995
0.1123333 -0.10259543 0.38560766
0.11288171 -0.10246186 0.38510564
0.11343555 -0.10233482 0.38462818
0.11399344 -0.10221297 0.38417017
0.11455567 -0.10209645 0.38373223
0.11512195 -0.1019849 0.383313
0.11569357 -0.10187941 0.38291651
0.11626869 -0.10177822 0.3825362
0.11684748 -0.10168143 0.38217241
0.11743141 -0.10159022 0.38182959
0.11801894 -0.10150317 0.38150239
0.11860975 -0.10141993 0.38118953
0.11920551 -0.10134187 0.38089612
0.11980438 -0.10126732 0.38061592
0.1204064 -0.10119627 0.38034889
0.12101297 -0.10112982 0.38009915
0.12162254 -0.10106662 0.37986159
0.12223566 -0.10100705 0.37963772
0.12285218 -0.10095095 0.37942687
0.12347131 -0.10089761 0.37922639
0.12409472 -0.10084833 0.37904117
0.1247203 -0.10080133 0.37886453
0.12534976 -0.10075798 0.37870157
0.12598154 -0.10071694 0.37854734
0.12661698 -0.10067927 0.37840575
0.12725464 -0.10064374 0.37827221
0.12789609 -0.10061159 0.37815136
0.12853995 -0.10058165 0.37803885
0.12918699 -0.10055451 0.37793684
0.12983719 -0.1005301 0.37784508
0.13049008 -0.10050803 0.37776211
0.13114624 -0.10048868 0.37768939
0.13180566 -0.10047202 0.37762678
0.13246821 -0.10045789 0.3775737
0.13313396 -0.10044634 0.37753028
0.13380317 -0.10043749 0.37749702
0.13447599 -0.10043143 0.37747425
0.13515241 -0.10042812 0.37746179
0.13583249 -0.10042752 0.37745956
0.13651629 -0.10042969 0.37746769
0.13720419 -0.10043482 0.37748697
0.137896 -0.10044277 0.37751684
0.13859214 -0.10045376 0.37755817
0.13929273 -0.10046786 0.37761116
0.13999762 -0.10048491 0.37767524
0.14070748 -0.10050534 0.37775201
0.14142196 -0.10052886 0.37784043
0.14214198 -0.10055608 0.37794274
0.14286724 -0.10058671 0.37805787
0.14359781 -0.10062079 0.37818596
0.14433435 -0.10065871 0.37832844
0.14507715 -0.10070061 0.37848595
0.14582618 -0.10074642 0.37865812
0.14658286 -0.10079707 0.37884849
0.14734632 -0.10085189 0.37905455
0.14811857 -0.10091219 0.37928119
0.14889902 -0.1009775 0.37952664
0.14968941 -0.10104891 0.37979504
0.15049063 -0.10112696 0.38008839
0.15130363 -0.10121218 0.3804087
0.15212952 -0.10130521 0.38075835
0.15297103 -0.10140776 0.38114378
0.15383063 -0.10152134 0.38157067
0.15471013 -0.10164697 0.38204286
0.15561412 -0.10178751 0.38257107
0.15654658 -0.10194535 0.38316432
0.15751566 -0.10212554 0.38384157
0.15853027 -0.10233355 0.38462338
0.15960003 -0.10257519 0.3855316
0.16075119 -0.10286681 0.38662767
0.1620167 -0.10322879 0.38798815
0.16348222 -0.10371453 0.38981384
0.16548659 -0.1045365 0.39290324
0.10396209 -0.10540101 0.39885664
0.10436125 -0.10507851 0.39763623
0.10478278 -0.10478278 0.39651716
0.10522113 -0.10450776 0.39547643
0.10567424 -0.10425101 0.39450485
0.10613903 -0.10400915 0.39358959
0.10661431 -0.10378071 0.39272514
0.10709871 -0.1035641 0.39190543
0.10759234 -0.1033592 0.39113006
0.10809333 -0.10316399 0.39039135
0.10860227 -0.10297886 0.38969076
0.10911664 -0.1028012 0.38901851
0.10963678 -0.10263123 0.38837531
0.11016215 -0.10246829 0.3877587
0.11069417 -0.10231354 0.38717309
0.11123051 -0.10216471 0.38660988
0.11177219 -0.10202259 0.38607207
0.11231801 -0.101886 0.38555518
0.1128689 -0.10175566 0.38506195
0.11342482 -0.10163142 0.38459182
0.11398468 -0.10151219 0.38414064
0.11454866 -0.10139806 0.38370875
0.11511791 -0.10128994 0.38329959
0.11569151 -0.1011869 0.38290969
0.11626887 -0.10108836 0.3825368
0.11684996 -0.10099421 0.38218051
0.1174363 -0.10090569 0.3818455
0.11802586 -0.10082093 0.38152477
0.11861915 -0.10074032 0.38121974
0.11921684 -0.10066437 0.38093233
0.11981804 -0.10059223 0.38065931
0.12042223 -0.1005234 0.38039887
0.12103083 -0.10045902 0.38015524
0.12164235 -0.10039777 0.37992346
0.12225715 -0.1003399 0.37970448
0.12287565 -0.10028569 0.37949935
0.12349662 -0.1002341 0.37930411
0.12412111 -0.10018591 0.37912175
0.12474836 -0.10014046 0.37894976
0.12537886 -0.10009811 0.37878951
0.12601209 -0.10005838 0.37863913
0.12664829 -0.10002143 0.37849933
0.12728721 -0.099987008 0.37836906
0.12792923 -0.099955373 0.37824935
0.12857369 -0.099925965 0.37813807
0.12922157 -0.099899523 0.37803802
0.12987211 -0.099875405 0.37794673
0.13052572 -0.099853888 0.37786531
0.13118251 -0.099834993 0.37779382
0.13184224 -0.099818543 0.37773156
0.13250497 -0.099804513 0.37767848
0.13317128 -0.099793307 0.37763608
0.13384102 -0.099784777 0.3776038
0.13451408 -0.099778801 0.37758118
0.1351908 -0.099775575 0.37756896
0.13587125 -0.099775121 0.37756726
0.13655549 -0.099777453 0.37757608
0.13724372 -0.099782653 0.37759575
0.13793606 -0.099790774 0.37762648
0.13863264 -0.099801876 0.3776685
0.13933361 -0.099816002 0.37772197
0.14003921 -0.099833302 0.37778741
0.14074934 -0.099853642 0.37786439
0.1414645 -0.09987735 0.3779541
0.14218459 -0.099904284 0.37805602
0.14291041 -0.099934958 0.3781721
0.14364153 -0.099969052 0.37830111
0.14437835 -0.10000675 0.37844378
0.14512148 -0.10004846 0.37860161
0.14587085 -0.10009405 0.37877414
0.14662729 -0.10014404 0.37896332
0.1473904 -0.10019811 0.37916791
0.14816223 -0.10025758 0.37939298
0.1489417 -0.10032164 0.37963539
0.14973103 -0.10039174 0.37990063
0.15053049 -0.10046796 0.38018906
0.15134117 -0.10055094 0.38050309
0.15216438 -0.10064145 0.38084561
0.15300266 -0.10074108 0.38122261
0.15385783 -0.10085088 0.38163811
0.15473248 -0.10097242 0.38209805
0.15563022 -0.10110788 0.38261065
0.15655483 -0.10125953 0.38318452
0.15751502 -0.10143275 0.38384002
0.15851736 -0.10163148 0.38459206
0.15957211 -0.10186193 0.38546413
0.16070507 -0.10214011 0.38651678
0.16194257 -0.10248201 0.38781062
0.16335735 -0.10293269 0.38951609
0.16518623 -0.10363933 0.3921901
0.10351489 -0.1049576 0.39990845
0.10389754 -0.10461656 0.39860901
0.10430495 -0.10430495 0.39742175
0.10473173 -0.10401684 0.39632398
0.1051756 -0.10374948 0.39530531
0.10563247 -0.10349848 0.39434892
0.10610152 -0.10326269 0.3934505
0.10658065 -0.10303976 0.39260113
0.10706887 -0.10282853 0.39179626
0.10756515 -0.10262773 0.39103121
0.10806843 -0.1024362 0.39030144
0.10857882 -0.10225385 0.38960662
0.10909494 -0.10207918 0.38894114
0.10961731 -0.10191257 0.38830632
0.11014568 -0.10175363 0.38770071
0.11067899 -0.10160121 0.38711998
0.11121759 -0.10145554 0.38656494
0.11176071 -0.10131578 0.38603243
0.1123086 -0.10118205 0.38552287
0.11286201 -0.10105491 0.38503844
0.11341987 -0.10093328 0.38457501
0.1139818 -0.10081673 0.38413092
0.11454802 -0.10070536 0.3837066
0.1151199 -0.10060027 0.38330621
0.11569551 -0.10049968 0.38292292
0.11627506 -0.10040368 0.38255715
0.11685883 -0.10031245 0.38220954
0.11744733 -0.10022632 0.38188136
0.11803917 -0.10014401 0.38156778
0.11863465 -0.10006575 0.38126954
0.11923462 -0.099992149 0.38098913
0.11983777 -0.099922039 0.38072199
0.12044437 -0.099855587 0.38046882
0.12105466 -0.099792928 0.38023007
0.12166803 -0.099733509 0.38000366
0.1222846 -0.099677362 0.37978974
0.12290458 -0.099624604 0.37958872
0.12352728 -0.099574625 0.37939829
0.12415288 -0.099527515 0.37921879
0.12478159 -0.099483401 0.3790507
0.12541264 -0.099441633 0.37889156
0.12604727 -0.099403128 0.37874484
0.126684 -0.099366695 0.37860602
0.12732388 -0.099333107 0.37847805
0.12796636 -0.099301897 0.37835914
0.12861161 -0.099273153 0.37824962
0.12925984 -0.099247001 0.37814999
0.12991063 -0.099223077 0.37805882
0.13056479 -0.099201962 0.37797838
0.13122179 -0.099183217 0.37790695
0.13188177 -0.099166915 0.37784484
0.13254525 -0.099153385 0.37779328
0.13321184 -0.09914232 0.37775111
0.13388191 -0.099133931 0.37771916
0.13455532 -0.099128097 0.37769693
0.1352324 -0.099125013 0.37768519
0.13591322 -0.099124677 0.37768391
0.1365979 -0.099127151 0.37769333
0.13728654 -0.099132471 0.37771359
0.1379794 -0.099140756 0.37774515
0.1386764 -0.099151924 0.37778771
0.13937801 -0.099166267 0.37784237
0.14008407 -0.099183619 0.37790847
0.14079492 -0.09920416 0.37798676
0.1415107 -0.09922798 0.37807751
0.14223142 -0.099255018 0.37818053
0.14295749 -0.099285513 0.3782967
0.14368947 -0.099319801 0.37842736
0.14442682 -0.099357463 0.37857085
0.14517054 -0.09939912 0.37872958
0.14592053 -0.099444672 0.37890315
0.14667717 -0.099494301 0.37909225
0.14744079 -0.099548198 0.37929758
0.14821219 -0.099606812 0.37952092
0.14899132 -0.099670053 0.37976187
0.14978062 -0.099739499 0.38002649
0.15057878 -0.099814184 0.38031104
0.15138765 -0.099895246 0.38061991
0.1522087 -0.099983595 0.38095653
0.15304464 -0.10008088 0.38132721
0.15389629 -0.10018751 0.38173351
0.1547666 -0.1003053 0.3821823
0.15565871 -0.10043611 0.38268068
0.15657738 -0.10058282 0.38323969
0.15752865 -0.1007491 0.38387325
0.15852064 -0.10093984 0.38460001
0.15956244 -0.1011605 0.38544077
0.16067828 -0.10142598 0.38645232
0.16189241 -0.10175095 0.38769051
0.16326797 -0.10217415 0.38930297
0.16498539 -0.10280674 0.39171326
0.10345099 -0.1041719 0.3996616
0.1038433 -0.1038433 0.3984009
0.10425772 -0.10354117 0.39724177
0.10469071 -0.10326149 0.39616874
0.10513894 -0.10300051 0.3951675
0.10559972 -0.10275528 0.39422664
0.10607252 -0.10252495 0.39334297
0.10655427 -0.10230625 0.39250395
0.10704453 -0.10209858 0.39170718
0.10754283 -0.10190123 0.39095005
0.10804846 -0.10171337 0.39022931
0.10856023 -0.10153367 0.3895399
0.10907961 -0.10136337 0.38888651
0.10960423 -0.10120007 0.38826001
0.11013421 -0.10104377 0.38766032
0.11066941 -0.10089419 0.38708648
0.11120959 -0.10075101 0.38653713
0.11175486 -0.10061419 0.38601223
0.11230541 -0.10048379 0.38551193
0.11286048 -0.10035901 0.38503322
0.11342011 -0.1002398 0.38457584
0.11398442 -0.10012613 0.38413978
0.11455379 -0.10001826 0.38372591
0.11512744 -0.099915408 0.3833313
0.11570526 -0.099817373 0.38295519
0.11628725 -0.099724084 0.3825973
0.1168735 -0.099635519 0.38225749
0.11746434 -0.099551894 0.38193667
0.11805855 -0.099472068 0.38163042
0.11865614 -0.099396013 0.38133863
0.11925823 -0.099324577 0.38106456
0.1198637 -0.099256761 0.38080439
0.12047204 -0.099192083 0.38055623
0.12108405 -0.09913113 0.3803224
0.12169924 -0.099073462 0.38010114
0.12231742 -0.099018864 0.37989166
0.12293863 -0.098967314 0.3796939
0.12356277 -0.098918669 0.37950727
0.12418935 -0.098872513 0.37933019
0.12481921 -0.098829456 0.37916499
0.12545124 -0.098788574 0.37900814
0.12608649 -0.098750666 0.37886271
0.1267239 -0.098714843 0.37872529
0.12736417 -0.098681629 0.37859786
0.12800702 -0.098650746 0.37847936
0.12865292 -0.098622523 0.37837109
0.12930124 -0.098596454 0.37827107
0.12995254 -0.098572925 0.3781808
0.13060701 -0.098552033 0.37810063
0.13126425 -0.098533422 0.37802926
0.1319247 -0.098517418 0.37796783
0.13258855 -0.098504089 0.37791669
0.13325547 -0.098493174 0.37787482
0.13392572 -0.098484822 0.37784278
0.1345996 -0.098479196 0.37782121
0.1352772 -0.098476343 0.37781027
0.13595863 -0.098476298 0.37781009
0.13664368 -0.098478861 0.37781993
0.13733295 -0.098484419 0.37784123
0.13802618 -0.098492749 0.37787321
0.13872378 -0.098504111 0.37791678
0.13942577 -0.098518454 0.37797183
0.14013229 -0.098535843 0.37803853
0.14084376 -0.098556526 0.37811789
0.14156035 -0.098580576 0.37821016
0.14228167 -0.098607682 0.37831414
0.14300843 -0.098638266 0.3784315
0.14374116 -0.098672673 0.37856349
0.1444792 -0.09871038 0.37870815
0.14522342 -0.098751925 0.37886754
0.14597446 -0.098797701 0.37904316
0.14673167 -0.09884721 0.37923312
0.14749634 -0.098901264 0.37944049
0.14826794 -0.098959431 0.37966365
0.14904779 -0.09902256 0.37990585
0.14983632 -0.099090829 0.38016778
0.15063438 -0.099164769 0.38045144
0.15144236 -0.099244542 0.38075751
0.1522623 -0.099331394 0.3810907
0.15309601 -0.099426396 0.38145518
0.15394488 -0.099530362 0.38185406
0.15481153 -0.09964484 0.38229325
0.15569885 -0.099771552 0.38277939
0.15661243 -0.099913888 0.38332549
0.15755682 -0.10007454 0.38394186
0.1585394 -0.10025796 0.38464552
0.1595711 -0.10047069 0.38546169
0.16067007 -0.10072376 0.38643259
