# .PCD v0.7 - Point Cloud Data file format
VERSION 0.7
FIELDS x y z
SIZE 4 4 4
TYPE F F F
COUNT 1 1 1
WIDTH 1341
HEIGHT 1
VIEWPOINT 0 0 0 1 0 0 0
POINTS 1341
DATA ascii
-0.16947818 -0.046449576 0.46397913
-0.16867436 -0.046458695 0.46407023
-0.16787787 -0.046469934 0.4641825
-0.16708888 -0.046483371 0.46431673
-0.16630699 -0.046498928 0.46447212
-0.1655318 -0.04651653 0.46464795
-0.16476348 -0.046536252 0.46484491
-0.16400117 -0.046557873 0.46506092
-0.16324548 -0.046581618 0.46529809
-0.16249505 -0.046607107 0.46555269
-0.16175047 -0.046634547 0.46582681
-0.16101074 -0.04666369 0.46611789
-0.16027659 -0.046694756 0.46642819
-0.15954708 -0.046727508 0.46675536
-0.15882301 -0.046762213 0.46710202
-0.15810348 -0.046798628 0.46746579
-0.1573891 -0.046836976 0.46784881
-0.15668002 -0.046877313 0.46825173
-0.15597612 -0.046919644 0.4686746
-0.15527768 -0.046964098 0.46911862
-0.15458524 -0.047010854 0.46958566
-0.1538983 -0.047059808 0.47007468
-0.15321718 -0.047111101 0.47058702
-0.1525411 -0.047164518 0.4711206
-0.15186991 -0.047220055 0.47167534
-0.15120329 -0.047277652 0.47225067
-0.15054049 -0.047337092 0.47284442
-0.14988171 -0.047398489 0.47345769
-0.14922668 -0.047461782 0.47408992
-0.14857736 -0.04752763 0.47474769
-0.14793558 -0.047596667 0.47543728
-0.14730355 -0.047669664 0.47616643
-0.14668572 -0.047748137 0.47695029
-0.14608862 -0.047834326 0.47781122
-0.14551698 -0.047929924 0.47876614
-0.14497043 -0.048034977 0.47981551
-0.14444549 -0.048148498 0.48094946
-0.1439326 -0.048267428 0.48213744
-0.14342611 -0.048389964 0.48336142
-0.14293373 -0.048518788 0.48464823
-0.14246966 -0.04865887 0.48604751
-0.14206506 -0.048821121 0.48766822
-0.14174488 -0.049014583 0.48960069
-0.14157645 -0.04926328 0.49208486
-0.14162461 -0.049590956 0.49535799
-0.14194794 -0.050019752 0.49964118
-0.19860609 -0.046958923 0.47767368
-0.19669089 -0.046708729 0.47512865
-0.19522732 -0.046564065 0.47365713
-0.19388072 -0.046446152 0.47245768
-0.19259235 -0.046341207 0.47139016
-0.19135317 -0.046247218 0.4704341
-0.19016084 -0.046163768 0.46958524
-0.18901169 -0.0460901 0.46883586
-0.18790178 -0.04602538 0.46817753
-0.18682405 -0.045967996 0.46759379
-0.18577264 -0.045916595 0.46707094
-0.18474366 -0.045870293 0.46659994
-0.18373531 -0.045828715 0.46617702
-0.18274502 -0.04579128 0.46579623
-0.18177085 -0.045757554 0.46545318
-0.1808127 -0.045727577 0.46514821
-0.17987017 -0.04570128 0.46488073
-0.17894316 -0.045678698 0.46465102
-0.17803061 -0.045659617 0.46445692
-0.17713094 -0.045643669 0.4642947
-0.17624444 -0.045630984 0.46416566
-0.17536855 -0.045620933 0.46406344
-0.1745044 -0.045613863 0.46399149
-0.1736498 -0.045609228 0.46394435
-0.17280434 -0.045606956 0.46392125
-0.17196761 -0.045606982 0.46392152
-0.17113963 -0.045609336 0.46394548
-0.17031975 -0.045613889 0.46399176
-0.16950761 -0.045620564 0.46405968
-0.16870278 -0.045629289 0.46414843
-0.16790506 -0.045640029 0.46425766
-0.16711462 -0.045652866 0.46438825
-0.16633192 -0.045667958 0.46454176
-0.16555554 -0.045684949 0.46471459
-0.16478622 -0.045704063 0.46490905
-0.16402379 -0.045725301 0.46512508
-0.16326787 -0.04574858 0.46536186
-0.16251846 -0.045773931 0.46561974
-0.16177513 -0.045801271 0.46589786
-0.16103743 -0.045830496 0.46619514
-0.16030486 -0.045861494 0.46651044
-0.15957735 -0.045894276 0.46684393
-0.15885442 -0.045928732 0.46719441
-0.15813668 -0.045965061 0.46756396
-0.15742339 -0.046003081 0.4679507
-0.15671462 -0.046042837 0.46835512
-0.15601176 -0.046084773 0.46878168
-0.1553137 -0.04612859 0.4692274
-0.15462095 -0.046174474 0.46969414
-0.15393388 -0.046222571 0.4701834
-0.1532535 -0.046273213 0.47069854
-0.15257835 -0.046326019 0.47123566
-0.15190841 -0.046381 0.47179493
-0.15124363 -0.046438184 0.47237664
-0.15058392 -0.046497583 0.47298086
-0.1499276 -0.046558715 0.47360268
-0.14927568 -0.046621915 0.47424558
-0.14862777 -0.046687111 0.47490877
-0.14798552 -0.046754844 0.47559774
-0.14735128 -0.046825916 0.47632071
-0.14672862 -0.046901524 0.47708979
-0.14612225 -0.046983261 0.47792125
-0.14553967 -0.047073662 0.47884083
-0.1449859 -0.047174517 0.47986671
-0.14445928 -0.047285467 0.48099533
-0.14395256 -0.047404315 0.48220429
-0.14345601 -0.04752798 0.48346221
-0.14296883 -0.047656279 0.48476729
-0.14250368 -0.047793541 0.48616353
-0.14208755 -0.04794905 0.4877454
-0.14175479 -0.048134804 0.4896349
-0.14156725 -0.048372507 0.49205288
-0.14163941 -0.048702512 0.49540973
-0.14203982 -0.049150284 0.49996457
-0.19879757 -0.046141736 0.47813421
-0.19687238 -0.045894001 0.4755671
-0.19538708 -0.045747086 0.47404474
-0.19401695 -0.045625966 0.47278965
-0.19270679 -0.04551794 0.47167027
-0.19145204 -0.045422103 0.47067717
-0.19025134 -0.045338292 0.4698087
-0.18909682 -0.045264788 0.46904704
-0.18798196 -0.045200158 0.46837729
-0.1868985 -0.045142528 0.46778011
-0.18584077 -0.045090616 0.46724221
-0.18480569 -0.045043759 0.46675664
-0.18379052 -0.045001339 0.46631709
-0.18279374 -0.044963058 0.46592042
-0.18181503 -0.04492889 0.46556634
-0.18085468 -0.044898957 0.46525618
-0.17991158 -0.044873051 0.46498775
-0.17898549 -0.044851165 0.46476093
-0.17807432 -0.044832829 0.46457094
-0.1771761 -0.044817597 0.46441311
-0.17629139 -0.04480565 0.46428931
-0.17541695 -0.044796214 0.46419153
-0.17455406 -0.04478965 0.46412352
-0.17370035 -0.044785392 0.46407938
-0.17285541 -0.044783361 0.46405834
-0.17201881 -0.044783488 0.46405965
-0.17119025 -0.044785712 0.46408272
-0.17036921 -0.04478994 0.4641265
-0.16955571 -0.044796199 0.46419138
-0.16874918 -0.044804372 0.46427608
-0.16794944 -0.044814438 0.46438038
-0.16715631 -0.044826377 0.46450409
-0.16637138 -0.044840645 0.46465194
-0.16559258 -0.044856727 0.46481857
-0.16482128 -0.044875007 0.46500799
-0.16405612 -0.044895157 0.46521679
-0.16329917 -0.044917766 0.46545109
-0.16254829 -0.044942293 0.46570525
-0.16180415 -0.044968944 0.46598142
-0.1610671 -0.04499786 0.46628103
-0.16033566 -0.045028649 0.46660009
-0.15961008 -0.045061421 0.46693969
-0.15888968 -0.04509601 0.46729809
-0.15817362 -0.045132209 0.46767318
-0.15746188 -0.045170031 0.46806514
-0.156755 -0.045209661 0.46847579
-0.15605316 -0.045251187 0.46890607
-0.15535578 -0.045294467 0.46935457
-0.15466316 -0.04533961 0.46982238
-0.15397629 -0.045386948 0.47031289
-0.15329599 -0.045436766 0.4708291
-0.15262152 -0.045488868 0.471369
-0.1519528 -0.045543276 0.4719328
-0.15128963 -0.045599971 0.47252029
-0.15063129 -0.045658778 0.47312966
-0.1499785 -0.04571994 0.47376347
-0.14932978 -0.045783058 0.47441748
-0.14868477 -0.045848042 0.47509089
-0.14804381 -0.045915034 0.47578508
-0.14740962 -0.045984924 0.47650927
-0.14678393 -0.046058301 0.47726965
-0.14617245 -0.046137024 0.4780854
-0.14557856 -0.046222273 0.47896877
-0.14501563 -0.046318423 0.47996512
-0.14448258 -0.046425335 0.48107296
-0.14397867 -0.046542954 0.48229176
-0.14349259 -0.046667807 0.48358551
-0.14301346 -0.046796456 0.48491862
-0.14255102 -0.046932183 0.48632506
-0.14212991 -0.047083285 0.48789084
-0.14178585 -0.04726195 0.48974219
-0.14158574 -0.047491141 0.49211717
-0.14167035 -0.047819331 0.49551794
-0.19908065 -0.045343749 0.47881505
-0.19708468 -0.04508473 0.47607991
-0.19557288 -0.04493469 0.47449553
-0.1941734 -0.044809245 0.47317088
-0.19283953 -0.044697903 0.47199515
-0.19156957 -0.044600453 0.4709661
-0.19035853 -0.044515915 0.4700734
-0.18919642 -0.044442113 0.46929407
-0.18807441 -0.044377111 0.46860766
-0.18698275 -0.04431871 0.46799099
-0.18591733 -0.04426603 0.4674347
-0.18487398 -0.044218149 0.46692911
-0.18385132 -0.044174802 0.46647137
-0.18284972 -0.044136137 0.46606308
-0.18186998 -0.044102419 0.46570703
-0.18091044 -0.04407331 0.46539962
-0.17996989 -0.044048574 0.46513844
-0.17904657 -0.044027843 0.46491954
-0.17813818 -0.044010613 0.46473756
-0.17724293 -0.043996476 0.46458828
-0.17636105 -0.043985534 0.46447277
-0.17548902 -0.043976963 0.46438223
-0.1746271 -0.043970849 0.46431771
-0.17377445 -0.043967031 0.46427736
-0.17292969 -0.043965176 0.46425778
-0.17209271 -0.043965288 0.46425897
-0.1712634 -0.043967377 0.46428102
-0.17044108 -0.043971285 0.4643223
-0.16962577 -0.043977052 0.46438318
-0.1688171 -0.043984603 0.46446294
-0.16801478 -0.043993894 0.46456105
-0.16721919 -0.044005051 0.46467885
-0.16643061 -0.044018168 0.46481737
-0.16564801 -0.044033017 0.46497416
-0.16487335 -0.044050127 0.46515486
-0.16410448 -0.044068977 0.46535388
-0.16334401 -0.044090286 0.46557891
-0.16258995 -0.04411355 0.46582457
-0.16184348 -0.044139128 0.46609467
-0.16110423 -0.044166956 0.46638852
-0.16037241 -0.04419712 0.46670705
-0.15964653 -0.04422925 0.46704632
-0.15892768 -0.044263676 0.46740985
-0.15821368 -0.04429983 0.46779162
-0.15750469 -0.044337783 0.4681924
-0.15680015 -0.044377401 0.46861076
-0.15609971 -0.044418618 0.46904597
-0.15540384 -0.044461589 0.46949974
-0.15471259 -0.04450636 0.46997252
-0.15402652 -0.044553127 0.47046635
-0.15334593 -0.044602003 0.47098246
-0.15267123 -0.044653147 0.47152254
-0.15200315 -0.04470681 0.4720892
-0.15134117 -0.04476288 0.47268128
-0.15068489 -0.044821285 0.47329801
-0.15003441 -0.044882089 0.47394007
-0.14938852 -0.044944968 0.47460407
-0.14874746 -0.045010038 0.47529119
-0.14810944 -0.045076784 0.47599599
-0.14747632 -0.04514581 0.47672489
-0.14685056 -0.045217913 0.47748625
-0.14623518 -0.045294084 0.47829062
-0.14563569 -0.045376107 0.47915673
-0.14506194 -0.045467176 0.48011839
-0.1445207 -0.045569591 0.48119989
-0.14401405 -0.045684215 0.48241025
-0.14353523 -0.045809112 0.48372915
-0.14306685 -0.045938894 0.48509961
-0.1426117 -0.046074547 0.48653206
-0.14218946 -0.046222579 0.48809522
-0.14184035 -0.046396378 0.48993048
-0.14163083 -0.046618301 0.4922739
-0.14172903 -0.046944946 0.49572316
-0.19952051 -0.044578336 0.47987297
-0.19734094 -0.044283479 0.47669894
-0.19578497 -0.044126589 0.47501007
-0.19434811 -0.043995287 0.47359663
-0.19299014 -0.043880761 0.47236377
-0.19170314 -0.043781426 0.47129449
-0.19048202 -0.043696322 0.47037834
-0.18931124 -0.04362205 0.46957886
-0.18817934 -0.043556117 0.46886909
-0.18707767 -0.043496616 0.46822858
-0.18600157 -0.043442544 0.46764651
-0.18494916 -0.043393537 0.46711898
-0.18392172 -0.04334997 0.46664998
-0.18291993 -0.043312076 0.46624207
-0.18194212 -0.043279536 0.46589178
-0.18098588 -0.043251846 0.4655937
-0.18004942 -0.043228649 0.46534398
-0.17913027 -0.043209411 0.46513689
-0.17822511 -0.043193381 0.46496436
-0.1773338 -0.043180574 0.46482646
-0.17645307 -0.043170225 0.46471509
-0.17558241 -0.04316226 0.46462935
-0.17472066 -0.043156423 0.4645665
-0.17386796 -0.043152772 0.46452719
-0.17302309 -0.04315104 0.46450853
-0.1721855 -0.04315111 0.46450931
-0.17135499 -0.043152969 0.46452934
-0.1705316 -0.043156646 0.46456891
-0.16971463 -0.043161992 0.46462646
-0.16890395 -0.043168999 0.46470189
-0.1680996 -0.043177702 0.46479556
-0.16730195 -0.043188222 0.46490881
-0.16651028 -0.0432004 0.46503991
-0.16572414 -0.043214142 0.46518785
-0.16494538 -0.04322996 0.46535811
-0.16417253 -0.043247495 0.46554688
-0.16340701 -0.043267153 0.46575847
-0.16264884 -0.043288969 0.46599331
-0.16189767 -0.043312881 0.46625075
-0.16115443 -0.043339185 0.46653387
-0.16041923 -0.043367926 0.46684328
-0.15969151 -0.04339901 0.4671779
-0.15897161 -0.04343256 0.46753904
-0.15825756 -0.043468077 0.46792138
-0.15755065 -0.043505944 0.46832898
-0.15684871 -0.0435456 0.46875587
-0.15615079 -0.043586805 0.46919945
-0.1554573 -0.043629706 0.46966127
-0.15476775 -0.043674186 0.47014007
-0.15408318 -0.043720569 0.47063938
-0.15340376 -0.043768939 0.47116005
-0.15272939 -0.043819293 0.47170213
-0.15206131 -0.043872029 0.4722698
-0.15139924 -0.043927103 0.47286266
-0.15074465 -0.043984983 0.47348571
-0.15009589 -0.044045232 0.4741343
-0.14945281 -0.044107851 0.47480834
-0.14881457 -0.044172626 0.47550565
-0.14818101 -0.044239547 0.47622603
-0.14755055 -0.044308182 0.47696486
-0.1469257 -0.044379316 0.4777306
-0.14630957 -0.044453941 0.47853392
-0.14570695 -0.044533577 0.47939119
-0.14512482 -0.044620465 0.4803265
-0.14457357 -0.044717953 0.4813759
-0.14406095 -0.044828635 0.4825674
-0.14358558 -0.044952322 0.48389885
-0.14312989 -0.045083724 0.48531336
-0.14268444 -0.045219991 0.48678023
-0.1422662 -0.045366623 0.48835865
-0.14191368 -0.045536164 0.49018374
-0.14169972 -0.04575257 0.4925133
-0.141818 -0.046079665 0.49603438
-0.19763787 -0.043488942 0.47741619
-0.19603002 -0.043323923 0.47560462
-0.19455104 -0.043186054 0.47409111
-0.19316132 -0.043066874 0.47278279
-0.19185635 -0.042965613 0.47167116
-0.1906224 -0.042879429 0.47072503
-0.18943956 -0.042804018 0.46989718
-0.18829495 -0.042736605 0.46915713
-0.18718144 -0.042675678 0.46848828
-0.18609427 -0.04262023 0.46787956
-0.18503602 -0.04257093 0.46733835
-0.18400779 -0.042528115 0.46686837
-0.18300787 -0.042491481 0.46646619
-0.1820346 -0.042460725 0.46612856
-0.18108395 -0.042434983 0.46584597
-0.18015219 -0.042413455 0.46560961
-0.1792362 -0.04239545 0.46541196
-0.17833458 -0.042380691 0.46524993
-0.177444 -0.042368423 0.46511528
-0.1765634 -0.042358443 0.4650057
-0.17569292 -0.042350799 0.4649218
-0.17483082 -0.042345114 0.4648594
-0.17397678 -0.042341337 0.46481794
-0.17313087 -0.042339511 0.46479788
-0.17229192 -0.042339377 0.46479642
-0.17146038 -0.042341068 0.46481499
-0.17063548 -0.042344432 0.46485189
-0.16981724 -0.042349484 0.46490738
-0.16900498 -0.042356085 0.46497983
-0.16819927 -0.042364407 0.46507117
-0.16739953 -0.042374317 0.46517998
-0.16660535 -0.042385746 0.46530545
-0.16581763 -0.042398937 0.46545026
-0.16503529 -0.042413648 0.46561176
-0.16425943 -0.042430189 0.46579331
-0.1634893 -0.042448379 0.46599302
-0.16272657 -0.042468689 0.466216
-0.16197008 -0.042490851 0.46645927
-0.1612213 -0.042515274 0.46672741
-0.16048053 -0.042542081 0.46702167
-0.15974855 -0.042571515 0.46734479
-0.15902503 -0.042603523 0.46769616
-0.15830912 -0.042637922 0.46807379
-0.15760165 -0.042674977 0.46848059
-0.15690066 -0.042714193 0.46891111
-0.15620549 -0.042755432 0.46936381
-0.15551487 -0.04279837 0.46983516
-0.15482783 -0.042842772 0.47032261
-0.15414497 -0.04288882 0.47082815
-0.15346737 -0.042936858 0.47135547
-0.1527947 -0.04298681 0.47190386
-0.15212689 -0.0430387 0.4724735
-0.15146586 -0.043093104 0.47307074
-0.15081117 -0.043149937 0.47369462
-0.15016472 -0.043209791 0.4743517
-0.14952318 -0.043271754 0.47503191
-0.14888862 -0.043336455 0.47574222
-0.14825818 -0.043403119 0.47647405
-0.14763184 -0.043471768 0.47722766
-0.14700986 -0.043542512 0.47800428
-0.14639448 -0.043616053 0.47881159
-0.14579026 -0.043693818 0.47966531
-0.14520299 -0.043777622 0.48058528
-0.14464268 -0.043870606 0.48160604
-0.14412221 -0.043976869 0.48277259
-0.14364524 -0.044097781 0.48409995
-0.1432015 -0.044230431 0.48555619
-0.14276923 -0.044368282 0.48706949
-0.14235906 -0.044514757 0.48867744
-0.14200731 -0.044681426 0.49050713
-0.14179595 -0.044894643 0.4928478
-0.14195138 -0.045227412 0.49650091
-0.19799067 -0.042703867 0.47826841
-0.19631088 -0.042526864 0.47628602
-0.19478169 -0.042381074 0.47465321
-0.19335766 -0.04225697 0.47326332
-0.19203267 -0.042153511 0.47210461
-0.19078235 -0.042065598 0.47112
-0.18958448 -0.041988507 0.47025663
-0.18842536 -0.041919347 0.46948206
-0.18729685 -0.041856408 0.46877715
-0.18619987 -0.04179997 0.46814507
-0.18513921 -0.04175121 0.46759897
-0.18411316 -0.041709848 0.46713573
-0.18311843 -0.041675232 0.46674803
-0.18215081 -0.041646492 0.46642616
-0.18120456 -0.041622393 0.46615624
-0.18027626 -0.041602213 0.46593025
-0.17936221 -0.041585151 0.46573916
-0.17846037 -0.041570771 0.46557811
-0.17756906 -0.041558716 0.4654431
-0.17668802 -0.041548964 0.46533388
-0.17581587 -0.041541219 0.46524712
-0.17495257 -0.0415355 0.46518311
-0.17409717 -0.041531615 0.46513957
-0.17324944 -0.041529525 0.46511617
-0.172409 -0.041529175 0.46511227
-0.17157571 -0.04153055 0.46512765
-0.17074932 -0.041533619 0.46516204
-0.16992983 -0.041538406 0.46521562
-0.16911675 -0.04154481 0.46528736
-0.16830935 -0.041552681 0.46537551
-0.16750804 -0.041562147 0.46548152
-0.16671272 -0.041573193 0.46560526
-0.16592321 -0.041585818 0.46574664
-0.1651389 -0.041599877 0.46590409
-0.16436075 -0.041615639 0.46608061
-0.16358799 -0.041632932 0.46627429
-0.16282113 -0.041651916 0.4664869
-0.16206077 -0.04167277 0.46672046
-0.16130741 -0.041695647 0.4669767
-0.16056074 -0.041720506 0.46725512
-0.15982233 -0.041747786 0.46756062
-0.15909353 -0.041777875 0.46789762
-0.15837319 -0.041810524 0.46826327
-0.15766253 -0.041846085 0.46866155
-0.15696003 -0.041884214 0.46908855
-0.15626489 -0.041924726 0.46954229
-0.15557647 -0.041967493 0.47002128
-0.15489303 -0.042012081 0.47052065
-0.15421328 -0.042058166 0.47103679
-0.15353763 -0.042105887 0.47157124
-0.15286656 -0.042155404 0.4721258
-0.15220022 -0.042206787 0.47270125
-0.15153995 -0.042260434 0.47330213
-0.15088567 -0.042316377 0.47392866
-0.15024045 -0.042375512 0.47459093
-0.14960089 -0.042436931 0.47527879
-0.14896823 -0.042501021 0.47599661
-0.14834145 -0.042567544 0.47674164
-0.14771955 -0.042636253 0.47751114
-0.147102 -0.042707033 0.47830385
-0.14648873 -0.042779893 0.47911987
-0.14588371 -0.042856045 0.47997275
-0.14529414 -0.042937674 0.48088694
-0.14472772 -0.043027159 0.48188916
-0.14419983 -0.043129254 0.48303258
-0.14372009 -0.043247081 0.4843522
-0.14328271 -0.043379169 0.48583153
-0.14286642 -0.043519307 0.48740104
-0.14246829 -0.043666754 0.48905239
-0.14212422 -0.043832704 0.49091098
-0.14192374 -0.044045299 0.49329197
-0.1421421 -0.044391382 0.49716797
-0.19842155 -0.041932225 0.47930929
-0.19663544 -0.041736625 0.47707346
-0.1950475 -0.041581556 0.47530094
-0.19358446 -0.04145186 0.47381845
-0.19223142 -0.041344672 0.47259325
-0.19096132 -0.041254446 0.47156191
-0.18974496 -0.041175079 0.4706547
-0.18856771 -0.041103523 0.46983677
-0.18742487 -0.041038856 0.46909755
-0.18632315 -0.040982645 0.46845505
-0.18526247 -0.040934991 0.46791032
-0.18424174 -0.040895764 0.46746194
-0.18325178 -0.040863041 0.46708789
-0.18228911 -0.040836129 0.46678028
-0.18134549 -0.040813256 0.46651882
-0.18041702 -0.04079359 0.46629405
-0.17950182 -0.040776759 0.46610165
-0.17859912 -0.040762622 0.46594006
-0.17770615 -0.040750585 0.46580246
-0.17682262 -0.040740602 0.46568838
-0.17594853 -0.040732715 0.4655982
-0.17508264 -0.040726658 0.46552896
-0.17422469 -0.040722396 0.46548027
-0.17337476 -0.040719979 0.46545261
-0.17253245 -0.040719338 0.46544531
-0.171698 -0.040720552 0.4654592
-0.17086995 -0.040723305 0.46549064
-0.17004904 -0.040727798 0.46554199
-0.16923462 -0.040733892 0.46561167
-0.16842638 -0.04074154 0.46569911
-0.16762455 -0.040750828 0.46580526
-0.16682827 -0.040761568 0.46592802
-0.16603728 -0.040773712 0.46606681
-0.16525269 -0.040787559 0.46622509
-0.16447236 -0.040802605 0.46639711
-0.16369843 -0.040819407 0.46658912
-0.16292936 -0.04083759 0.46679699
-0.16216578 -0.040857352 0.46702287
-0.16140874 -0.040878974 0.46727005
-0.16065803 -0.04090244 0.46753824
-0.15991451 -0.040927988 0.4678303
-0.15917903 -0.040955879 0.4681491
-0.15845259 -0.0409864 0.46849799
-0.1577362 -0.041019868 0.46888053
-0.15702942 -0.041056208 0.46929592
-0.15633254 -0.041095547 0.46974558
-0.15564398 -0.041137509 0.47022524
-0.15496227 -0.041181754 0.47073099
-0.15428638 -0.041228045 0.4712601
-0.15361355 -0.041275661 0.47180441
-0.15294459 -0.041324861 0.47236678
-0.15228058 -0.041375957 0.47295082
-0.15162201 -0.041429114 0.47355843
-0.15096949 -0.041484535 0.47419193
-0.1503242 -0.041542586 0.47485548
-0.14968599 -0.041603271 0.47554916
-0.14905538 -0.041666776 0.47627506
-0.14843166 -0.041732959 0.47703156
-0.14781366 -0.041801531 0.47781539
-0.14720093 -0.041872405 0.47862551
-0.14659156 -0.041945077 0.47945619
-0.14598857 -0.042020448 0.48031774
-0.14539939 -0.042100716 0.48123527
-0.14482903 -0.042187434 0.48222649
-0.14429343 -0.042285386 0.48334613
-0.14380889 -0.042399582 0.48465145
-0.14337622 -0.042530559 0.4861486
-0.14297695 -0.042673122 0.48777816
-0.14259343 -0.042822175 0.48948193
-0.14226186 -0.042988788 0.49138641
-0.14207855 -0.043202568 0.49383005
-0.14241475 -0.043578014 0.49812159
-0.19898945 -0.041185182 0.48068109
-0.19701955 -0.040955923 0.47800538
-0.1953546 -0.040788323 0.47604927
-0.19383989 -0.040650751 0.47444364
-0.19245632 -0.040539578 0.47314614
-0.19116217 -0.040446337 0.47205791
-0.18992408 -0.040364176 0.47109899
-0.18872732 -0.040290099 0.47023442
-0.18757218 -0.040224284 0.46946627
-0.18646638 -0.040168494 0.46881515
-0.18540923 -0.040122725 0.46828097
-0.18439186 -0.040085185 0.46784282
-0.18340756 -0.040054522 0.46748495
-0.18244584 -0.040028535 0.46718162
-0.18150155 -0.040006142 0.46692029
-0.18057188 -0.039986782 0.46669433
-0.17965521 -0.039970126 0.46649995
-0.17874871 -0.039955597 0.46633035
-0.17785245 -0.039943222 0.46618593
-0.17696548 -0.039932825 0.4660646
-0.17608766 -0.039924409 0.46596637
-0.17521863 -0.039917912 0.46589053
-0.17435835 -0.03991336 0.46583739
-0.17350604 -0.039910588 0.46580505
-0.17266147 -0.039909586 0.46579334
-0.17182478 -0.039910402 0.46580288
-0.17099535 -0.03991292 0.46583229
-0.17017294 -0.039917111 0.46588117
-0.16935739 -0.039922956 0.46594942
-0.16854848 -0.03993044 0.46603674
-0.16774592 -0.039939504 0.46614254
-0.16694881 -0.039949968 0.46626467
-0.1661583 -0.039962124 0.46640652
-0.1653728 -0.039975613 0.46656397
-0.1645927 -0.039990552 0.46673834
-0.16381755 -0.040006857 0.46692863
-0.16304755 -0.04002459 0.46713561
-0.16228268 -0.040043779 0.46735954
-0.16152298 -0.04006445 0.46760079
-0.16076891 -0.040086735 0.46786091
-0.16002125 -0.040110867 0.46814254
-0.1592809 -0.040137094 0.46844867
-0.15854816 -0.040165536 0.46878061
-0.15782548 -0.04019684 0.46914595
-0.15711316 -0.040231135 0.46954623
-0.15641196 -0.040268663 0.46998423
-0.15572016 -0.040309034 0.47045541
-0.15503873 -0.040352546 0.47096324
-0.15436447 -0.040398415 0.47149858
-0.15369485 -0.040446013 0.47205412
-0.15302987 -0.04049537 0.47263017
-0.15236863 -0.040546276 0.47322431
-0.15171202 -0.040598989 0.47383952
-0.15106058 -0.040653698 0.47447807
-0.15041645 -0.040711004 0.47514689
-0.14977962 -0.040770955 0.47584659
-0.14915128 -0.040833924 0.47658151
-0.14853033 -0.04089966 0.47734872
-0.14791599 -0.040967986 0.47814617
-0.14730796 -0.041038875 0.47897354
-0.14670388 -0.041111708 0.47982359
-0.14610489 -0.041186836 0.48070043
-0.14551562 -0.041265626 0.48161998
-0.14494406 -0.041350406 0.48260948
-0.14440279 -0.041444913 0.48371246
-0.14391333 -0.04155552 0.48500341
-0.14348404 -0.041684963 0.48651418
-0.14310218 -0.041829869 0.4882054
-0.14273742 -0.041981596 0.48997623
-0.14242293 -0.042150091 0.49194276
-0.1422684 -0.04236833 0.49448991
-0.14288424 -0.042820197 0.49976373
-0.19748095 -0.040187586 0.47912481
-0.19571574 -0.040003438 0.47692934
-0.19413497 -0.039855525 0.47516587
-0.19271144 -0.039738722 0.47377336
-0.19138834 -0.039641682 0.47261643
-0.19012427 -0.039556056 0.47159556
-0.18890429 -0.039478872 0.47067538
-0.18773797 -0.03941226 0.46988121
-0.1866315 -0.039357666 0.46923029
-0.18557756 -0.039313696 0.4687061
-0.1845641 -0.039277941 0.46827984
-0.18358064 -0.039248273 0.46792611
-0.1826181 -0.039222825 0.4676227
-0.18167131 -0.039200537 0.46735701
-0.18073882 -0.039181143 0.46712577
-0.17981777 -0.039164059 0.46692207
-0.17890643 -0.039148938 0.4667418
-0.17800559 -0.039135981 0.46658733
-0.17711513 -0.039125193 0.46645874
-0.17623349 -0.039116263 0.46635225
-0.17536183 -0.039109472 0.46627131
-0.17449838 -0.039104458 0.4662115
-0.1736431 -0.039101232 0.46617305
-0.17279702 -0.039100058 0.46615905
-0.1719584 -0.039100565 0.4661651
-0.17112733 -0.039102808 0.46619183
-0.17030331 -0.039106689 0.46623811
-0.16948619 -0.039112199 0.4663038
-0.16867587 -0.03911934 0.46638894
-0.1678724 -0.039128155 0.46649402
-0.16707523 -0.039138529 0.46661773
-0.16628328 -0.039150242 0.46675736
-0.16549826 -0.039163709 0.46691793
-0.16471782 -0.039178409 0.46709317
-0.1639429 -0.039194576 0.46728593
-0.16317292 -0.039212096 0.46749479
-0.16240756 -0.039230917 0.4677192
-0.16164745 -0.039251212 0.46796113
-0.16089204 -0.03927286 0.46821922
-0.16014192 -0.039296038 0.46849558
-0.15939786 -0.039320957 0.46879268
-0.15866108 -0.039347947 0.46911445
-0.15793215 -0.039377186 0.46946302
-0.15721275 -0.039409127 0.46984383
-0.15650448 -0.039444219 0.4702622
-0.15580897 -0.039482925 0.47072369
-0.15512379 -0.039524693 0.47122163
-0.15444908 -0.039569598 0.47175702
-0.15378252 -0.039617103 0.47232336
-0.1531212 -0.039666496 0.47291225
-0.15246309 -0.039717279 0.47351769
-0.15180923 -0.039769743 0.47414318
-0.15116078 -0.039824229 0.47479278
-0.15051773 -0.039880767 0.47546685
-0.14988291 -0.039940145 0.47617477
-0.14925611 -0.040002357 0.47691646
-0.14863744 -0.040067483 0.4776929
-0.14802717 -0.040135644 0.47850555
-0.14742334 -0.040206365 0.47934869
-0.14682417 -0.040279195 0.48021698
-0.14622954 -0.040354144 0.48111054
-0.14564373 -0.040432435 0.48204395
-0.14507297 -0.040515874 0.48303869
-0.14453031 -0.040608216 0.48413962
-0.14403448 -0.040714912 0.4854117
-0.14360967 -0.040843118 0.48694018
-0.14324181 -0.040989194 0.48868173
-0.14290152 -0.041145019 0.49053952
-0.14261054 -0.041317068 0.49259073
-0.14250429 -0.041545138 0.4953098
-0.19805115 -0.03943688 0.48050824
-0.19614403 -0.039228808 0.47797301
-0.19447987 -0.039067701 0.47601005
-0.19300154 -0.038942661 0.47448656
-0.19164185 -0.038840555 0.47324246
-0.19034803 -0.038750943 0.47215059
-0.18910429 -0.038670763 0.4711737
-0.18792799 -0.038603719 0.47035679
-0.18681981 -0.03855012 0.46970373
-0.18576825 -0.038507767 0.46918771
-0.18475512 -0.038473036 0.46876451
-0.18377016 -0.038443875 0.46840921
-0.18280418 -0.038418431 0.46809921
-0.18185332 -0.038395945 0.46782523
-0.18091555 -0.038376026 0.46758252
-0.17998917 -0.038358349 0.46736714
-0.17907308 -0.038342707 0.46717656
-0.17816772 -0.038329225 0.46701229
-0.17727271 -0.038317855 0.46687376
-0.17638773 -0.03830855 0.4667604
-0.17551219 -0.038301222 0.46667111
-0.17464621 -0.038295917 0.46660647
-0.17378917 -0.038292531 0.46656519
-0.17294018 -0.038290892 0.46654522
-0.17209938 -0.038291059 0.46654728
-0.17126641 -0.038292978 0.46657068
-0.17044079 -0.038296573 0.46661445
-0.16962242 -0.03830184 0.46667862
-0.16881084 -0.038308695 0.46676216
-0.16800563 -0.038317073 0.46686423
-0.16720763 -0.038327191 0.46698752
-0.16641548 -0.038338758 0.46712846
-0.16562907 -0.03835177 0.467287
-0.16484866 -0.03836631 0.46746415
-0.16407339 -0.038382206 0.46765783
-0.16330405 -0.038399659 0.46787047
-0.16253947 -0.03841842 0.46809906
-0.16177896 -0.038438343 0.4683418
-0.16102332 -0.03845964 0.46860129
-0.16027172 -0.03848213 0.46887532
-0.15952618 -0.038506322 0.46917009
-0.15878621 -0.038532119 0.46948442
-0.15805349 -0.038559966 0.46982372
-0.15732859 -0.038590029 0.47019002
-0.1566139 -0.038622942 0.47059101
-0.15591076 -0.038659073 0.47103125
-0.15522212 -0.03869921 0.4715203
-0.15454388 -0.038742401 0.47204655
-0.15387754 -0.038789075 0.47261524
-0.15321851 -0.038838115 0.47321275
-0.15256497 -0.03888911 0.47383407
-0.15191464 -0.038941499 0.4744724
-0.15126897 -0.038995687 0.47513261
-0.15062904 -0.039051976 0.47581846
-0.14999478 -0.039110385 0.47653013
-0.14936964 -0.039171867 0.47727925
-0.14875416 -0.039236605 0.47806805
-0.14814609 -0.039304066 0.47889
-0.14754735 -0.039374806 0.47975191
-0.14695378 -0.03944777 0.48064092
-0.14636512 -0.039522927 0.48155665
-0.14578362 -0.039600924 0.48250699
-0.14521496 -0.039683368 0.48351148
-0.14467217 -0.039773922 0.48461482
-0.14417517 -0.039878238 0.48588583
-0.14375283 -0.040004607 0.48742557
-0.1434045 -0.040153261 0.48923677
-0.14308819 -0.040312771 0.4911803
-0.1428279 -0.040490154 0.49334157
-0.14280081 -0.04073628 0.49634045
-0.19884472 -0.038724683 0.48243359
-0.19667426 -0.03847035 0.47926509
-0.19488257 -0.038288187 0.47699571
-0.19333449 -0.038152482 0.47530511
-0.19193061 -0.038044151 0.47395551
-0.19060008 -0.037949458 0.47277579
-0.18933125 -0.03786625 0.4717392
-0.18814144 -0.037798166 0.47089103
-0.18703097 -0.037745479 0.47023463
-0.18597855 -0.03770408 0.46971887
-0.18496376 -0.037669964 0.46929386
-0.18397446 -0.037640754 0.46892995
-0.18300369 -0.037615076 0.46861008
-0.18204722 -0.037592117 0.46832404
-0.18110207 -0.037571292 0.46806461
-0.18016987 -0.037552971 0.46783635
-0.17924871 -0.037536789 0.46763474
-0.17833887 -0.037522834 0.46746093
-0.17743939 -0.037510939 0.46731272
-0.17655137 -0.037501365 0.46719345
-0.17567214 -0.037493575 0.46709642
-0.1748033 -0.037487939 0.46702617
-0.17394367 -0.037484229 0.46697995
-0.17309186 -0.03748218 0.46695444
-0.17224854 -0.037481956 0.46695164
-0.17141339 -0.037483521 0.46697113
-0.17058611 -0.037486825 0.46701232
-0.16976647 -0.037491851 0.46707493
-0.16895331 -0.037498366 0.46715608
-0.16814724 -0.037506524 0.46725774
-0.1673474 -0.037516169 0.46737787
-0.16655466 -0.037527505 0.4675191
-0.16576727 -0.037540171 0.46767688
-0.16498631 -0.037554428 0.46785453
-0.16421086 -0.037570093 0.46804968
-0.16344099 -0.037587207 0.46826285
-0.16267662 -0.037605762 0.46849406
-0.16191672 -0.037625555 0.46874061
-0.16116165 -0.037646685 0.46900386
-0.16041078 -0.037669022 0.46928212
-0.15966436 -0.037692647 0.46957645
-0.15892281 -0.037717678 0.4698883
-0.1581874 -0.037744448 0.47022179
-0.15745816 -0.03777298 0.47057724
-0.15673845 -0.037804123 0.47096524
-0.15602912 -0.037838124 0.47138882
-0.15533265 -0.037875634 0.47185612
-0.15465102 -0.037917189 0.47237381
-0.15398213 -0.037962351 0.47293645
-0.15332405 -0.038010698 0.47353876
-0.15267354 -0.038061474 0.47417128
-0.15202758 -0.038113955 0.47482511
-0.15138572 -0.038168073 0.4754993
-0.15074873 -0.038224038 0.47619653
-0.15011734 -0.03828207 0.4769195
-0.14949457 -0.03834299 0.47767845
-0.14888074 -0.038406916 0.47847483
-0.14827727 -0.038474277 0.479314
-0.14768256 -0.038544714 0.48019153
-0.14709511 -0.03861789 0.48110318
-0.14651209 -0.038693104 0.48204017
-0.14593582 -0.038771011 0.48301074
-0.14537181 -0.038853128 0.48403376
-0.14483011 -0.038942233 0.48514384
-0.1443342 -0.039044812 0.48642179
-0.143916 -0.039169796 0.48797882
-0.1435879 -0.039320994 0.48986244
-0.14330438 -0.039486349 0.49192244
-0.14308624 -0.039671887 0.49423388
-0.14319929 -0.039952151 0.49772546
-0.19733818 -0.037732795 0.48088297
-0.19536804 -0.037521012 0.47818393
-0.19372174 -0.037369825 0.47625715
-0.19225961 -0.037252977 0.47476795
-0.19088623 -0.037152354 0.47348559
-0.18958579 -0.037065089 0.47237343
-0.1883813 -0.036995877 0.47149137
-0.18726487 -0.03694341 0.47082272
-0.18620832 -0.036902331 0.47029918
-0.18518926 -0.036868341 0.46986601
-0.18419327 -0.036838654 0.46948764
-0.18321638 -0.036812529 0.46915469
-0.18225259 -0.036788803 0.46885234
-0.18130088 -0.036767311 0.46857843
-0.18036228 -0.036748286 0.46833599
-0.17943548 -0.036731496 0.46812201
-0.17852044 -0.036716968 0.46793684
-0.1776168 -0.036704663 0.46777999
-0.1767249 -0.036694668 0.46765265
-0.17584272 -0.03668661 0.46754995
-0.17497109 -0.036680687 0.46747446
-0.17410833 -0.036676571 0.46742201
-0.1732543 -0.036674265 0.46739262
-0.17240942 -0.036673885 0.46738777
-0.1715724 -0.036675181 0.46740431
-0.17074274 -0.036678068 0.46744108
-0.16992047 -0.036682583 0.46749863
-0.16910517 -0.036688656 0.467576
-0.16829774 -0.036696497 0.46767595
-0.16749655 -0.036705792 0.46779439
-0.16670154 -0.036716539 0.46793139
-0.165914 -0.036729053 0.46809086
-0.16513108 -0.036742721 0.46826506
-0.16435581 -0.03675824 0.46846282
-0.16358517 -0.036774963 0.46867594
-0.16282047 -0.036793198 0.46890834
-0.16206102 -0.036812816 0.46915838
-0.16130641 -0.036833748 0.46942511
-0.16055621 -0.03685591 0.46970758
-0.15981054 -0.036879357 0.47000638
-0.159069 -0.036904007 0.47032055
-0.15833184 -0.036929946 0.47065112
-0.15760085 -0.036957614 0.47100371
-0.15687665 -0.036987182 0.47138053
-0.15616275 -0.037019506 0.47179252
-0.15545973 -0.037054788 0.47224215
-0.15477155 -0.037094008 0.47274199
-0.15409824 -0.037137248 0.47329307
-0.15343909 -0.037184402 0.47389403
-0.15279049 -0.037234657 0.47453448
-0.15214951 -0.037287347 0.47520599
-0.15151146 -0.037341353 0.47589424
-0.15087798 -0.037397105 0.47660482
-0.15025036 -0.037454959 0.47734213
-0.14962947 -0.037515171 0.47810948
-0.14901857 -0.037578594 0.47891778
-0.14841786 -0.037645347 0.47976848
-0.14782767 -0.037715562 0.48066336
-0.14724641 -0.037788898 0.48159799
-0.14667068 -0.037864536 0.48256195
-0.1460999 -0.037942361 0.48355377
-0.14554074 -0.038024161 0.48459625
-0.14500412 -0.038112864 0.48572674
-0.14451183 -0.038214374 0.48702043
-0.14410247 -0.038339186 0.4886111
-0.14380041 -0.038494263 0.49058744
-0.14355342 -0.038666092 0.49277729
-0.14339238 -0.038863357 0.49529135
-0.19825967 -0.037037522 0.48312849
-0.19597709 -0.036772743 0.47967467
-0.19417332 -0.036595859 0.47736734
-0.19263761 -0.036468145 0.47570136
-0.19121468 -0.036360733 0.47430027
-0.18987264 -0.036267806 0.47308812
-0.18864633 -0.036196247 0.47215468
-0.18752126 -0.036143556 0.47146735
-0.18645777 -0.036102299 0.47092921
-0.18543091 -0.036067799 0.47047916
-0.18442881 -0.036037814 0.47008801
-0.1834428 -0.036010712 0.46973449
-0.18247068 -0.035986096 0.4694134
-0.18151157 -0.035963833 0.46912298
-0.18056631 -0.035944115 0.46886578
-0.17963399 -0.0359268 0.46863991
-0.17871408 -0.035911813 0.46844444
-0.17780569 -0.035899013 0.46827745
-0.17691052 -0.035888769 0.46814385
-0.17602478 -0.03588035 0.46803403
-0.17515042 -0.03587418 0.46795356
-0.17428488 -0.03586977 0.46789598
-0.17342889 -0.035867289 0.46786365
-0.172582 -0.035866674 0.46785563
-0.1717421 -0.035867516 0.4678666
-0.17091048 -0.035870098 0.46790031
-0.17008629 -0.035874281 0.46795484
-0.16926889 -0.03587994 0.46802866
-0.1684586 -0.035887171 0.46812299
-0.16765559 -0.035896033 0.46823859
-0.16685916 -0.035906401 0.46837384
-0.16606909 -0.035918251 0.46852842
-0.16528545 -0.035931621 0.46870282
-0.1645088 -0.035946656 0.46889892
-0.16373727 -0.035962965 0.46911168
-0.16297236 -0.035980914 0.46934578
-0.16221283 -0.036000237 0.46959788
-0.16145839 -0.036020897 0.46986738
-0.16070879 -0.036042865 0.47015393
-0.15996388 -0.036066126 0.47045735
-0.15922289 -0.036090519 0.47077554
-0.1584859 -0.03611609 0.47110909
-0.15775375 -0.036143042 0.47146064
-0.1570276 -0.036171667 0.47183406
-0.15630946 -0.036202461 0.47223574
-0.15560187 -0.036236055 0.47267392
-0.15490697 -0.036272984 0.47315565
-0.15422864 -0.036314223 0.47369358
-0.15356641 -0.036359735 0.47428724
-0.15291727 -0.036408871 0.47492823
-0.15227915 -0.036461208 0.47561088
-0.15164682 -0.036515523 0.4763194
-0.15101795 -0.036571298 0.47704697
-0.15039356 -0.036628805 0.47779709
-0.14977637 -0.036688734 0.47857884
-0.14916883 -0.03675174 0.47940069
-0.14857247 -0.036818251 0.48026827
-0.14798653 -0.036888137 0.48117992
-0.14741124 -0.036961522 0.48213714
-0.14684235 -0.037037387 0.48312676
-0.14627947 -0.037115686 0.48414811
-0.1457269 -0.03719756 0.48521608
-0.14519562 -0.037285887 0.48636824
-0.14470816 -0.037386604 0.48768204
-0.14431505 -0.037513085 0.4893319
-0.14404435 -0.037673138 0.49141967
-0.14384401 -0.037853688 0.49377483
-0.14377306 -0.038070749 0.49660626
-0.19679891 -0.036058079 0.48168615
-0.19473039 -0.0358373 0.47873685
-0.1930808 -0.035691995 0.47679579
-0.19159138 -0.035575133 0.47523469
-0.19020092 -0.035475679 0.4739061
-0.18894231 -0.035400029 0.4728955
-0.1878012 -0.035345804 0.47217116
-0.18672627 -0.0353036 0.47160736
-0.18569173 -0.035268679 0.47114089
-0.18467927 -0.035237655 0.47072643
-0.18368463 -0.035209756 0.47035375
-0.18270287 -0.035184078 0.47001073
-0.18173648 -0.035161138 0.46970427
-0.18078385 -0.035140656 0.46943066
-0.1798456 -0.035122789 0.46919197
-0.17892033 -0.0351073 0.46898505
-0.17800818 -0.03509425 0.46881074
-0.17710897 -0.03508364 0.468669
-0.17622061 -0.035075087 0.46855474
-0.17534289 -0.035068579 0.4684678
-0.17447512 -0.035064008 0.46840674
-0.17361611 -0.035061162 0.46836871
-0.17276578 -0.035060048 0.46835384
-0.17192352 -0.03506057 0.46836081
-0.17108901 -0.035062686 0.46838906
-0.17026313 -0.035066601 0.46844137
-0.16944396 -0.035071943 0.46851274
-0.16863187 -0.035078809 0.46860448
-0.167826 -0.035087049 0.46871454
-0.16702794 -0.03509701 0.4688476
-0.1662351 -0.035108175 0.46899676
-0.16545011 -0.035121121 0.46916971
-0.16467179 -0.035135627 0.46936348
-0.16389886 -0.035151433 0.46957463
-0.16313328 -0.03516899 0.46980917
-0.1623729 -0.035187859 0.47006124
-0.16161861 -0.035208255 0.47033367
-0.1608689 -0.035229865 0.47062236
-0.16012456 -0.035252884 0.47092989
-0.15938473 -0.035277151 0.47125405
-0.15864883 -0.035302557 0.47159341
-0.15791647 -0.035329022 0.47194695
-0.15718932 -0.03535695 0.47232002
-0.15646826 -0.035386555 0.47271553
-0.15575743 -0.035418812 0.47314644
-0.15505704 -0.035453815 0.47361404
-0.15437299 -0.03549296 0.47413695
-0.15370667 -0.035536639 0.47472045
-0.15305626 -0.035584509 0.47535992
-0.15241963 -0.035636138 0.47604963
-0.15179212 -0.035690498 0.4767758
-0.15116814 -0.035746314 0.47752139
-0.15054876 -0.035803858 0.47829014
-0.14993542 -0.035863515 0.47908705
-0.14933142 -0.035926107 0.47992322
-0.14873844 -0.035992101 0.48080477
-0.14815895 -0.036062151 0.48174056
-0.14758883 -0.036135316 0.48271796
-0.14702804 -0.036211655 0.48373774
-0.14647356 -0.036290463 0.48479047
-0.14592786 -0.036372408 0.48588517
-0.14540619 -0.036461368 0.48707357
-0.14493033 -0.036562972 0.48843083
-0.14455776 -0.036692031 0.49015489
-0.14433253 -0.036860306 0.49240282
-0.14419051 -0.03705205 0.49496424
-0.14430118 -0.03731152 0.4984304
-0.19805527 -0.035413858 0.48476124
-0.19545697 -0.035104245 0.48052311
-0.19360909 -0.034927253 0.47810036
-0.19203649 -0.034798559 0.47633877
-0.19057669 -0.03468924 0.47484234
-0.18927258 -0.034607403 0.4737221
-0.18810591 -0.034550067 0.47293726
-0.18701752 -0.034506649 0.47234297
-0.1859708 -0.034470562 0.47184896
-0.18494867 -0.034438718 0.47141308
-0.18394266 -0.034409598 0.47101447
-0.18295236 -0.034383159 0.47065255
-0.18197741 -0.034359369 0.47032693
-0.18101697 -0.034338113 0.47003594
-0.18007191 -0.034319587 0.46978235
-0.17914127 -0.034303647 0.46956417
-0.17822498 -0.034290317 0.46938172
-0.17732173 -0.03427938 0.46923199
-0.17642981 -0.03427054 0.46911097
-0.1755484 -0.034263667 0.46901688
-0.17467712 -0.034258708 0.46894902
-0.17381437 -0.034255389 0.46890357
-0.1729611 -0.03425391 0.46888334
-0.17211647 -0.034254137 0.46888646
-0.17127939 -0.034255877 0.46891028
-0.17045048 -0.034259275 0.4689568
-0.16962902 -0.034264214 0.46902442
-0.16881526 -0.034270767 0.46911409
-0.168008 -0.034278713 0.46922284
-0.16720763 -0.034288149 0.46935201
-0.16641338 -0.034298941 0.46949974
-0.16562618 -0.034311306 0.46966901
-0.16484457 -0.034324963 0.46985596
-0.16407092 -0.034340423 0.47006759
-0.16330397 -0.034357458 0.47030076
-0.16254264 -0.034375861 0.47055265
-0.16178755 -0.03439578 0.47082531
-0.16103801 -0.034417097 0.47111711
-0.16029412 -0.034439851 0.47142857
-0.15955442 -0.034463756 0.4717558
-0.15881979 -0.034489017 0.4721016
-0.1580883 -0.034515236 0.47246048
-0.15736096 -0.034542646 0.47283572
-0.1566394 -0.03457164 0.47323257
-0.1559258 -0.034602713 0.47365791
-0.1552214 -0.034636181 0.47411606
-0.15453176 -0.034673329 0.47462457
-0.15386088 -0.034715127 0.47519672
-0.15320855 -0.034761604 0.47583291
-0.15257265 -0.03481235 0.47652754
-0.15194854 -0.034866378 0.47726709
-0.15133062 -0.034922451 0.47803465
-0.15071568 -0.034979858 0.47882044
-0.15010713 -0.035039417 0.47963575
-0.14950714 -0.035101678 0.48048797
-0.14891964 -0.035167612 0.48139054
-0.14834499 -0.035237376 0.48234546
-0.14778298 -0.035310976 0.48335296
-0.14722997 -0.03538762 0.48440209
-0.14668432 -0.035466954 0.48548806
-0.14614743 -0.035549376 0.48661628
-0.14563601 -0.035639022 0.48784339
-0.14517616 -0.035742458 0.48925927
-0.14483939 -0.035877649 0.49110982
-0.1446754 -0.036057565 0.49357259
-0.14461876 -0.036266625 0.4964343
-0.19655374 -0.034429591 0.48321947
-0.1942714 -0.034181383 0.47973588
-0.19256225 -0.034032255 0.47764286
-0.19101819 -0.033911094 0.4759424
-0.18964387 -0.033819109 0.4746514
-0.18844059 -0.03375693 0.47377869
-0.18733127 -0.033711094 0.47313541
-0.1862707 -0.033673648 0.47260985
-0.18523657 -0.033640668 0.47214693
-0.18421988 -0.033610556 0.47172433
-0.18321909 -0.033583082 0.47133872
-0.18223447 -0.033558328 0.47099131
-0.18126687 -0.033536494 0.47068489
-0.18031509 -0.033517394 0.47041681
-0.1793786 -0.033500969 0.47018626
-0.1784573 -0.033487238 0.46999356
-0.1775493 -0.033475883 0.46983418
-0.17665279 -0.033466596 0.46970385
-0.17576668 -0.033459198 0.46960002
-0.17489064 -0.033453658 0.46952227
-0.17402382 -0.033449832 0.46946859
-0.1731666 -0.033447828 0.46944046
-0.17231762 -0.0334474 0.46943444
-0.17147769 -0.033448733 0.46945316
-0.17064668 -0.033451833 0.46949664
-0.16982383 -0.033456564 0.46956304
-0.16900793 -0.033462722 0.46964949
-0.16819948 -0.033470426 0.46975759
-0.16739766 -0.033479534 0.46988544
-0.16660267 -0.033490103 0.47003379
-0.16581349 -0.03350196 0.47020018
-0.16503043 -0.033515178 0.4703857
-0.16425449 -0.033529986 0.47059351
-0.16348541 -0.033546355 0.47082329
-0.16272283 -0.033564236 0.47107425
-0.16196692 -0.033583693 0.4713473
-0.16121711 -0.033604622 0.47164103
-0.16047293 -0.033626951 0.47195446
-0.159734 -0.033650625 0.47228673
-0.15899993 -0.033675589 0.47263706
-0.15826958 -0.03370161 0.47300225
-0.15754275 -0.033728667 0.473382
-0.15682128 -0.033757169 0.47378203
-0.15610562 -0.033787243 0.47420415
-0.15539937 -0.033819698 0.47465965
-0.15470505 -0.033855122 0.47515681
-0.15402943 -0.033895057 0.47571731
-0.15337497 -0.033940118 0.47634974
-0.15273865 -0.033989727 0.47704598
-0.15211767 -0.034043331 0.47779831
-0.15150504 -0.034099422 0.4785856
-0.15089595 -0.034156963 0.47939315
-0.15029372 -0.034216728 0.48023194
-0.1496993 -0.03427897 0.48110554
-0.14911577 -0.03434445 0.48202452
-0.14854799 -0.034414347 0.48300552
-0.1479934 -0.034488138 0.48404118
-0.14744997 -0.034565423 0.4851259
-0.14691371 -0.034645323 0.4862473
-0.14638875 -0.034728862 0.48741978
-0.14589028 -0.034819737 0.48869517
-0.14545381 -0.034926601 0.49019501
-0.14516802 -0.035071172 0.4922241
-0.14509302 -0.035268765 0.49499729
-0.14519393 -0.035511829 0.4984087
-0.19521074 -0.03347712 0.48205552
-0.19320449 -0.033281311 0.47923595
-0.19154903 -0.033144437 0.47726503
-0.19007131 -0.033037227 0.47572124
-0.1888088 -0.032966617 0.47470447
-0.18767266 -0.032917529 0.47399762
-0.18659534 -0.032878354 0.47343355
-0.18554792 -0.032844115 0.4729405
-0.18451837 -0.032812733 0.47248864
-0.18350606 -0.032784145 0.47207695
-0.18251142 -0.032758459 0.47170711
-0.18153465 -0.032735754 0.47138017
-0.18057479 -0.032715902 0.47109431
-0.17963152 -0.032698881 0.47084922
-0.17870407 -0.032684591 0.47064343
-0.1777904 -0.0326727 0.47047222
-0.1768894 -0.032663032 0.47033298
-0.1759979 -0.03265503 0.47021779
-0.17511664 -0.032648865 0.47012901
-0.17424418 -0.032644287 0.47006306
-0.17338108 -0.032641422 0.47002184
-0.17252773 -0.032640383 0.47000685
-0.17168447 -0.032641247 0.47001928
-0.17085075 -0.03264394 0.47005808
-0.17002587 -0.032648358 0.47012171
-0.16920941 -0.032654446 0.47020936
-0.16839959 -0.032661885 0.47031647
-0.16759799 -0.032671001 0.47044775
-0.1668019 -0.032681286 0.47059587
-0.16601184 -0.032692868 0.47076264
-0.16522709 -0.03270562 0.47094622
-0.16444986 -0.032719996 0.47115326
-0.16367863 -0.032735728 0.47137976
-0.16291444 -0.032753032 0.47162896
-0.16215706 -0.0327719 0.47190064
-0.16140652 -0.032792356 0.47219518
-0.16066229 -0.032814316 0.47251141
-0.15992373 -0.032837674 0.47284776
-0.15918958 -0.032862194 0.47320083
-0.15846002 -0.032887928 0.47357139
-0.15773518 -0.032914929 0.47396019
-0.15701364 -0.032942917 0.47436321
-0.15629719 -0.032972284 0.47478607
-0.15558961 -0.033003855 0.47524071
-0.15489292 -0.033038102 0.47573382
-0.15421271 -0.033076264 0.47628337
-0.15355451 -0.033119604 0.4769074
-0.15291905 -0.033168361 0.47760949
-0.15230098 -0.033221461 0.47837412
-0.15169409 -0.033277623 0.47918281
-0.15109244 -0.033335581 0.48001742
-0.15049532 -0.033395216 0.48087609
-0.1499061 -0.033457305 0.48177016
-0.14933008 -0.033523079 0.48271728
-0.14876898 -0.033592995 0.48372406
-0.1482242 -0.033667445 0.48479611
-0.14769106 -0.033745434 0.48591909
-0.14716633 -0.033826292 0.48708341
-0.14665374 -0.033910923 0.48830208
-0.146172 -0.034003757 0.48963884
-0.14577135 -0.0341167 0.49126515
-0.14557244 -0.034278523 0.49359536
-0.14562094 -0.034500964 0.49679837
-0.19712518 -0.032927372 0.48678306
-0.19405615 -0.03255976 0.48134845
-0.19220346 -0.032393843 0.47889563
-0.19058228 -0.032265622 0.47700009
-0.18922359 -0.032180883 0.47574732
-0.18804687 -0.03212646 0.47494277
-0.18694581 -0.032084521 0.47432277
-0.18588328 -0.032048844 0.47379532
-0.1848404 -0.032016233 0.47331324
-0.18381578 -0.031986505 0.47287372
-0.1828098 -0.031959753 0.47247827
-0.18182229 -0.031935997 0.47212708
-0.18085238 -0.031915125 0.47181851
-0.17990281 -0.03189766 0.4715603
-0.17896949 -0.031882927 0.47134247
-0.17804983 -0.031870496 0.47115871
-0.17714176 -0.031860027 0.47100395
-0.17624365 -0.031851262 0.47087437
-0.17535478 -0.031844087 0.4707683
-0.17447583 -0.031838655 0.47068802
-0.17360651 -0.031834938 0.47063303
-0.17274733 -0.031833045 0.47060508
-0.17189902 -0.031833149 0.47060663
-0.17106183 -0.031835329 0.47063881
-0.17023487 -0.031839442 0.47069961
-0.16941808 -0.031845503 0.47078925
-0.16860901 -0.031853087 0.47090134
-0.16780697 -0.031862084 0.47103435
-0.16701058 -0.031872246 0.47118461
-0.16622058 -0.031883743 0.47135454
-0.16543631 -0.031896461 0.47154257
-0.16465658 -0.031910188 0.47174552
-0.16388425 -0.031925503 0.47197193
-0.16311783 -0.031942133 0.47221777
-0.16235894 -0.03196042 0.47248814
-0.16160765 -0.031980406 0.4727836
-0.16086297 -0.032001916 0.47310159
-0.16012383 -0.032024764 0.47343937
-0.15939066 -0.03204906 0.47379854
-0.15866205 -0.032074541 0.47417521
-0.15793808 -0.032101236 0.47456986
-0.15721682 -0.032128777 0.47497705
-0.156501 -0.032157738 0.47540519
-0.15579247 -0.032188527 0.47586036
-0.15509465 -0.03222188 0.47635344
-0.15441202 -0.032258775 0.47689888
-0.15375155 -0.032300748 0.47751936
-0.15311593 -0.032348435 0.47822437
-0.15250118 -0.032401104 0.47900295
-0.15189993 -0.032457251 0.47983304
-0.15130413 -0.032515213 0.48068991
-0.15071398 -0.032575067 0.48157477
-0.15013112 -0.032637201 0.48249334
-0.14956324 -0.032703333 0.48347101
-0.14901188 -0.032773875 0.48451385
-0.14847718 -0.032848932 0.48562348
-0.14795649 -0.032928001 0.48679239
-0.14744337 -0.033009708 0.4880003
-0.14694574 -0.033095889 0.48927438
-0.14648673 -0.033191856 0.49069309
-0.14614503 -0.033315737 0.49252447
-0.14609505 -0.03350804 0.49536741
-0.14636563 -0.033776682 0.4993389
-0.19562486 -0.031947684 0.48523957
-0.19304204 -0.031667572 0.48098505
-0.19123773 -0.031513218 0.47864062
-0.18971376 -0.031403866 0.47697973
-0.18846127 -0.031338662 0.4759894
-0.18732917 -0.031292975 0.47529545
-0.18624632 -0.03125513 0.47472066
-0.18518935 -0.031221299 0.47420681
-0.18415125 -0.031190351 0.47373673
-0.1831311 -0.031162167 0.47330868
-0.18213265 -0.031137431 0.47293296
-0.18115264 -0.031115629 0.47260183
-0.18019418 -0.031097341 0.47232407
-0.17925258 -0.031081801 0.47208804
-0.1783255 -0.031068644 0.47188818
-0.17740938 -0.031057276 0.47171554
-0.17650497 -0.031047862 0.47157255
-0.17560865 -0.031039786 0.47144988
-0.17472155 -0.03103327 0.47135091
-0.17384379 -0.031028355 0.47127625
-0.17297621 -0.031025216 0.4712286
-0.17212076 -0.031024236 0.4712137
-0.17128 -0.031025905 0.47123906
-0.17045054 -0.031029649 0.47129592
-0.16963415 -0.031035822 0.47138968
-0.16882654 -0.031043669 0.47150886
-0.16802548 -0.031052809 0.47164768
-0.16723035 -0.031063145 0.47180468
-0.16644073 -0.031074611 0.47197884
-0.16565569 -0.031087056 0.47216785
-0.16487683 -0.031100797 0.47237656
-0.16410269 -0.031115575 0.472601
-0.16333489 -0.031131716 0.47284618
-0.16257432 -0.031149412 0.47311494
-0.16182148 -0.031168781 0.47340915
-0.16107599 -0.031189781 0.47372809
-0.16033697 -0.031212265 0.4740696
-0.15960374 -0.031236123 0.47443196
-0.15887584 -0.031261284 0.47481412
-0.15815258 -0.031287637 0.47521439
-0.15743303 -0.031315017 0.47563025
-0.15671739 -0.031343479 0.47606254
-0.15600881 -0.031373672 0.47652116
-0.15530914 -0.031406004 0.47701222
