# .PCD v0.7 - Point Cloud Data file format
VERSION 0.7
FIELDS x y z
SIZE 4 4 4
TYPE F F F
COUNT 1 1 1
WIDTH 87
HEIGHT 1
VIEWPOINT 0 0 0 1 0 0 0
POINTS 87
DATA ascii
-0.16654071 -0.019984886 0.49241224
-0.16828786 -0.019876517 0.48974213
-0.17613399 -0.019864736 0.48945183
-0.17767563 -0.019938663 0.49127331
-0.18093552 -0.020792101 0.49050131
-0.17907178 -0.020679053 0.48783442
-0.16455737 -0.020735109 0.48915687
-0.18625295 -0.023336658 0.48820528
-0.14979783 -0.029606059 0.48994291
-0.15953763 -0.022538556 0.48999944
-0.149498 -0.029181292 0.49777243
-0.15873201 -0.027248275 0.47955468
-0.15796323 -0.022951923 0.49898624
-0.16925915 -0.023808831 0.47997108
-0.1600273 -0.022088274 0.49981052
-0.17950867 -0.024655409 0.47959763
-0.18814628 -0.028113812 0.47956342
-0.19097209 -0.026779994 0.4867661
-0.17955601 -0.030281417 0.47288716
-0.16985996 -0.030225707 0.47201717
-0.19712518 -0.032927372 0.48678306
-0.14933142 -0.035926107 0.47992322
-0.14897624 -0.03015531 0.49903232
-0.15356152 -0.030712303 0.47961605
-0.146172 -0.034003757 0.48963884
-0.15892281 -0.037717678 0.4698883
-0.18971376 -0.031403866 0.47697973
-0.19667426 -0.03847035 0.47926509
-0.15040988 -0.030257381 0.48620781
-0.16982383 -0.033456564 0.46956304
-0.1784573 -0.033487238 0.46999356
-0.18773797 -0.03941226 0.46988121
-0.19898945 -0.041185182 0.48068109
-0.18992408 -0.040364176 0.47109899
-0.14203982 -0.049150284 0.49996457
-0.15041645 -0.040711004 0.47514689
-0.14176019 -0.049903117 0.48965356
-0.15641196 -0.040268663 0.46998423
-0.14497146 -0.049766321 0.47981891
-0.1911287 -0.048735701 0.46988225
-0.16923462 -0.040733892 0.46561167
-0.17950182 -0.040776759 0.46610165
-0.18996625 -0.048655055 0.46910471
-0.19030605 -0.057218969 0.46994382
-0.14667051 -0.059273921 0.47971442
-0.14284986 -0.059933856 0.4996435
-0.15027297 -0.05950981 0.47469366
-0.14346492 -0.059593122 0.48944291
-0.15630008 -0.059724424 0.46964806
-0.19952051 -0.044578336 0.47987297
-0.18946105 -0.058915179 0.46995047
-0.16982022 -0.059961215 0.46491554
-0.1792009 -0.059174068 0.46532029
-0.14934468 -0.064499587 0.47996584
-0.14791046 -0.069319233 0.4895463
-0.15968733 -0.063959651 0.46964401
-0.19946247 -0.054949529 0.47973338
-0.18770778 -0.061439343 0.46980566
-0.16971542 -0.068140104 0.46926332
-0.15001194 -0.069539063 0.48492143
-0.15358314 -0.069653198 0.47968361
-0.14638758 -0.068914771 0.49941382
-0.18728042 -0.07309559 0.47956133
-0.19429761 -0.068243235 0.48194736
-0.14977041 -0.072013497 0.48985323
-0.16029464 -0.069674738 0.4739444
-0.18965133 -0.059822902 0.47042245
-0.17845117 -0.068243794 0.46997741
-0.17982171 -0.069293 0.47134775
-0.14817221 -0.071609065 0.49935633
-0.15882464 -0.074002758 0.4798345
-0.19078974 -0.075000107 0.48630133
-0.19776273 -0.060151026 0.47980848
-0.15839967 -0.078979224 0.48921469
-0.1561058 -0.079627454 0.49880323
-0.1698118 -0.077344306 0.47908765
-0.17785926 -0.077461816 0.47981557
-0.18402272 -0.079494305 0.48696429
-0.16014192 -0.079850376 0.48914549
-0.17965214 -0.079991095 0.48465225
-0.18943086 -0.068298206 0.47626847
-0.157308 -0.08068233 0.49976411
-0.1806495 -0.081711881 0.48972598
-0.16906804 -0.082547583 0.48944333
-0.1761032 -0.082534589 0.48936629
-0.16998579 -0.086120121 0.49993199
-0.17977111 -0.085154742 0.4995589
