# .PCD v0.7 - Point Cloud Data file format
VERSION 0.7
FIELDS x y z
SIZE 4 4 4
TYPE F F F
COUNT 1 1 1
WIDTH 61
HEIGHT 1
VIEWPOINT 0 0 0 1 0 0 0
POINTS 61
DATA ascii
0.15414952 -0.10976714 0.43937188
0.14799775 -0.10514586 0.43993241
0.14611743 -0.10968497 0.42973465
0.13994873 -0.10738448 0.42983466
0.12983367 -0.107355 0.42971665
0.10908277 -0.11860272 0.43980801
0.15534288 -0.11892834 0.42952323
0.14979197 -0.11263427 0.42915803
0.13959521 -0.11036867 0.42638662
0.12137451 -0.11051673 0.42995483
0.13901213 -0.11931558 0.41997775
0.12991869 -0.11931308 0.41996896
0.15769166 -0.12514596 0.42958984
0.14928916 -0.12953588 0.42118743
0.16014844 -0.1190239 0.43843716
0.12029992 -0.12940779 0.42077094
0.13979755 -0.102571 0.4391011
0.14648761 -0.12983268 0.41969094
0.12812197 -0.10273558 0.43980563
0.13970526 -0.1299146 0.41752118
0.11785394 -0.10753676 0.43997431
0.12227518 -0.12984641 0.41973528
0.1460786 -0.15150326 0.42962041
0.11043059 -0.13930643 0.4326559
0.13938348 -0.13938348 0.41881731
0.12023367 -0.11011692 0.43142697
0.15706545 -0.13845029 0.42999691
0.10986783 -0.14477168 0.4397749
0.11358487 -0.11901213 0.42982584
0.14507881 -0.13750289 0.41999573
0.13762991 -0.15468827 0.42985716
0.10744227 -0.13836661 0.43958771
0.15914452 -0.11728517 0.43785098
0.11109687 -0.12967753 0.4291999
0.14127882 -0.14127882 0.41995999
0.15318245 -0.14772557 0.43217152
0.1101378 -0.12032848 0.43458
0.12983611 -0.1419491 0.41970202
0.15977778 -0.13555717 0.43314442
0.11902831 -0.14927003 0.42988428
0.11299307 -0.14946803 0.43958881
0.12606667 -0.13969551 0.41975486
0.11069709 -0.11545826 0.43991795
0.14989415 -0.13845184 0.42289427
0.15080205 -0.15158543 0.43429634
0.12040959 -0.14983444 0.42927969
0.11783258 -0.15433291 0.43989459
0.14969301 -0.11081171 0.43110242
0.13975136 -0.14202374 0.41992271
0.12752233 -0.15387954 0.429764
0.15298913 -0.14524285 0.42944068
0.14005913 -0.15732132 0.43499362
0.10658219 -0.12956274 0.43931094
0.13993604 -0.14990409 0.4250856
0.15961957 -0.12118537 0.4348419
0.11207286 -0.13921854 0.42997411
0.12749636 -0.15828496 0.43765807
0.14841449 -0.14996451 0.42965236
0.16033709 -0.12094223 0.43679664
0.1200697 -0.13989073 0.42263216
0.13232023 -0.15917926 0.43794656
