# .PCD v0.7 - Point Cloud Data file format
VERSION 0.7
FIELDS x y z
SIZE 4 4 4
TYPE F F F
COUNT 1 1 1
WIDTH 146
HEIGHT 1
VIEWPOINT 0 0 0 1 0 0 0
POINTS 146
DATA ascii
-0.17723057 -0.010165344 0.49004272
-0.16139059 -0.011238899 0.4984521
-0.15595245 -0.013033491 0.49831322
-0.19318734 -0.018584017 0.47919339
-0.19364808 -0.017048026 0.48467335
-0.16971852 -0.01904572 0.4692719
-0.17838791 -0.019067591 0.46981078
-0.18267773 -0.019920774 0.46994606
-0.18895179 -0.015998207 0.47941238
-0.1964986 -0.020387271 0.4809511
-0.18889347 -0.020040616 0.47277322
-0.15014349 -0.020219896 0.47700259
-0.2037365 -0.02736759 0.48165455
-0.13826743 -0.026946686 0.48979598
-0.1397289 -0.029849209 0.47964886
-0.14835377 -0.02032836 0.47956133
-0.19996746 -0.024618024 0.47887042
-0.20452315 -0.029835301 0.47942537
-0.1597451 -0.020762624 0.46981388
-0.16983034 -0.020649346 0.46725062
-0.16963442 -0.029447539 0.45986497
-0.17631009 -0.029454155 0.4599683
-0.17943178 -0.020687429 0.46811238
-0.18847476 -0.022447556 0.46960518
-0.19621347 -0.027546167 0.46988058
-0.20622729 -0.030825553 0.48138461
-0.16391654 -0.030293437 0.46011391
-0.19924121 -0.030162316 0.47102723
-0.18979327 -0.031284604 0.46249717
-0.13646933 -0.030176386 0.4993811
-0.1330055 -0.037559692 0.48993984
-0.13802917 -0.032451998 0.4797554
-0.14008678 -0.030603575 0.47791812
-0.20817912 -0.037498102 0.47789192
-0.14032818 -0.040275462 0.47006357
-0.20280923 -0.038529519 0.46945274
-0.16944787 -0.030243751 0.45935926
-0.13859868 -0.04619956 0.46994931
-0.20859133 -0.044973489 0.47490522
-0.13995369 -0.078144491 0.48951361
-0.14963822 -0.049326725 0.4595947
-0.1998722 -0.043158986 0.4645941
-0.20542659 -0.045320917 0.46962866
-0.17999795 -0.041411832 0.45461392
-0.18970495 -0.040090151 0.45825335
-0.19451752 -0.046037197 0.45985994
-0.13940519 -0.058897637 0.46981052
-0.20853241 -0.056093935 0.47477111
-0.13373518 -0.057562392 0.4798736
-0.20556062 -0.055522561 0.46993509
-0.14006957 -0.059667099 0.46919727
-0.19985954 -0.059915964 0.46456468
-0.14968249 -0.087866716 0.4895657
-0.15042056 -0.059256587 0.45945212
-0.18868366 -0.08805237 0.48093313
-0.19539337 -0.056834165 0.45996904
-0.15964508 -0.03275834 0.4597635
-0.13472688 -0.068467759 0.48977214
-0.13801697 -0.068792157 0.47971299
-0.20378467 -0.062279306 0.46974927
-0.14023229 -0.069044031 0.47548842
-0.19976453 -0.069981202 0.47025904
-0.19885762 -0.068819091 0.46812409
-0.15065512 -0.030634606 0.46529579
-0.14532518 -0.030929267 0.46977127
-0.13367367 -0.067962036 0.49903283
-0.15960757 -0.091391727 0.48484206
-0.16946976 -0.069684647 0.457183
-0.13735302 -0.076107085 0.49931896
-0.14024846 -0.041100007 0.46979654
-0.14928958 -0.019472552 0.47978875
-0.15968661 -0.070925742 0.45988309
-0.20136681 -0.075458653 0.47809112
-0.14015669 -0.079644591 0.49333614
-0.15004042 -0.040315568 0.46083
-0.15973586 -0.01428532 0.4799718
-0.16962442 -0.074236602 0.45983785
-0.16659902 -0.093138032 0.48482737
-0.17965101 -0.069795452 0.45790994
-0.14068794 -0.07894402 0.48899665
-0.15140311 -0.040235899 0.4599193
-0.18920878 -0.069445856 0.46107286
-0.16926551 -0.012554219 0.47998911
-0.17874272 -0.073404782 0.45982307
-0.17790729 -0.09310627 0.48466203
-0.18957987 -0.066788532 0.45995539
-0.13182941 -0.043643184 0.49886653
-0.16994661 -0.041360501 0.45405042
-0.18087453 -0.0110021 0.48794994
-0.19863339 -0.070728734 0.46959025
-0.14973329 -0.059312634 0.4598867
-0.20069748 -0.079669498 0.48270375
-0.19869618 -0.030927125 0.46973872
-0.19373359 -0.060982518 0.45996809
-0.18480028 -0.091307938 0.48439753
-0.14885303 -0.016639162 0.49861965
-0.15084863 -0.079911307 0.47381228
-0.19198911 -0.039393015 0.45976433
-0.18049683 -0.090464838 0.4799248
-0.14878517 -0.017218461 0.48951885
-0.15701529 -0.079988927 0.46925372
-0.1594125 -0.01192282 0.48961517
-0.16959801 -0.079145737 0.46430719
-0.16726521 -0.010150659 0.48933476
-0.17917678 -0.07930775 0.46525764
-0.13212831 -0.059656598 0.48996425
-0.13818477 -0.027456909 0.49907002
-0.14914143 -0.082568154 0.47931266
-0.15722774 -0.069279768 0.45997015
-0.18753877 -0.080010898 0.46938264
-0.14432523 -0.020743994 0.48936644
-0.15972771 -0.08177042 0.46976277
-0.17933351 -0.013395997 0.47912961
-0.18457463 -0.070926428 0.45988756
-0.1487865 -0.026705269 0.46999806
-0.1317656 -0.059811693 0.4986251
-0.15116481 -0.088583462 0.48864815
-0.1697963 -0.059326418 0.45364884
-0.19319648 -0.086785771 0.48354304
-0.17562687 -0.010123855 0.48804262
-0.18935311 -0.079214834 0.46968272
-0.14017704 -0.08016514 0.49656054
-0.14082791 -0.023846259 0.4988662
-0.15882197 -0.08871527 0.47982645
-0.1699332 -0.084330939 0.46986547
-0.16005246 -0.089785524 0.48092312
-0.17985412 -0.059405118 0.45425063
-0.17917018 -0.083443321 0.46963996
-0.18922484 -0.05977691 0.4570936
-0.16137081 -0.08955431 0.47968465
-0.14451604 -0.069927111 0.46989554
-0.17948687 -0.089097798 0.4772394
-0.15032767 -0.069929585 0.46428448
-0.18877046 -0.086825766 0.47895229
-0.19323014 -0.084295027 0.47929955
-0.20600568 -0.061844353 0.47290263
-0.17959709 -0.030278495 0.45988697
-0.16407013 -0.090476669 0.47998756
-0.13375847 -0.042854656 0.47995716
-0.14950375 -0.074963637 0.46958807
-0.1894116 -0.036058661 0.4595471
-0.17937535 -0.090336017 0.4792414
-0.13982342 -0.072292604 0.47997329
-0.19989598 -0.076089434 0.47664031
-0.13124527 -0.04463223 0.48996705
-0.14645119 -0.079921737 0.47899708
