# .PCD v0.7 - Point Cloud Data file format
VERSION 0.7
FIELDS x y z
SIZE 4 4 4
TYPE F F F
COUNT 1 1 1
WIDTH 1419
HEIGHT 1
VIEWPOINT 0 0 0 1 0 0 0
POINTS 1419
DATA ascii
0.14771917 -0.14237534 0.42321941
0.14875655 -0.14263803 0.42400032
0.14987658 -0.14297689 0.42500761
0.15104802 -0.14336109 0.42614967
0.15240513 -0.14391674 0.42780137
0.15411982 -0.14480275 0.43043506
0.11130931 -0.14695998 0.43920255
0.11160674 -0.14631131 0.43726394
0.11197752 -0.14576723 0.43563789
0.11241057 -0.14531122 0.43427509
0.11286424 -0.14488801 0.43301028
0.11335207 -0.14451414 0.43189296
0.11385258 -0.14416146 0.43083894
0.11438883 -0.14385849 0.42993349
0.11492291 -0.14355689 0.42903215
0.11547517 -0.14328191 0.42821029
0.11604504 -0.14303225 0.42746419
0.11662067 -0.14279297 0.42674908
0.11720771 -0.14257069 0.42608476
0.11779653 -0.14235346 0.42543557
0.11840169 -0.14215867 0.42485341
0.11901667 -0.14197809 0.42431372
0.11963006 -0.14179793 0.42377532
0.12025301 -0.14163132 0.42327741
0.12088738 -0.14148019 0.42282572
0.12152559 -0.1413354 0.42239299
0.12216529 -0.14119415 0.42197087
0.12281828 -0.14106992 0.4215996
0.12347064 -0.14094649 0.4212307
0.12413044 -0.14083301 0.42089155
0.12480319 -0.14073552 0.42060021
0.12547781 -0.14064129 0.42031857
0.12615146 -0.14054713 0.42003718
0.12683579 -0.1404659 0.41979444
0.12752567 -0.14039177 0.41957286
0.12822035 -0.14032376 0.41936961
0.12892503 -0.1402674 0.4192012
0.12963645 -0.14021903 0.41905662
0.13034748 -0.14017077 0.41891241
0.13107 -0.14013536 0.41880661
0.13179885 -0.14010708 0.41872206
0.13252737 -0.14007878 0.41863748
0.13327195 -0.14006768 0.41860431
0.13402021 -0.14006056 0.41858304
0.13476999 -0.14005509 0.41856667
0.13553995 -0.14007053 0.41861284
0.13631012 -0.14008602 0.41865912
0.13709041 -0.1401117 0.41873586
0.13788445 -0.14015104 0.41885346
0.13867895 -0.14019045 0.41897121
0.1394963 -0.14025237 0.41915628
0.14031787 -0.14031787 0.41935205
0.14115107 -0.14039424 0.41958025
0.14200269 -0.140488 0.41986045
0.14285544 -0.14058188 0.42014104
0.14374878 -0.1407145 0.42053738
0.14464906 -0.1408525 0.42094979
0.14557914 -0.14101791 0.42144418
0.14652394 -0.14119579 0.42197576
0.14750513 -0.14140673 0.42260617
0.14853147 -0.14165854 0.42335877
0.14959382 -0.14194195 0.42420575
0.15073687 -0.14229867 0.42527181
0.15197423 -0.14274035 0.42659181
0.15339483 -0.14334883 0.42841029
0.15558416 -0.14466597 0.4323467
0.110991 -0.14574975 0.43794656
0.11135876 -0.14519924 0.43629238
0.11176418 -0.14470521 0.43480793
0.11220241 -0.14426024 0.4334709
0.11269283 -0.14388809 0.43235266
0.11318718 -0.143526 0.4312647
0.11370207 -0.14319475 0.43026936
0.11423763 -0.14289385 0.42936519
0.11479463 -0.14262363 0.42855325
0.11534918 -0.142354 0.42774308
0.11591817 -0.14210567 0.42699689
0.11650664 -0.14188433 0.42633179
0.11709328 -0.14166367 0.42566878
0.1176888 -0.14145657 0.4250465
0.11829857 -0.14126916 0.42448336
0.11891312 -0.14108984 0.42394456
0.11952959 -0.14091508 0.42341942
0.12015525 -0.14075328 0.42293328
0.12079439 -0.14060923 0.42250043
0.12143213 -0.14046538 0.42206818
0.12207071 -0.14032428 0.42164421
0.1227274 -0.14020561 0.42128763
0.123388 -0.14009283 0.42094877
0.12404718 -0.13997985 0.42060927
0.12471233 -0.13987492 0.42029399
0.12538648 -0.1397813 0.42001265
0.12606667 -0.13969551 0.41975486
0.12675087 -0.13961515 0.4195134
0.12744631 -0.13954803 0.41931176
0.12814097 -0.13948089 0.41910997
0.12883964 -0.13941884 0.41892356
0.12955068 -0.13937084 0.41877934
0.1302613 -0.13932297 0.41863546
0.1309783 -0.13928241 0.4185136
0.13170798 -0.13925572 0.4184334
0.13243899 -0.13923073 0.41835833
0.1331806 -0.13921712 0.41831744
0.13392982 -0.13921157 0.41830072
0.13467899 -0.13920602 0.41828406
0.13544607 -0.13921896 0.41832292
0.13621539 -0.13923402 0.41836819
0.13699096 -0.13925529 0.41843209
0.13778213 -0.13929206 0.41854262
0.13857371 -0.13932887 0.41865322
0.13938348 -0.13938348 0.41881731
0.14020376 -0.13944794 0.419011
0.14103404 -0.1395216 0.41923234
0.14188491 -0.13961475 0.41951221
0.14273693 -0.13970803 0.41979247
0.1436197 -0.13983026 0.42015979
0.14450593 -0.13995457 0.4205333
0.14541867 -0.14010312 0.42097965
0.14636227 -0.14027968 0.42151019
0.14732981 -0.14047727 0.42210388
0.14832467 -0.14069872 0.42276931
0.14937159 -0.14096704 0.42357558
0.15046953 -0.14128055 0.42451757
0.1516542 -0.1416719 0.42569351
0.15292068 -0.14213534 0.42708606
0.15450297 -0.14288621 0.42934224
0.11041941 -0.14524704 0.43881443
0.11073835 -0.14462981 0.43694967
0.11114269 -0.14413203 0.43544582
0.11157026 -0.14367118 0.43405351
0.11203559 -0.14326502 0.43282646
0.11253069 -0.14290228 0.43173057
0.11304783 -0.14257236 0.43073377
0.11356818 -0.14225093 0.42976269
0.11411282 -0.14196409 0.42889613
0.1146693 -0.14169574 0.42808539
0.11523929 -0.14144756 0.42733559
0.11581074 -0.14120446 0.42660117
0.11639418 -0.1409791 0.42592028
0.11699589 -0.14077866 0.42531475
0.11759592 -0.14057884 0.42471105
0.11819561 -0.14038119 0.42411393
0.11882092 -0.14021632 0.42361584
0.11944602 -0.14005333 0.42312339
0.1200697 -0.13989073 0.42263216
0.1207025 -0.13974075 0.42217904
0.12134995 -0.1396095 0.42178252
0.12199635 -0.1394787 0.42138734
0.12264524 -0.13935234 0.42100558
0.12330527 -0.1392401 0.42066652
0.12396753 -0.13913175 0.42033917
0.12463366 -0.13902904 0.42002887
0.12531456 -0.13894396 0.41977179
0.12599467 -0.13885899 0.4195151
0.12667392 -0.13877411 0.41925868
0.12736747 -0.13870582 0.41905236
0.12806195 -0.13863933 0.41885149
0.12876104 -0.13857859 0.418668
0.12947528 -0.13853478 0.41853562
0.13018979 -0.13849175 0.41840562
0.13090582 -0.13845082 0.41828197
0.13163671 -0.13842599 0.41820696
0.13236736 -0.1384012 0.41813207
0.13310485 -0.13838379 0.41807947
0.13385364 -0.13837828 0.41806281
0.13460243 -0.13837281 0.41804627
0.13536592 -0.13838243 0.41807535
0.13613461 -0.13839723 0.41812009
0.13690719 -0.13841581 0.4181762
0.13769785 -0.13845237 0.41828662
0.13848899 -0.13848899 0.41839731
0.13929655 -0.13854155 0.41855609
0.1401121 -0.13860147 0.41873708
0.140935 -0.13866796 0.41893798
0.14177765 -0.13875306 0.41919509
0.14262132 -0.13883828 0.41945252
0.1434992 -0.13895568 0.41980723
0.14438449 -0.13907902 0.42017987
0.14529395 -0.13922423 0.42061856
0.14621827 -0.13938209 0.42109549
0.14716554 -0.13956009 0.42163324
0.14815895 -0.13977978 0.42229697
0.14917673 -0.1400201 0.42302302
0.15024547 -0.14030556 0.42388546
0.15138574 -0.14065459 0.42493993
0.15260489 -0.14107303 0.42620409
0.15400922 -0.14165761 0.42797017
0.15588859 -0.14267109 0.43103209
0.10986783 -0.14477168 0.4397749
0.11017051 -0.14412989 0.43782529
0.11053097 -0.14357226 0.43613136
0.11094746 -0.14309478 0.43468094
0.11141384 -0.1426879 0.43344495
0.11188889 -0.14229771 0.43225968
0.11239207 -0.14194846 0.43119875
0.11291623 -0.14163032 0.43023235
0.11345585 -0.1413358 0.42933765
0.1139944 -0.14104393 0.42845103
0.11456417 -0.14079435 0.42769289
0.11513713 -0.14055201 0.42695674
0.1157145 -0.14031824 0.42624661
0.11630212 -0.14009991 0.42558339
0.11690349 -0.13990089 0.42497885
0.11750762 -0.13970776 0.42439213
0.11811938 -0.13952613 0.4238404
0.1187378 -0.13935466 0.42331952
0.11936259 -0.13919279 0.42282781
0.11999466 -0.13904144 0.42236805
0.12062869 -0.13889423 0.4219209
0.12127582 -0.13876387 0.42152488
0.12192211 -0.13863418 0.4211309
0.12257214 -0.13851032 0.42075464
0.12323619 -0.13840371 0.42043084
0.1239029 -0.1383014 0.42012003
0.12456884 -0.13819948 0.41981041
0.12524301 -0.13810785 0.41953206
0.1259235 -0.13802426 0.41927814
0.12660894 -0.13794704 0.4190436
0.12730217 -0.13787921 0.41883752
0.12800156 -0.13781878 0.41865396
0.12870042 -0.13775851 0.41847089
0.12940951 -0.13770983 0.41832298
0.1301236 -0.137667 0.41819289
0.13083723 -0.13762419 0.41806284
0.13156553 -0.13759719 0.41798082
0.13229582 -0.13757257 0.41790605
0.13303053 -0.13755281 0.41784605
0.13378029 -0.13754874 0.41783366
0.13452999 -0.13754466 0.41782129
0.13529034 -0.13755147 0.41784194
0.13605833 -0.1375659 0.41788578
0.13682778 -0.13758165 0.41793364
0.1376159 -0.1376159 0.41803768
0.13840443 -0.13765018 0.41814181
0.1392097 -0.13770065 0.41829512
0.14002466 -0.13776012 0.41847575
0.14084619 -0.13782535 0.41867396
0.14168823 -0.13790987 0.41893068
0.14253126 -0.13799445 0.41918764
0.14340079 -0.13810365 0.41951934
0.14427426 -0.13821551 0.41985911
0.14517145 -0.13834877 0.42026392
0.14609469 -0.13850535 0.42073959
0.1470387 -0.13867991 0.42126983
0.14800617 -0.13887468 0.4218615
0.14900942 -0.13910086 0.42254859
0.15006247 -0.13937101 0.42336917
0.15115528 -0.13967514 0.42429304
0.1523394 -0.14006014 0.4254626
0.15365267 -0.14055946 0.42697936
0.15519868 -0.14126563 0.4291245
0.10960298 -0.14363134 0.43871477
0.10995504 -0.14305978 0.43696895
0.11035196 -0.14255431 0.43542504
0.11079098 -0.14210999 0.43406788
0.11126561 -0.14171724 0.43286827
0.11176408 -0.14136013 0.43177751
0.11226841 -0.14101534 0.43072432
0.11280416 -0.14071447 0.42980534
0.11334589 -0.14042512 0.42892152
0.11390428 -0.14016019 0.4281123
0.11446244 -0.13989852 0.42731309
0.11504519 -0.13967024 0.4266158
0.11563298 -0.13945107 0.42594635
0.11621881 -0.13923244 0.42527854
0.11682121 -0.13903639 0.42467973
0.11743436 -0.13885561 0.42412755
0.11804574 -0.13867509 0.42357618
0.11865994 -0.13850018 0.42304191
0.11929494 -0.13835163 0.4225882
0.11992918 -0.13820411 0.42213756
0.12056192 -0.13805671 0.42168733
0.12120599 -0.13792405 0.42128214
0.12186101 -0.13780545 0.42091987
0.12251488 -0.137687 0.42055809
0.1231719 -0.13757354 0.42021152
0.12383845 -0.13747203 0.41990149
0.12450848 -0.13737562 0.41960698
0.12518337 -0.13728569 0.41933233
0.12586932 -0.13720889 0.41909772
0.12655446 -0.13713214 0.4188633
0.12724213 -0.13705903 0.41863999
0.12794128 -0.13699907 0.41845682
0.12863985 -0.13693918 0.41827393
0.12934761 -0.13688974 0.41812292
0.13006532 -0.13685134 0.41800559
0.13078262 -0.13681294 0.41788831
0.13150978 -0.13678525 0.41780373
0.13224249 -0.1367636 0.4177376
0.13297518 -0.13674219 0.41767219
0.13372461 -0.13673814 0.41765982
0.13447396 -0.13673402 0.41764727
0.13523164 -0.1367384 0.41766065
0.13599931 -0.13675275 0.41770449
0.13676715 -0.13676715 0.41774845
0.1375546 -0.13680087 0.41785145
0.13834275 -0.13683493 0.41795549
0.13914344 -0.13688093 0.41809601
0.1399537 -0.13693583 0.41826367
0.14076963 -0.13699564 0.41844639
0.14160424 -0.13707291 0.41868237
0.14244132 -0.13715172 0.41892308
0.1433104 -0.13726036 0.41925493
0.14418332 -0.13737151 0.41959444
0.14507881 -0.13750289 0.41999573
0.14598571 -0.13764367 0.42042574
0.1469155 -0.13780446 0.42091686
0.1478821 -0.13799796 0.42150789
0.14887129 -0.13821043 0.42215687
0.14989415 -0.13845184 0.42289427
0.15098055 -0.13874921 0.42380255
0.15210691 -0.13908012 0.42481333
0.15336522 -0.13952777 0.4261806
0.15476361 -0.14009772 0.42792153
0.15658382 -0.14104199 0.43080574
0.1090887 -0.14320371 0.43983191
0.10938455 -0.14255531 0.43784046
0.10977646 -0.14204051 0.4362593
0.11020457 -0.14157954 0.43484348
0.11064944 -0.14114645 0.43351331
0.11114149 -0.14077923 0.43238541
0.11164649 -0.14043339 0.43132323
0.11216933 -0.14011462 0.43034419
0.11269595 -0.13980494 0.42939302
0.11325628 -0.13954102 0.42858243
0.11381426 -0.13927779 0.42777395
0.11438334 -0.1390316 0.42701781
0.11496411 -0.13880281 0.42631513
0.11555155 -0.13858508 0.42564639
0.11615115 -0.13838471 0.42503098
0.11675007 -0.13818614 0.4244211
0.11736113 -0.13800445 0.42386305
0.1179816 -0.13783611 0.42334601
0.11860353 -0.13767163 0.42284083
0.11922988 -0.13751432 0.42235771
0.11986458 -0.13736862 0.42191017
0.12050728 -0.13723384 0.42149621
0.12114932 -0.13710001 0.42108518
0.12180407 -0.13698216 0.4207232
0.12245767 -0.13686445 0.4203617
0.12311619 -0.13675366 0.42002144
0.12378768 -0.13665856 0.41972935
0.12446055 -0.13656613 0.41944546
0.12513259 -0.13647391 0.41916221
0.12581517 -0.13639422 0.41891745
0.1265001 -0.13631803 0.41868341
0.12719032 -0.13624839 0.41846955
0.12789252 -0.13619232 0.41829735
0.1285959 -0.13613819 0.41813105
0.12930015 -0.13608557 0.41796947
0.13001759 -0.13604739 0.41785222
0.13073464 -0.13600923 0.41773498
0.13145792 -0.13597797 0.41763899
0.13219044 -0.13595654 0.41757315
0.13292269 -0.13593511 0.41750735
0.13366896 -0.13592815 0.41748598
0.13441797 -0.13592406 0.41747338
0.13517302 -0.13592607 0.41747957
0.13594036 -0.13594036 0.41752347
0.13670787 -0.13595465 0.41756737
0.13749334 -0.13598657 0.41766539
0.13828114 -0.13602041 0.41776931
0.13908069 -0.13606539 0.41790748
0.13989058 -0.13611995 0.41807505
0.14070629 -0.13617955 0.4182581
0.14154051 -0.13625634 0.41849393
0.14237572 -0.13633326 0.4187302
0.14323586 -0.13643311 0.41903687
0.14409822 -0.13653401 0.41934678
0.14498876 -0.13666043 0.41973504
0.14589508 -0.13680032 0.42016473
0.1468236 -0.13695949 0.42065358
0.14776845 -0.13713217 0.42118394
0.14874923 -0.13733624 0.42181075
0.149766 -0.13757132 0.42253274
0.15081446 -0.13783297 0.42333636
0.151935 -0.13815752 0.42433318
0.15312657 -0.13854308 0.42551741
0.1544385 -0.13903315 0.42702261
0.15600006 -0.13974199 0.4291997
0.1088758 -0.14213242 0.43897355
0.10922219 -0.14155512 0.43719056
0.109621 -0.14105354 0.43564147
0.11006416 -0.14061578 0.43428946
0.1105399 -0.14022553 0.43308416
0.11102281 -0.13984978 0.43192369
0.11154795 -0.1395321 0.43094257
0.11207286 -0.13921854 0.42997411
0.11261626 -0.13893209 0.42908943
0.1131668 -0.1386583 0.42824382
0.11373907 -0.13841467 0.42749134
0.1143133 -0.13817668 0.42675635
0.11488768 -0.13794206 0.42603174
0.11548764 -0.13774107 0.42541096
0.116088 -0.13754322 0.42479989
0.11668795 -0.13734746 0.42419529
0.11730231 -0.1371711 0.42365062
0.11792544 -0.13700722 0.42314449
0.11854719 -0.13684386 0.42263994
0.11917437 -0.13668881 0.42216107
0.11981575 -0.13655192 0.4217383
0.12045825 -0.13641803 0.42132476
0.12109952 -0.13628441 0.42091209
0.12175238 -0.13616544 0.42054465
0.12241427 -0.13605796 0.42021272
0.12307497 -0.13595051 0.41988084
0.12374 -0.1358491 0.41956767
0.12441269 -0.13575731 0.41928416
0.1250883 -0.1356698 0.41901386
0.12577164 -0.13559166 0.41877252
0.12646237 -0.13552237 0.41855854
0.1271524 -0.13545315 0.41834477
0.12784965 -0.13539241 0.41815716
0.12855282 -0.1353386 0.41799098
0.12925544 -0.13528486 0.41782498
0.12997071 -0.13524489 0.41770157
0.13069126 -0.13521084 0.4175964
0.13141444 -0.13517989 0.41750082
0.13214925 -0.13516121 0.4174431
0.13288382 -0.13514246 0.41738522
0.13362885 -0.13513452 0.41736066
0.1343789 -0.13513172 0.41735202
0.13513285 -0.13513285 0.41735554
0.13589974 -0.13514683 0.41739869
0.1366668 -0.13516083 0.41744196
0.13744932 -0.13518989 0.41753167
0.1382349 -0.1352216 0.41762963
0.13903093 -0.13526316 0.41775796
0.13983659 -0.13531357 0.41791368
0.14064789 -0.13536887 0.41808447
0.14147691 -0.13544057 0.4183059
0.14231209 -0.13551734 0.41854304
0.14317273 -0.13561743 0.41885215
0.14403462 -0.13571766 0.41916171
0.14492047 -0.13583928 0.41953734
0.14581254 -0.13596547 0.41992703
0.14673522 -0.13611871 0.42040035
0.14767936 -0.13629021 0.42093
0.14864972 -0.13648401 0.42152858
0.14964308 -0.13669686 0.42218593
0.15069517 -0.13696094 0.42300153
0.15177101 -0.13724381 0.42387518
0.15295051 -0.13761713 0.42502818
0.15419476 -0.13804469 0.42634869
0.15563628 -0.13864374 0.42819884
0.15762006 -0.13971753 0.43151525
0.1086946 -0.14110535 0.43824294
0.10907023 -0.14057066 0.4365823
0.10948558 -0.14009446 0.43510333
0.10995226 -0.13969025 0.43384793
0.11043059 -0.13930643 0.4326559
0.1109364 -0.13896243 0.43158752
0.11145052 -0.13863358 0.43056616
0.11199594 -0.13834792 0.42967898
0.11253913 -0.13806348 0.42879555
0.11309595 -0.1377995 0.42797571
0.11366943 -0.13755928 0.42722961
0.11424679 -0.13732696 0.42650807
0.11483499 -0.13711068 0.42583635
0.11542477 -0.13689914 0.42517939
0.11602926 -0.13670774 0.4245849
0.11664094 -0.13652727 0.4240244
0.11725116 -0.13634744 0.42346591
0.11786975 -0.13617961 0.42294466
0.11850227 -0.13602994 0.42247981
0.11913348 -0.13588068 0.42201623
0.11976697 -0.1357359 0.42156658
0.12041149 -0.13560537 0.42116117
0.121062 -0.13548318 0.42078167
0.12171168 -0.13536158 0.42040405
0.12237335 -0.13525476 0.42007226
0.12303379 -0.13514788 0.41974035
0.12369867 -0.13504718 0.41942757
0.12437744 -0.13496275 0.41916537
0.12505612 -0.13487926 0.41890603
0.12573411 -0.13479602 0.41864756
0.12642467 -0.13472718 0.41843373
0.1271145 -0.1346584 0.41822007
0.12781076 -0.13459718 0.41802996
0.12851852 -0.13454872 0.41787946
0.12922579 -0.13450031 0.41772911
0.12994038 -0.13446005 0.41760406
0.13066077 -0.13442621 0.41749898
0.13138084 -0.13439244 0.41739407
0.13211541 -0.1343738 0.4173362
0.13284974 -0.13435511 0.41727817
0.13359217 -0.13434482 0.41724616
0.13434207 -0.13434207 0.41723767
0.13509418 -0.13434157 0.41723609
0.13586086 -0.13435549 0.4172793
0.13662772 -0.1343694 0.41732255
0.13740911 -0.1343974 0.41740951
0.13819443 -0.13442892 0.41750738
0.13899018 -0.13447018 0.41763553
0.13979556 -0.13452026 0.41779107
0.14060755 -0.13457613 0.41796461
0.14143504 -0.13464615 0.41818208
0.14226539 -0.13471816 0.41840571
0.14311688 -0.1348093 0.41868877
0.14397109 -0.13490205 0.41897681
0.14485903 -0.13502525 0.41935948
0.14575063 -0.13515058 0.41974872
0.14666836 -0.13529873 0.42020881
0.14759366 -0.13545229 0.42068574
0.14856462 -0.13564596 0.42128724
0.14955196 -0.13585255 0.42192885
0.15057591 -0.13609011 0.42266673
0.15165059 -0.13637094 0.42353889
0.15278466 -0.13670206 0.42456728
0.15400882 -0.1371101 0.42583457
0.15537597 -0.13764074 0.42748263
0.15706545 -0.13845029 0.42999691
0.10819186 -0.14068905 0.43941167
0.10853299 -0.14010623 0.43759137
0.10894661 -0.13962473 0.43608752
0.10938106 -0.13917662 0.43468797
0.10984327 -0.13876997 0.43341786
0.11034583 -0.13841967 0.43232381
0.11085159 -0.1380783 0.43125758
0.11137766 -0.13776679 0.43028468
0.11191912 -0.1374785 0.42938426
0.11247656 -0.13721368 0.42855713
0.11303777 -0.13695702 0.4277555
0.11360449 -0.13671048 0.4269855
0.11419425 -0.13649482 0.42631191
0.11478236 -0.13628004 0.42564115
0.11537565 -0.13607427 0.42499846
0.11598246 -0.13588704 0.42441365
0.11659402 -0.1357078 0.42385381
0.11720805 -0.13553374 0.42331019
0.11782919 -0.13537011 0.42279914
0.11846154 -0.13522138 0.42233461
0.11909261 -0.1350731 0.42187148
0.11973017 -0.13493399 0.42143705
0.12037788 -0.13480803 0.42104363
0.12102826 -0.13468662 0.42066443
0.1216775 -0.13456546 0.42028597
0.12233709 -0.13445717 0.41994777
0.12300535 -0.13435969 0.41964331
0.1236726 -0.13426231 0.41933915
0.12434543 -0.13417213 0.41905749
0.12502395 -0.13408913 0.41879827
0.12570378 -0.13400853 0.41854656
0.1263953 -0.13394128 0.41833651
0.12709078 -0.13387901 0.41814202
0.12778564 -0.13381681 0.41794777
0.12849206 -0.13376738 0.41779339
0.12919919 -0.13371928 0.41764316
0.12991005 -0.13367556 0.41750658
0.13063031 -0.13364196 0.41740164
0.1313507 -0.13360888 0.41729832
0.13208468 -0.13358992 0.41723913
0.13282128 -0.13357382 0.41718879
0.13356334 -0.13356334 0.41715607
0.13431424 -0.13356178 0.41715121
0.13506588 -0.13356097 0.41714868
0.13583218 -0.13357458 0.41719121
0.13659865 -0.13358821 0.41723377
0.13737786 -0.13361408 0.41731456
0.13816118 -0.13364366 0.41740695
0.13895415 -0.13368216 0.41752723
0.13975571 -0.13372852 0.41767198
0.14056723 -0.13378383 0.41784474
0.14139439 -0.13385336 0.41806191
0.14222653 -0.13392684 0.41829139
0.14307776 -0.13401742 0.41857433
0.14393158 -0.13410948 0.41886184
0.14480925 -0.13422267 0.41921538
0.14568877 -0.1343364 0.41957057
0.14661008 -0.13448729 0.42004183
0.14753491 -0.13463981 0.42051825
0.14849213 -0.13482022 0.42108169
0.14946632 -0.1350141 0.42168725
0.15049575 -0.13525568 0.42244175
0.15153323 -0.13550201 0.4232111
0.15267061 -0.13583474 0.42425033
0.15384726 -0.13619894 0.42538783
0.15515342 -0.13667361 0.42687035
0.15669318 -0.13734834 0.42897773
0.10804752 -0.13970979 0.43882546
0.10840765 -0.139156 0.43708602
0.10883007 -0.13868959 0.43562102
0.10928719 -0.13827376 0.43431491
0.10976076 -0.13788451 0.4330923
0.11026122 -0.13753431 0.43199232
0.11078512 -0.13721806 0.43099898
0.11131362 -0.13691187 0.43003726
0.11185563 -0.13662642 0.42914066
0.1124185 -0.13637021 0.42833591
0.11298362 -0.1361202 0.42755061
0.1135601 -0.13588718 0.4268187
0.11414175 -0.13566343 0.42611593
0.11473783 -0.13545971 0.42547604
0.11533845 -0.13526404 0.42486143
0.11593725 -0.1350688 0.42424822
0.11655398 -0.1348969 0.42370829
0.11717606 -0.13473339 0.42319468
0.11779632 -0.1345699 0.42268118
0.11842267 -0.13441545 0.42219603
0.11906394 -0.13427979 0.42176992
0.11970392 -0.1341444 0.42134467
0.1203443 -0.13401116 0.42092618
0.12099645 -0.13389263 0.42055386
0.12165426 -0.13378179 0.42020574
0.12231129 -0.13367148 0.41985923
0.12297942 -0.13357458 0.41955486
0.12364653 -0.13347775 0.41925076
0.12431733 -0.13338608 0.41896281
0.1250024 -0.13331071 0.41872609
0.12568666 -0.13323541 0.41848955
0.12637337 -0.13316357 0.41826391
0.12706874 -0.13310167 0.41806951
0.12776349 -0.13303986 0.41787535
0.12846625 -0.13298705 0.41770947
0.12917779 -0.13294391 0.41757396
0.12988955 -0.13290147 0.41744068
0.13061321 -0.13287164 0.41734698
0.13133651 -0.1328418 0.41725323
0.13206793 -0.13282046 0.4171862
0.13280444 -0.13280444 0.41713589
0.13354458 -0.13279222 0.41709751
0.13429539 -0.13279067 0.41709265
0.13504617 -0.13278912 0.41708779
0.13581197 -0.13280229 0.41712913
0.13657834 -0.13281584 0.41717172
0.1373571 -0.13284126 0.41725153
0.13814029 -0.13287063 0.4173438
0.13893364 -0.13290942 0.41746563
0.1397351 -0.13295551 0.41761038
0.14054488 -0.13300896 0.41777828
0.14136617 -0.13307269 0.41797847
0.14219408 -0.13314193 0.41819596
0.1430387 -0.13322602 0.41846007
0.14389557 -0.13332057 0.41875705
0.14477295 -0.13343303 0.4191103
0.14565529 -0.13354887 0.41947415
0.14656195 -0.13368571 0.41990393
0.14747906 -0.13383061 0.42035908
0.14843883 -0.13401255 0.42093053
0.14940517 -0.13419853 0.42151472
0.15041627 -0.13442264 0.42221862
0.15146251 -0.13467574 0.4230136
0.15255618 -0.13496825 0.42393237
0.15373081 -0.13532911 0.42506585
0.15498944 -0.13575998 0.42641917
0.15644507 -0.13635831 0.4282985
0.15838182 -0.13736802 0.43147001
0.10791317 -0.1387455 0.43827981
0.10830144 -0.13823202 0.43665779
0.10873634 -0.13778505 0.43524584
0.10920274 -0.1373841 0.4339793
0.10969061 -0.13701569 0.43281552
0.1101905 -0.13666737 0.43171525
0.11072135 -0.13636209 0.43075091
0.11125954 -0.13607003 0.42982835
0.11180756 -0.13579397 0.42895627
0.11236362 -0.13553138 0.42812681
0.11294217 -0.13529932 0.42739376
0.1135184 -0.13506766 0.42666197
0.11410172 -0.13484748 0.42596644
0.11470084 -0.1346488 0.42533886
0.11530128 -0.13445431 0.42472449
0.11590886 -0.13427067 0.42414436
0.11652215 -0.13409598 0.42359257
0.117144 -0.13393337 0.42307889
0.11776903 -0.13377647 0.42258328
0.11839913 -0.13362731 0.42211208
0.11903783 -0.13348971 0.42167741
0.11967769 -0.13335514 0.42125234
0.1203233 -0.13322863 0.42085272
0.12097696 -0.13311258 0.42048612
0.12163472 -0.13300246 0.42013824
0.12229152 -0.13289264 0.41979137
0.12295668 -0.13279322 0.41947728
0.12363124 -0.13270509 0.4191989
0.12430494 -0.13261713 0.41892105
0.1249854 -0.13253738 0.41866913
0.12566951 -0.13246246 0.41843247
0.12635283 -0.13238759 0.41819599
0.12705204 -0.13233016 0.41801456
0.12775221 -0.13227442 0.41783845
0.12845546 -0.13222247 0.41767439
0.12916695 -0.13217959 0.41753891
0.12987792 -0.13213667 0.41740334
0.1305991 -0.13210456 0.41730192
0.13132231 -0.13207488 0.41720814
0.13205118 -0.13205118 0.4171333
0.1327876 -0.13203527 0.41708302
0.13352583 -0.13202132 0.41703895
0.13427745 -0.13202068 0.41703695
0.13502924 -0.13202024 0.41703555
0.13579382 -0.13203222 0.41707337
0.13655989 -0.13204551 0.41711536
0.13733697 -0.13206924 0.41719034
0.13811938 -0.13209783 0.41728064
0.13891315 -0.13213691 0.41740409
0.13971452 -0.13218275 0.41754889
0.14052568 -0.13223732 0.41772124
0.14134689 -0.13230069 0.41792145
0.14217731 -0.13237198 0.41814664
0.14302009 -0.13245396 0.41840562
0.14387161 -0.13254313 0.41868728
0.14473782 -0.13264485 0.41900861
0.14562349 -0.13276324 0.41938257
0.14652999 -0.1328993 0.41981238
0.14744715 -0.13304357 0.42026815
0.14838611 -0.13320594 0.42078102
0.14935948 -0.1333974 0.42138582
0.15036091 -0.13361186 0.42206326
0.15139192 -0.13385029 0.42281646
0.15248139 -0.13413776 0.42372456
0.15362638 -0.13447097 0.42477712
0.15484817 -0.13486776 0.42603052
0.15625097 -0.13541751 0.4277671
0.15795334 -0.13622019 0.43030268
0.10744227 -0.13836661 0.43958771
0.10780688 -0.13781905 0.43784815
0.10821654 -0.13733663 0.43631548
0.10864858 -0.13688937 0.43489453
0.10913285 -0.13651386 0.43370155
0.10962667 -0.13615555 0.43256322
0.11014013 -0.13582651 0.4315179
0.11066362 -0.13551439 0.43052629
0.11121386 -0.13523914 0.42965183
0.11176204 -0.13496523 0.4287816
0.1123271 -0.13471532 0.42798764
0.11290075 -0.13447906 0.42723703
0.11348502 -0.13425854 0.42653647
0.11407495 -0.13404767 0.42586654
0.11466387 -0.13383843 0.42520177
0.11527412 -0.13365671 0.42462447
0.11588596 -0.13347921 0.42406055
0.11649641 -0.13330245 0.42349899
0.11711954 -0.13314241 0.42299053
0.11775083 -0.13299365 0.42251796
0.1183809 -0.13284545 0.42204708
0.11901322 -0.13270164 0.42159024
0.11966255 -0.13257851 0.42119902
0.12031063 -0.13245554 0.4208084
0.12095747 -0.13233279 0.42041838
0.12161586 -0.1322241 0.42007309
0.12228096 -0.13212401 0.4197551
0.12294509 -0.13202411 0.41943774
0.12361958 -0.13193649 0.41915938
0.12429328 -0.13184911 0.41888174
0.12496977 -0.13176571 0.4186168
0.12566012 -0.13169785 0.41840121
0.12634982 -0.13163011 0.41818601
0.12704505 -0.13156891 0.41799158
0.12774518 -0.13151348 0.41781545
0.1284447 -0.13145807 0.41763943
0.12915608 -0.13141537 0.41750377
0.12986813 -0.13137385 0.41737187
0.13058996 -0.13134265 0.41727275
0.13131651 -0.13131651 0.41718972
0.13204616 -0.13129377 0.41711745
0.13278489 -0.13128024 0.41707447
0.13352387 -0.13126713 0.41703281
0.13427566 -0.13126668 0.41703141
0.13502745 -0.13126624 0.41703001
0.13579135 -0.1312775 0.41706577
0.13655739 -0.1312907 0.41710773
0.13733453 -0.13131438 0.41718295
0.1381159 -0.13134183 0.41727012
0.13890792 -0.13137905 0.41738838
0.13970591 -0.13142146 0.41752312
0.14051437 -0.13147324 0.41768762
0.14133027 -0.13153137 0.41787231
0.14216053 -0.1316022 0.41809732
0.1430032 -0.13168369 0.41835621
0.14385845 -0.13177586 0.41864902
0.14472456 -0.13187696 0.41897023
0.14560437 -0.13198942 0.41932753
0.14649819 -0.13211335 0.41972125
0.14742163 -0.1322626 0.4201954
0.14836033 -0.13242392 0.42070791
0.14931944 -0.13260174 0.42127284
0.15031505 -0.13281001 0.42193452
0.15134658 -0.13304776 0.42268983
0.15241057 -0.1333115 0.42352772
0.15355133 -0.13363944 0.42456958
0.15475559 -0.13401911 0.4257758
0.15609585 -0.13451223 0.42734241
0.15770531 -0.13523133 0.429627
0.10733778 -0.13743989 0.43916023
0.10770402 -0.13689852 0.43743038
0.10813908 -0.13645186 0.43600315
0.10859317 -0.13603549 0.43467277
0.10906304 -0.13564472 0.43342412
0.10957685 -0.13531376 0.43236664
0.1100902 -0.13498692 0.43132231
0.11062515 -0.13469097 0.43037662
0.11116818 -0.13440891 0.42947537
0.11173204 -0.13415578 0.42866653
0.1122971 -0.13390754 0.42787334
0.11286759 -0.13366912 0.42711154
0.11345835 -0.13345778 0.42643625
0.11404821 -0.13324824 0.42576668
0.11464671 -0.13305153 0.42513815
0.11525126 -0.1328644 0.42454022
0.11586308 -0.13268808 0.42397681
0.11648255 -0.13252276 0.42344859
0.11710334 -0.1323611 0.42293203
0.11773266 -0.1322111 0.42245275
0.1183669 -0.13206853 0.42199719
0.11900602 -0.1319332 0.42156473
0.11964995 -0.13180487 0.42115471
0.12029795 -0.13168262 0.42076406
0.12095027 -0.1315666 0.42039335
0.12161008 -0.13146012 0.42005309
0.12227513 -0.13136059 0.4197351
0.12293909 -0.13126113 0.41941726
0.12360893 -0.13116911 0.41912326
0.12428974 -0.13108978 0.41886979
0.12496964 -0.13101047 0.41861635
0.12565732 -0.13094021 0.41839188
0.12634706 -0.13087294 0.41817689
0.12703806 -0.13080774 0.4179686
0.12773998 -0.13075449 0.41779843
0.12844475 -0.13070478 0.41763958
0.12915713 -0.13066332 0.41750714
0.12987244 -0.13062532 0.4173857
0.13059162 -0.13059162 0.41727799
0.13131817 -0.13056563 0.41719496
0.13204578 -0.13054098 0.41711622
0.1327845 -0.13052754 0.41707325
0.13352306 -0.1305141 0.4170303
0.13427387 -0.1305127 0.41702586
0.13502565 -0.13051225 0.41702443
0.13578886 -0.1305228 0.41705814
0.13655487 -0.13053592 0.41710004
0.13733211 -0.13055958 0.41717562
0.1381135 -0.13058688 0.41726285
0.13890648 -0.13062479 0.417384
0.13970442 -0.13066694 0.41751871
0.14051482 -0.13072021 0.41768894
0.14133073 -0.13077804 0.41787368
0.14216019 -0.13084771 0.4180963
0.1429954 -0.1309219 0.41833338
0.14384542 -0.13100882 0.41861111
0.14471127 -0.13110916 0.41893172
0.14559631 -0.13122576 0.41930428
0.14648826 -0.13134736 0.41969284
0.14740169 -0.13148685 0.42013854
0.14833443 -0.13164206 0.42063448
0.14930193 -0.13182639 0.42122346
0.1502769 -0.13201541 0.42182744
0.15131085 -0.13225406 0.42259002
0.15236381 -0.13250688 0.42339781
0.15349263 -0.13282281 0.4244073
0.15467267 -0.13317969 0.42554766
0.15598136 -0.13364328 0.42702898
0.15750664 -0.13428698 0.42908579
0.15977778 -0.13555717 0.43314442
0.10725058 -0.13653672 0.43880343
0.1076357 -0.13602313 0.43715289
0.10806926 -0.13557781 0.4357217
0.10853877 -0.13518366 0.43445501
0.10902313 -0.13481355 0.43326551
0.10952708 -0.13447274 0.43217024
0.11005744 -0.13416895 0.43119392
0.11059247 -0.13387509 0.43024948
0.11113799 -0.13359794 0.42935875
0.11170207 -0.13334677 0.42855152
0.11227165 -0.13310556 0.42777637
0.11285166 -0.13287994 0.42705125
0.11343169 -0.13265739 0.42633605
0.1140312 -0.13246049 0.4257032
0.11463345 -0.13226937 0.42508897
0.11523385 -0.13207866 0.42447612
0.11585034 -0.1319088 0.42393023
0.11647277 -0.13174789 0.42341304
0.11709349 -0.13158715 0.42289644
0.11772127 -0.13143636 0.42241189
0.11836176 -0.13130163 0.42197886
0.1190008 -0.13116702 0.42154625
0.11963861 -0.13103276 0.4211148
0.12029477 -0.13092017 0.42075294
0.12095083 -0.13080889 0.42039528
0.12160579 -0.13069782 0.42003831
0.12226928 -0.13059722 0.41971502
0.12293983 -0.13050535 0.41941977
0.12361097 -0.13041525 0.41913018
0.12429179 -0.13033637 0.41887671
0.12497165 -0.13025746 0.41862309
0.12565455 -0.13018264 0.41838264
0.1263489 -0.1301205 0.41818294
0.12704411 -0.13005999 0.41798848
0.12774743 -0.13000844 0.41782281
0.12845226 -0.12995903 0.41766399
0.1291614 -0.12991452 0.41752097
0.12987672 -0.12987672 0.41739947
0.13059326 -0.12984055 0.41728324
0.13131982 -0.12981473 0.41720024
0.13204922 -0.12979196 0.41712707
0.13278954 -0.12978014 0.4170891
0.13353035 -0.12976894 0.41705307
0.13428123 -0.12976757 0.41704869
0.13503413 -0.12976818 0.41705063
0.13579701 -0.12977831 0.4170832
0.13656288 -0.12979117 0.41712454
0.13733929 -0.12981385 0.41719744
0.13811913 -0.12983951 0.41727987
0.13891046 -0.12987563 0.41739598
0.13970526 -0.1299146 0.41752118
0.1405153 -0.12996723 0.41769034
0.14133121 -0.13002472 0.41787511
0.14216363 -0.1300967 0.41810644
0.14299884 -0.13017045 0.41834348
0.14385305 -0.13026063 0.41863331
0.14470962 -0.13035201 0.41892692
0.14558811 -0.13046208 0.41928071
0.14648204 -0.13058476 0.41967499
0.14740029 -0.13072775 0.42013454
0.1483247 -0.13087472 0.42060688
0.1492846 -0.13105136 0.42117456
0.15026791 -0.13124666 0.42180219
0.15127958 -0.13146463 0.4225027
0.15234116 -0.13172355 0.42333487
0.15344049 -0.1320124 0.42426312
0.15463062 -0.13237609 0.42543197
0.15589491 -0.13279936 0.42679229
0.15736704 -0.13339466 0.42870548
0.1593193 -0.13438913 0.43190151
0.10716991 -0.13564309 0.4384734
0.10757665 -0.13516042 0.4369131
0.10801501 -0.13472418 0.43550295
0.10848998 -0.13433957 0.43425968
0.10898813 -0.13398899 0.43312642
0.10949335 -0.13365202 0.43203714
0.11002485 -0.13335168 0.43106627
0.11056674 -0.13306804 0.43014941
0.11112023 -0.13280223 0.42929015
0.11167376 -0.13254014 0.42844293
0.11225583 -0.13231529 0.42771611
0.11283574 -0.13209097 0.42699099
0.11342201 -0.13187711 0.42629966
0.11401801 -0.13167736 0.42565396
0.11462019 -0.13148737 0.4250398
0.11523088 -0.13130961 0.42446518
0.1158429 -0.1311357 0.42390299
0.11646295 -0.13097309 0.42337736
0.11709171 -0.13082233 0.42289004
0.11772247 -0.13067576 0.42241621
0.11835662 -0.1305348 0.42196053
0.11899821 -0.13040379 0.42153707
0.11964592 -0.13028112 0.42114052
0.12029532 -0.13016181 0.42075485
0.12095138 -0.13005118 0.42039722
0.12160948 -0.12994409 0.42005104
0.12227518 -0.12984641 0.41973528
0.12294715 -0.12975653 0.41944477
0.12361816 -0.12966676 0.41915458
0.1242938 -0.1295829 0.4188835
0.12497886 -0.12950982 0.41864726
0.12566496 -0.1294387 0.41841733
0.12636004 -0.12937759 0.41821983
0.12705529 -0.1293174 0.41802526
0.12775488 -0.12926231 0.41784719
0.12845977 -0.1292132 0.41768843
0.1291687 -0.1291687 0.4175446
0.12988828 -0.12913531 0.41743663
0.13060747 -0.12910192 0.41732869
0.13133655 -0.12907863 0.4172534
0.13206623 -0.12905617 0.41718084
0.13280499 -0.1290428 0.41713762
0.13354589 -0.12903166 0.41710159
0.13429585 -0.12902935 0.41709411
0.13504882 -0.12902994 0.41709602
0.13581149 -0.12903973 0.41712767
0.13657747 -0.12905255 0.41716909
0.13735445 -0.12907554 0.41724345
0.13813433 -0.12910102 0.41732579
0.13892706 -0.12913817 0.41744587
0.13972194 -0.12917688 0.41757104
0.14053202 -0.12922917 0.41774008
0.14134441 -0.12928303 0.41791412
0.14217186 -0.12934999 0.41813061
0.14300571 -0.12942205 0.41836357
0.14386077 -0.12951246 0.41865578
0.14472289 -0.12960823 0.41896537
0.14560038 -0.12971669 0.41931599
0.14648761 -0.12983268 0.41969094
0.1473991 -0.12996887 0.42013115
0.1483323 -0.13012271 0.42062843
0.14928156 -0.130289 0.421166
0.15026134 -0.1304801 0.42178375
0.15127303 -0.13069685 0.42248437
0.15231855 -0.13094051 0.42327204
0.15341768 -0.1312276 0.42420006
0.15458889 -0.13157317 0.42531717
0.15584117 -0.13198401 0.42664519
0.15725771 -0.13252923 0.42840764
0.15907609 -0.13340612 0.43124223
0.10674293 -0.13531353 0.43997347
0.10711098 -0.13477802 0.4382323
0.10752945 -0.13431334 0.43672138
0.10797573 -0.13388991 0.43534458
0.10845514 -0.13351338 0.43412027
0.10895315 -0.13316496 0.43298739
0.10947478 -0.13285017 0.43196386
0.10999515 -0.13253833 0.4309499
0.11054904 -0.13227096 0.43008053
0.11110248 -0.13200678 0.42922154
0.11166917 -0.13176189 0.42842531
0.11224002 -0.13152525 0.42765585
0.11282571 -0.13130909 0.42695305
0.11341897 -0.13110463 0.42628825
0.11401046 -0.13090089 0.42562577
0.11461662 -0.13071661 0.42502657
0.1152303 -0.13054329 0.42446303
0.11584231 -0.13037039 0.42390081
0.11646225 -0.13020861 0.4233748
0.11709449 -0.13006261 0.42290008
0.11772525 -0.12991686 0.42242619
0.1183594 -0.1297767 0.42197046
0.11900546 -0.12965132 0.42156276
0.11965324 -0.12952939 0.42116627
0.12029992 -0.12940779 0.42077094
0.12095881 -0.1293008 0.42042303
0.1216225 -0.12920022 0.42009601
0.1222853 -0.12909997 0.41977
0.12295448 -0.12900762 0.41946977
0.12362924 -0.12892224 0.41919214
0.12430736 -0.12884137 0.41892919
0.12499426 -0.12877053 0.41869885
0.12568048 -0.12869982 0.41846895
0.12637118 -0.12863454 0.4182567
0.12706755 -0.12857577 0.41806561
0.12776935 -0.12852316 0.41789451
0.12847944 -0.12847944 0.41775236
0.12918901 -0.12843572 0.41761023
0.12990728 -0.12840112 0.41749769
0.13062657 -0.1283679 0.41738972
0.1313535 -0.12834252 0.4173072
0.13208327 -0.12832022 0.41723466
0.13282044 -0.1283053 0.41718617
0.13356143 -0.12829421 0.41715014
0.13431084 -0.12829131 0.41714066
0.13506493 -0.12829287 0.41714576
0.1358276 -0.12830253 0.41717714
0.13659349 -0.12831511 0.41721803
0.13736974 -0.1283372 0.41728988
0.13814954 -0.12836237 0.41737175
0.13894366 -0.1284005 0.41749573
0.13974051 -0.12844074 0.41762653
0.14055105 -0.12849306 0.41779664
0.14136672 -0.12854947 0.4179801
0.14219432 -0.12861608 0.41819665
0.14303008 -0.12868933 0.41843483
0.14387615 -0.12877104 0.41870052
0.14473613 -0.12886429 0.4190037
0.14561367 -0.12897211 0.41935429
0.14650808 -0.12909368 0.41974959
0.14741035 -0.1292209 0.42016324
0.14833985 -0.12937057 0.42064989
0.14928916 -0.12953588 0.42118743
0.15026851 -0.12972547 0.42180386
0.15127011 -0.12993225 0.42247623
0.15232278 -0.13018063 0.42328379
0.15340947 -0.13045542 0.42417732
0.15456642 -0.13078697 0.42525533
0.15582268 -0.13119884 0.42659456
0.15720654 -0.13171358 0.42826825
0.15890904 -0.13248895 0.43078935
0.10668015 -0.13444079 0.43971476
0.10705612 -0.13391891 0.43800783
0.10749239 -0.13347957 0.43657085
0.10794861 -0.1330712 0.43523523
0.10842779 -0.13269682 0.43401077
0.10893442 -0.13236117 0.43291295
0.1094562 -0.13204859 0.43189058
0.10999072 -0.13175568 0.43093255
0.11053135 -0.13147412 0.43001169
0.1110949 -0.13122359 0.42919227
0.11166509 -0.13098431 0.42840967
0.11223581 -0.13074893 0.42763981
0.11282267 -0.13053545 0.42694157
0.11341593 -0.1303322 0.42627683
0.1140153 -0.13013867 0.42564383
0.11461934 -0.12995303 0.42503667
0.11522971 -0.12977698 0.42446086
0.1158502 -0.12961458 0.42392969
0.11647308 -0.12945697 0.42341417
0.11709727 -0.12930286 0.42291012
0.11773386 -0.12916434 0.42245707
0.11837395 -0.12903142 0.42202234
0.11901275 -0.1288988 0.42158857
0.11966087 -0.12877789 0.42119312
0.12031704 -0.12866712 0.42083085
0.12097208 -0.12855653 0.42046916
0.12163554 -0.12845622 0.42014107
0.12229881 -0.12835695 0.41981637
0.12297049 -0.12826768 0.4195244
0.12364925 -0.12818684 0.41926
0.12432726 -0.12810621 0.41899627
0.12500969 -0.12803106 0.41875049
0.12569787 -0.12796269 0.41852689
0.12639098 -0.12790012 0.41832224
0.12709235 -0.1278466 0.41814718
0.12779312 -0.12779312 0.41797227
0.12850109 -0.12774742 0.41782275
0.12921079 -0.12770395 0.41768059
0.12992628 -0.1276667 0.41755876
0.13064809 -0.12763603 0.41745847
0.13137656 -0.12761219 0.41738048
0.13210966 -0.12759309 0.41731802
0.13284813 -0.12757936 0.41727313
0.13359144 -0.12757042 0.41724387
0.13434136 -0.12756786 0.41723546
0.13509564 -0.12756942 0.41724062
0.13585851 -0.12757903 0.41727206
0.13662456 -0.12759154 0.41731292
0.13740171 -0.1276142 0.41738704
0.13818152 -0.12763907 0.4174684
0.13897322 -0.12767458 0.41758454
0.13976923 -0.12771367 0.41771236
0.14057525 -0.12776141 0.41786855
0.14138906 -0.12781571 0.41804612
0.14221679 -0.12788194 0.41826275
0.143057 -0.12795864 0.41851363
0.14390324 -0.12803988 0.41877934
0.14476608 -0.12813498 0.41909039
0.14563312 -0.12823281 0.41941032
0.14652853 -0.12835445 0.41980818
0.14743583 -0.12848522 0.42023587
0.14836293 -0.1286318 0.42071533
0.14930645 -0.12879105 0.42123619
0.15028691 -0.12898041 0.42185554
0.15128607 -0.12918383 0.42252082
0.15233007 -0.12942329 0.42330405
0.15341586 -0.1296957 0.42419502
0.1545615 -0.13001575 0.4252418
0.15580355 -0.13041334 0.42654219
0.15716979 -0.13091047 0.42816815
0.15883976 -0.13165447 0.43060154
0.10664053 -0.13359798 0.43955141
0.10702831 -0.13309424 0.43789405
0.10745534 -0.13264634 0.43642041
0.10792976 -0.132263 0.43515921
0.10841303 -0.13189599 0.43395168
0.10891893 -0.13156158 0.4328514
0.10944405 -0.13125496 0.43184263
0.10998629 -0.13097307 0.43091518
0.11053006 -0.13069695 0.43000671
0.11109084 -0.13044465 0.4291766
0.11166102 -0.13020679 0.42839405
0.11224377 -0.12998678 0.42767015
0.11282638 -0.12976959 0.42695561
0.11341843 -0.12956613 0.42628622
0.11402415 -0.12938094 0.42567688
0.11462825 -0.12919639 0.42506969
0.11523858 -0.12902126 0.42449352
0.1158613 -0.12886223 0.42397031
0.11648428 -0.12870558 0.42345488
0.11711238 -0.12855659 0.42296469
0.11774836 -0.1284181 0.42250907
0.11838852 -0.12828594 0.42207426
0.11902951 -0.12815638 0.42164794
0.11967999 -0.1280386 0.42126045
0.12033626 -0.12792845 0.42089805
0.12099139 -0.12781848 0.42053625
0.12165268 -0.12771636 0.42020026
0.12232409 -0.12762608 0.41990319
0.1229944 -0.12753573 0.41960597
0.12366927 -0.12745121 0.41932788
0.12434803 -0.12737168 0.41906625
0.12503324 -0.12729971 0.41882944
0.1257264 -0.12723662 0.41862187
0.12641887 -0.1271736 0.41841453
0.12711716 -0.12711716 0.41822881
0.12781806 -0.12706397 0.41805384
0.12852553 -0.12701789 0.4179022
0.12924036 -0.1269796 0.41777623
0.12995797 -0.12694447 0.41766062
0.13068166 -0.12691562 0.41756573
0.13140839 -0.12689005 0.4174816
0.13214168 -0.12687108 0.41741917
0.13287902 -0.12685618 0.41737014
0.13362248 -0.12684725 0.41734082
0.13437191 -0.12684406 0.41733032
0.13512638 -0.12684566 0.41733554
0.1358894 -0.12685521 0.41736695
0.13665564 -0.12686764 0.41740784
0.13743374 -0.12689087 0.41748431
0.13821527 -0.12691702 0.41757035
0.13900715 -0.12695232 0.41768649
0.13980576 -0.12699337 0.41782156
0.14061196 -0.12704083 0.41797769
0.14142896 -0.1270975 0.41816413
0.14225046 -0.12715758 0.41836181
0.14308701 -0.12723041 0.41860142
0.14393395 -0.12731165 0.41886872
0.14479899 -0.127408 0.4191857
0.14567326 -0.1275114 0.41952589
0.14655942 -0.12762409 0.41989669
0.14746502 -0.12775247 0.42031905
0.14839222 -0.12789816 0.42079836
0.14934045 -0.12806039 0.42133212
0.15030508 -0.12823497 0.42190653
0.15131791 -0.12844871 0.42260975
0.15234144 -0.12866934 0.42333564
0.1534407 -0.1289514 0.42426369
0.15457651 -0.12926126 0.4252831
0.15579973 -0.12964077 0.42653176
0.15717015 -0.13013843 0.4281691
0.15878002 -0.13082853 0.43043959
0.10660092 -0.13275579 0.43938816
0.10701013 -0.1322819 0.43781969
0.10744213 -0.13184291 0.43636674
0.1079109 -0.13145509 0.43508318
0.10840973 -0.13110924 0.43393847
0.10891559 -0.13077678 0.43283814
0.10944009 -0.13047129 0.43182701
0.10998186 -0.13019054 0.43089783
0.11053841 -0.12993111 0.43003917
0.11109687 -0.12967753 0.4291999
0.11166702 -0.12944101 0.42841706
0.11225174 -0.12922451 0.42770052
0.11283623 -0.12901071 0.42699289
0.11343238 -0.12881304 0.42633864
0.11403301 -0.1286231 0.42570996
0.11464301 -0.12844618 0.42512444
0.11525868 -0.12827794 0.42456758
0.11587255 -0.12810992 0.4240115
0.11650152 -0.12796068 0.42351755
0.11713482 -0.12781812 0.42304572
0.11776643 -0.12767558 0.42257395
0.11840623 -0.12754369 0.42213741
0.11905548 -0.1274236 0.42173994
0.11970353 -0.12730376 0.4213433
0.12035548 -0.12718955 0.42096528
0.12101745 -0.1270873 0.42062685
0.12168091 -0.12698786 0.42029777
0.1223494 -0.12689489 0.41999006
0.12301977 -0.12680499 0.41969252
0.1236949 -0.12672108 0.41941479
0.12438077 -0.12664911 0.41917658
0.12506574 -0.12657712 0.41893831
0.12575494 -0.12651023 0.41871691
0.12644756 -0.12644756 0.41850948
0.12714681 -0.12639222 0.41832635
0.12785374 -0.12634514 0.41817051
0.12856103 -0.12629896 0.41801769
0.12927607 -0.12626088 0.41789162
0.12999137 -0.1262235 0.41776794
0.13071525 -0.12619483 0.41767305
0.13144025 -0.12616757 0.41758281
0.13217412 -0.12614909 0.41752163
0.13291319 -0.12613574 0.41747746
0.13365896 -0.12612888 0.41745475
0.13440961 -0.12612666 0.41744742
0.13516532 -0.1261292 0.41745579
0.13592882 -0.12613894 0.41748804
0.13669552 -0.1261515 0.41752964
0.13747285 -0.12617372 0.41760314
0.13825433 -0.12619945 0.41768834
0.13904355 -0.12623195 0.4177959
0.13984227 -0.12627268 0.41793066
0.14064866 -0.12631984 0.4180868
0.14146926 -0.12637921 0.41828325
0.14229509 -0.12644258 0.41849303
0.14313219 -0.12651525 0.41873357
0.14397885 -0.12659557 0.4189994
0.14483336 -0.12668191 0.41928515
0.14571331 -0.12678951 0.41964126
0.14660046 -0.12690219 0.42001423
0.14750783 -0.12703116 0.42044109
0.14842677 -0.12716872 0.42089635
0.14938056 -0.12733458 0.42144531
0.15034749 -0.12750989 0.42202556
0.15135008 -0.12771355 0.42269957
0.15238838 -0.12794513 0.42346609
0.15346494 -0.12820637 0.42433074
0.15460683 -0.12851933 0.42536652
0.15582623 -0.1288933 0.42660427
0.15718167 -0.12937558 0.42820048
0.15878677 -0.13005763 0.43045792
0.10657185 -0.13192724 0.43926835
0.10699187 -0.13146971 0.43774498
0.10744131 -0.13105479 0.43636343
0.10790406 -0.13066201 0.43505561
0.10840643 -0.13032253 0.43392527
0.1089216 -0.1300032 0.43286204
0.10945015 -0.12970427 0.43186668
0.10998635 -0.12941857 0.43091542
0.11054675 -0.12916514 0.43007162
0.11110907 -0.12891749 0.42924702
0.1116835 -0.12868722 0.4284803
0.11225971 -0.12846214 0.42773086
0.11285535 -0.12826222 0.42706519
0.11345157 -0.12806566 0.42641076
0.11404964 -0.12787384 0.42577204
0.11466306 -0.12770167 0.42519876
0.11527879 -0.12753434 0.42464164
0.11589775 -0.12737279 0.42410371
0.11652389 -0.12722117 0.42359889
0.11715727 -0.12707938 0.42312679
0.11779226 -0.12694117 0.42266661
0.11843374 -0.12681168 0.42223549
0.11908147 -0.12669051 0.421832
0.11972964 -0.12657133 0.42143518
0.1203856 -0.12646185 0.42107064
0.12104847 -0.12636094 0.42073464
0.12171207 -0.12626205 0.42040542
0.12237559 -0.1261643 0.42007995
0.12305439 -0.12608342 0.41981062
0.1237324 -0.12600271 0.41954193
0.12441352 -0.12592615 0.41928697
0.12509863 -0.12585452 0.41904846
0.12578803 -0.12578803 0.41882712
0.12648746 -0.12573232 0.41864157
0.12718633 -0.12567669 0.41845638
0.12789215 -0.12562856 0.41829613
0.12859863 -0.12558165 0.4181399
0.12931177 -0.12554175 0.41800705
0.1300299 -0.12550713 0.41789177
0.13075651 -0.12548104 0.4178049
0.13148443 -0.1254565 0.41772321
0.13222094 -0.12544037 0.41766953
0.13295919 -0.12542608 0.41762194
0.13370521 -0.12541926 0.4175992
0.13445571 -0.12541667 0.41759059
0.13521165 -0.12541917 0.4175989
0.13597566 -0.12542908 0.41763189
0.13674356 -0.12544245 0.41767642
0.13752119 -0.12546454 0.41774997
0.13830461 -0.12549165 0.41784024
0.13909411 -0.12552395 0.4179478
0.13989422 -0.12556542 0.4180859
0.14069939 -0.12561098 0.41823757
0.14151451 -0.12566487 0.41841704
0.14233999 -0.12572737 0.41862509
0.14317739 -0.12579966 0.4188658
0.1440298 -0.12588431 0.41914767
0.14488803 -0.12597315 0.41944346
0.14575981 -0.12607276 0.41977516
0.14664912 -0.12618645 0.42015368
0.14755696 -0.12631482 0.4205811
0.14848118 -0.12645584 0.42105064
0.14942089 -0.12660854 0.42155907
0.15040101 -0.12679376 0.42217579
0.15138887 -0.12698361 0.4228079
0.15243727 -0.12722209 0.42360196
0.15350455 -0.12747385 0.42444023
0.15465313 -0.1277903 0.4254939
0.15587273 -0.12816203 0.42673159
0.15719685 -0.1286156 0.42824185
0.15879458 -0.12928753 0.43047908
0.1065753 -0.13113911 0.43928254
0.10697902 -0.13066441 0.4376924
0.1074405 -0.13026668 0.43636012
0.10791754 -0.12989347 0.43510994
0.10840698 -0.12954047 0.43392748
0.10893164 -0.12923431 0.43290192
0.1094602 -0.1289371 0.43190634
0.11000738 -0.12866586 0.43099779
0.11055509 -0.12839907 0.43010408
0.11112869 -0.12816584 0.42932281
0.11170319 -0.12793687 0.42855582
0.11228415 -0.12771839 0.42782399
0.11287446 -0.12751347 0.42713752
0.11347076 -0.12731804 0.42648289
0.11407951 -0.12713912 0.42588356
0.11468676 -0.12696092 0.42528665
0.11530191 -0.1267938 0.42472684
0.11592866 -0.12664154 0.42421681
0.11655404 -0.12648979 0.42370847
0.11718263 -0.12634349 0.4232184
0.11782551 -0.12621437 0.42278591
0.11846714 -0.12608561 0.42235458
0.11910753 -0.12595716 0.42192432
0.11976577 -0.1258491 0.42156234
0.12042295 -0.12574132 0.42120129
0.1210795 -0.12563421 0.4208425
0.12174652 -0.12553924 0.42052439
0.12241826 -0.1254503 0.42022642
0.12309181 -0.12536427 0.4199383
0.12377004 -0.12528405 0.41966954
0.12444945 -0.12520598 0.41940805
0.12514101 -0.12514101 0.41919041
0.12583295 -0.12507719 0.41897663
0.12652904 -0.12501825 0.41877919
0.12722814 -0.12496296 0.41859397
0.12793134 -0.12491231 0.41842431
0.12864384 -0.12487129 0.41828692
0.12935971 -0.124834 0.41816202
0.13007973 -0.12480113 0.4180519
0.13080445 -0.12477311 0.41795805
0.13153265 -0.12474874 0.41787639
0.13226776 -0.12473113 0.41781741
0.1330052 -0.12471592 0.41776648
0.1337515 -0.12470914 0.41774374
0.13450183 -0.12470617 0.41773382
0.13525803 -0.12470865 0.41774213
0.13602257 -0.12471876 0.41777596
0.13679168 -0.1247329 0.41782334
0.13756956 -0.12475487 0.41789693
0.1383549 -0.1247833 0.41799217
0.13914555 -0.1248162 0.41810238
0.13994768 -0.12485898 0.41824567
0.14075652 -0.12490726 0.41840738
0.14157188 -0.12496079 0.4185867
0.14239971 -0.12502468 0.41880074
0.14323333 -0.12509295 0.41902944
0.14408061 -0.12517239 0.41929552
0.14494585 -0.12526651 0.4196108
0.14581817 -0.12536575 0.41994324
0.1467077 -0.12547867 0.42032149
0.14761047 -0.12560171 0.42073363
0.14854077 -0.12574679 0.42121962
0.14948295 -0.1259004 0.42173418
0.15045474 -0.12607726 0.42232662
0.15145832 -0.12627885 0.42300189
0.15248664 -0.12649894 0.42373914
0.15357441 -0.12676591 0.42463338
0.15470445 -0.12706494 0.4256351
0.15591991 -0.12743084 0.42686075
0.15726057 -0.12789495 0.42841542
