# .PCD v0.7 - Point Cloud Data file format
VERSION 0.7
FIELDS x y z
SIZE 4 4 4
TYPE F F F
COUNT 1 1 1
WIDTH 1341
HEIGHT 1
VIEWPOINT 0 0 0 1 0 0 0
POINTS 1341
DATA ascii
-0.16205573 -0.04225757 0.45489061
-0.16130172 -0.042275008 0.4550783
-0.16055192 -0.042293727 0.45527983
-0.15980606 -0.042313684 0.45549467
-0.15906671 -0.042335585 0.45573041
-0.15833193 -0.042358931 0.45598173
-0.1576027 -0.042384017 0.45625177
-0.15687826 -0.042410661 0.45653859
-0.1561586 -0.04243888 0.45684236
-0.15544535 -0.042469155 0.45716825
-0.15473664 -0.042500995 0.45751101
-0.15403223 -0.04253437 0.45787027
-0.15333341 -0.042569652 0.45825008
-0.15263774 -0.042606197 0.4586435
-0.15194584 -0.042644203 0.45905259
-0.15125723 -0.042683549 0.45947614
-0.15057081 -0.04272395 0.45991105
-0.14988726 -0.042765617 0.4603596
-0.14920633 -0.042808499 0.46082121
-0.14852811 -0.042852651 0.46129647
-0.14785293 -0.042898174 0.46178654
-0.14718103 -0.042945176 0.46229249
-0.14651245 -0.042993683 0.46281466
-0.14584744 -0.0430438 0.46335414
-0.14518619 -0.043095611 0.46391186
-0.1445293 -0.043149326 0.46449012
-0.1438771 -0.043205075 0.46509025
-0.14322852 -0.043262571 0.46570915
-0.14258416 -0.04332203 0.46634921
-0.14194342 -0.0433833 0.46700877
-0.14130543 -0.04344615 0.46768531
-0.14067097 -0.043510839 0.4683817
-0.14003889 -0.043577056 0.46909451
-0.13940845 -0.043644588 0.46982148
-0.13878021 -0.043713644 0.47056481
-0.13815591 -0.043784793 0.47133073
-0.13753793 -0.043858845 0.47212785
-0.13692696 -0.043936066 0.47295913
-0.13632748 -0.044017959 0.47384071
-0.13574202 -0.044105455 0.47478256
-0.13517743 -0.044200879 0.47580975
-0.13464327 -0.04430753 0.47695783
-0.13413404 -0.044423815 0.47820961
-0.13365072 -0.044550244 0.47957057
-0.13318197 -0.044683203 0.48100185
-0.13271873 -0.044819765 0.48247191
-0.13226521 -0.044961441 0.48399702
-0.13183653 -0.0451135 0.48563388
-0.13145451 -0.04528366 0.48746559
-0.13116698 -0.045488883 0.48967478
-0.13103642 -0.045751698 0.49250388
-0.1312838 -0.04615096 0.49680185
-0.20625532 -0.042952139 0.47152323
-0.2044861 -0.042760033 0.46941432
-0.20292465 -0.04260996 0.46776682
-0.20144896 -0.042476714 0.46630406
-0.20004229 -0.042356964 0.46498948
-0.19870143 -0.042250197 0.46381742
-0.19742346 -0.042155962 0.46278289
-0.19619845 -0.042072278 0.46186423
-0.19501629 -0.041997112 0.46103907
-0.19386691 -0.041928392 0.46028465
-0.19274618 -0.0418653 0.45959204
-0.19164838 -0.041806664 0.45894837
-0.19057214 -0.041752249 0.45835099
-0.18951513 -0.041701585 0.45779482
-0.18847904 -0.041655105 0.45728454
-0.18746455 -0.041613013 0.45682245
-0.18647139 -0.041575298 0.45640844
-0.18549873 -0.041541845 0.45604119
-0.18454494 -0.041512333 0.45571724
-0.18360795 -0.04148636 0.45543209
-0.1826853 -0.041463405 0.45518011
-0.18177871 -0.041443907 0.45496604
-0.18088299 -0.041426715 0.45477733
-0.17999795 -0.041411832 0.45461392
-0.17912227 -0.041398969 0.45447272
-0.17825526 -0.041388005 0.45435235
-0.17739561 -0.041378655 0.45424971
-0.17654428 -0.041371163 0.45416749
-0.17569917 -0.041365076 0.45410064
-0.17486005 -0.041360341 0.45404866
-0.17402731 -0.041357078 0.45401284
-0.17320059 -0.041355226 0.45399252
-0.17237937 -0.041354671 0.45398644
-0.17156342 -0.041355383 0.45399424
-0.17075235 -0.041357283 0.45401511
-0.16994661 -0.041360501 0.45405042
-0.16914535 -0.041364841 0.45409808
-0.16834904 -0.041370448 0.45415962
-0.16755687 -0.041377123 0.4542329
-0.16676918 -0.04138498 0.45431915
-0.16598615 -0.041394077 0.45441902
-0.16520761 -0.041404389 0.45453221
-0.16443291 -0.04141577 0.45465717
-0.16366243 -0.041428335 0.45479509
-0.16289616 -0.041442096 0.45494616
-0.16213489 -0.041457277 0.45511281
-0.16137682 -0.041473433 0.45529017
-0.16062433 -0.041491196 0.45548517
-0.1598758 -0.041510168 0.45569345
-0.15913236 -0.041530669 0.45591852
-0.15839304 -0.041552462 0.45615774
-0.15766045 -0.041576255 0.45641896
-0.15693204 -0.041601408 0.45669508
-0.15621044 -0.04162864 0.45699403
-0.1554936 -0.041657437 0.45731014
-0.15478191 -0.041687928 0.45764488
-0.15407641 -0.04172042 0.45800158
-0.15337594 -0.041754633 0.45837718
-0.15268013 -0.041790493 0.45877084
-0.15198845 -0.041827884 0.45918131
-0.15130104 -0.041866861 0.45960921
-0.1506169 -0.04190718 0.4600518
-0.14993548 -0.041948706 0.46050769
-0.14925653 -0.04199139 0.46097627
-0.14857978 -0.042035174 0.46145689
-0.14790589 -0.042080268 0.46195194
-0.14723514 -0.042126767 0.4624624
-0.14656706 -0.042174567 0.46298715
-0.14590287 -0.042224042 0.46353027
-0.14524235 -0.042275149 0.46409133
-0.14458553 -0.04232794 0.46467087
-0.1439335 -0.042382751 0.46527258
-0.14328565 -0.042439446 0.46589494
-0.14264195 -0.042498045 0.46653825
-0.14200199 -0.042558461 0.46720147
-0.14136659 -0.042620968 0.4678877
-0.14073423 -0.042685155 0.46859232
-0.14010455 -0.042750932 0.46931443
-0.13947693 -0.042818144 0.47005227
-0.13885087 -0.04288666 0.47080439
-0.13822894 -0.042957298 0.47157988
-0.13761134 -0.043030173 0.47237986
-0.13699988 -0.043105878 0.47321096
-0.13639762 -0.043185454 0.47408453
-0.1358083 -0.043270152 0.47501436
-0.13523881 -0.043362286 0.47602579
-0.13469648 -0.043464363 0.47714636
-0.13418366 -0.043577328 0.47838649
-0.13369983 -0.043701243 0.47974679
-0.1332382 -0.043834064 0.4812049
-0.13278513 -0.043971468 0.48271328
-0.13234046 -0.044113491 0.48427239
-0.1319157 -0.044264074 0.4859255
-0.13153525 -0.044431638 0.48776498
-0.13124527 -0.04463223 0.48996705
-0.13111703 -0.044890914 0.49280688
-0.13141073 -0.045298576 0.49728215
-0.20663601 -0.042179309 0.47239354
-0.2047822 -0.041973993 0.47009405
-0.20317729 -0.041818194 0.46834916
-0.20166492 -0.041680224 0.46680397
-0.2002297 -0.041557107 0.4654251
-0.19887212 -0.041449137 0.46421584
-0.19757994 -0.041353941 0.4631497
-0.19634418 -0.041269798 0.46220732
-0.19515158 -0.041194044 0.4613589
-0.19399205 -0.041124653 0.46058175
-0.19286165 -0.041060865 0.45986736
-0.19175397 -0.041001391 0.45920125
-0.19066775 -0.040946003 0.45858094
-0.1896044 -0.040895067 0.45801046
-0.18856578 -0.040849041 0.457495
-0.18755102 -0.040807806 0.45703316
-0.18656018 -0.040771432 0.45662579
-0.18559098 -0.040739484 0.45626798
-0.18464145 -0.040711589 0.45595559
-0.18370867 -0.040687155 0.45568192
-0.18279074 -0.040665805 0.45544282
-0.18188533 -0.04064706 0.45523289
-0.18099228 -0.040630918 0.45505211
-0.18010725 -0.040616442 0.45488995
-0.17923343 -0.040604372 0.45475477
-0.1783659 -0.040593617 0.45463434
-0.17750677 -0.040584691 0.45453435
-0.17665464 -0.040577281 0.45445138
-0.17580821 -0.040571123 0.45438242
-0.17496888 -0.040566556 0.45433125
-0.17413561 -0.040563352 0.4542954
-0.17330781 -0.0405614 0.45427352
-0.17248531 -0.040560678 0.45426542
-0.1716681 -0.040561195 0.45427123
-0.17085634 -0.040563017 0.45429161
-0.17004925 -0.040565968 0.45432466
-0.16924687 -0.040570073 0.45437065
-0.16844946 -0.040575415 0.45443049
-0.16765642 -0.040581871 0.45450279
-0.16686773 -0.040589448 0.45458764
-0.16608334 -0.04059815 0.45468509
-0.16530286 -0.040607899 0.45479429
-0.16452748 -0.040619005 0.45491865
-0.16375563 -0.040631097 0.45505407
-0.16298762 -0.040644269 0.45520163
-0.16222404 -0.040658683 0.45536307
-0.16146448 -0.040674258 0.4555375
-0.1607087 -0.040690947 0.45572442
-0.15995783 -0.04070906 0.45592725
-0.15921058 -0.040728286 0.45614257
-0.15846922 -0.040749226 0.45637709
-0.15773167 -0.040771373 0.45662513
-0.15699965 -0.040795185 0.4568918
-0.15627348 -0.040820781 0.45717847
-0.15555254 -0.040848013 0.45748347
-0.15483846 -0.040877353 0.45781207
-0.15412964 -0.040908404 0.45815983
-0.15342647 -0.040941294 0.45852819
-0.15272847 -0.040975932 0.45891613
-0.15203637 -0.041012533 0.45932606
-0.15134925 -0.041050892 0.45975566
-0.15066564 -0.04109063 0.4602007
-0.14998606 -0.041131914 0.46066305
-0.14930931 -0.04117443 0.46113926
-0.14863458 -0.041217994 0.46162713
-0.14796238 -0.041262746 0.46212834
-0.14729325 -0.041308872 0.46264496
-0.14662702 -0.04135634 0.46317658
-0.14596359 -0.041405145 0.46372315
-0.14530396 -0.041455597 0.4642882
-0.14464749 -0.041507542 0.46486998
-0.14399529 -0.04156132 0.46547228
-0.14334762 -0.041617051 0.46609643
-0.14270453 -0.041674774 0.46674293
-0.14206612 -0.041734558 0.46741247
-0.14143215 -0.041796364 0.46810469
-0.14080118 -0.041859813 0.46881527
-0.14017387 -0.041925114 0.46954665
-0.1395489 -0.041991919 0.47029483
-0.13892692 -0.042060446 0.4710623
-0.13830714 -0.042130485 0.4718467
-0.13769096 -0.042202491 0.47265318
-0.13708009 -0.042277034 0.47348803
-0.13647619 -0.042354681 0.47435763
-0.13588461 -0.042437147 0.47528124
-0.13531116 -0.042526364 0.47628042
-0.13476016 -0.042623822 0.4773719
-0.13424323 -0.042733379 0.47859892
-0.13375847 -0.042854656 0.47995716
-0.13330086 -0.04298627 0.48143122
-0.13285854 -0.043124575 0.48298019
-0.13242345 -0.043267064 0.48457602
-0.13200593 -0.043417234 0.48625785
-0.13162872 -0.043582756 0.48811164
-0.13134007 -0.043780021 0.49032095
-0.13121992 -0.044036515 0.4931936
-0.1315846 -0.044460323 0.49794009
-0.20708586 -0.04141717 0.47342193
-0.205116 -0.041193072 0.47086033
-0.20345785 -0.04102996 0.4689959
-0.20190431 -0.040886678 0.46735808
-0.20044017 -0.040760368 0.46591431
-0.19906011 -0.04065017 0.46465468
-0.19775139 -0.040553667 0.46355158
-0.19650431 -0.040469039 0.46258426
-0.19529898 -0.040392328 0.46170738
-0.19412819 -0.040322129 0.46090496
-0.19298589 -0.040257271 0.46016362
-0.19186603 -0.040196553 0.45946959
-0.19077219 -0.040140785 0.45883211
-0.18970495 -0.040090151 0.45825335
-0.18866582 -0.040045042 0.45773771
-0.18765311 -0.040005166 0.45728192
-0.1866653 -0.039970275 0.45688307
-0.18569987 -0.03993988 0.45653567
-0.18475528 -0.039913721 0.45623666
-0.18382631 -0.039890721 0.45597374
-0.1829111 -0.039870508 0.45574269
-0.18200631 -0.039852399 0.45553568
-0.18111414 -0.039836895 0.45535848
-0.1802298 -0.039822984 0.45519948
-0.17935494 -0.039811049 0.45506305
-0.17848672 -0.039800487 0.45494232
-0.17762695 -0.039791718 0.45484209
-0.17677377 -0.039784353 0.45475787
-0.17592619 -0.039778184 0.45468739
-0.1750854 -0.039773498 0.4546338
-0.17425089 -0.039770201 0.45459613
-0.17342186 -0.039768133 0.4545725
-0.17259799 -0.039767232 0.45456219
-0.17177956 -0.039767582 0.45456618
-0.17096639 -0.039769158 0.45458421
-0.17015831 -0.039771944 0.45461604
-0.16935493 -0.039775856 0.45466077
-0.16855641 -0.039780956 0.45471904
-0.16776246 -0.039787184 0.45479023
-0.16697297 -0.039794542 0.45487434
-0.16618754 -0.039802942 0.45497036
-0.16540609 -0.039812386 0.4550783
-0.1646291 -0.039822999 0.45519966
-0.16385633 -0.039834745 0.45533392
-0.16308728 -0.039847519 0.45547992
-0.16232179 -0.039861299 0.45563743
-0.16156119 -0.039876428 0.45581034
-0.16080329 -0.039892375 0.45599264
-0.16005057 -0.03990978 0.4561916
-0.15930112 -0.039928187 0.456402
-0.15855643 -0.039947987 0.45662829
-0.15781584 -0.039969027 0.4568688
-0.15708055 -0.039991636 0.45712724
-0.15634921 -0.040015496 0.45739999
-0.15562458 -0.040041339 0.45769539
-0.15490595 -0.040069006 0.45801163
-0.15419297 -0.04009844 0.4583481
-0.15348619 -0.040129811 0.45870668
-0.15278608 -0.040163279 0.45908922
-0.15209208 -0.040198725 0.45949438
-0.15140311 -0.040235899 0.4599193
-0.15071949 -0.040274903 0.46036518
-0.15004042 -0.040315568 0.46083
-0.14936519 -0.040357724 0.46131185
-0.14869304 -0.040401191 0.46180871
-0.14802289 -0.040445693 0.46231738
-0.1473556 -0.040491484 0.4628408
-0.14669088 -0.040538505 0.46337828
-0.14602889 -0.040586825 0.46393061
-0.1453699 -0.040636543 0.46449891
-0.14471446 -0.040687833 0.46508518
-0.14406276 -0.040740777 0.46569037
-0.14341521 -0.040795531 0.46631622
-0.14277329 -0.040852532 0.46696779
-0.14213562 -0.04091144 0.46764112
-0.14150277 -0.040972445 0.46833846
-0.14087342 -0.041035198 0.46905577
-0.14024846 -0.041100007 0.46979654
-0.13962619 -0.041166384 0.47055531
-0.13900742 -0.041234616 0.47133523
-0.13839082 -0.041304339 0.47213218
-0.13777637 -0.04137557 0.47294641
-0.13716547 -0.041448757 0.47378299
-0.13656323 -0.041525498 0.47466016
-0.13597105 -0.041606281 0.47558358
-0.13539281 -0.041692391 0.47656786
-0.13483709 -0.041786574 0.47764441
-0.13431287 -0.041891798 0.47884718
-0.13382572 -0.042010017 0.4801985
-0.13337131 -0.042140119 0.48168564
-0.13294011 -0.042279314 0.48327672
-0.1325154 -0.042422425 0.48491254
-0.1321077 -0.042572916 0.48663276
-0.13173757 -0.042737607 0.48851529
-0.1314532 -0.042932529 0.49074334
-0.13135298 -0.043190639 0.49369368
-0.13182941 -0.043643184 0.49886653
-0.20767973 -0.040679537 0.47477961
-0.20549443 -0.040418159 0.47172904
-0.20377207 -0.040246043 0.46972021
-0.20217232 -0.040096804 0.46797845
-0.2006741 -0.039966539 0.46645808
-0.19926777 -0.039853554 0.46513942
-0.19794326 -0.039756045 0.46400136
-0.19667965 -0.039669994 0.46299702
-0.19545889 -0.039591886 0.4620854
-0.19427623 -0.03952086 0.46125644
-0.19311959 -0.039454538 0.46048242
-0.19198911 -0.039393015 0.45976433
-0.1908883 -0.039337069 0.45911139
-0.18981978 -0.039287321 0.45853075
-0.18878129 -0.039243378 0.45801789
-0.1877716 -0.039205059 0.45757067
-0.18678813 -0.039171904 0.45718372
-0.18582718 -0.039143197 0.45684868
-0.18488574 -0.039118364 0.45655882
-0.18395855 -0.039096333 0.45630172
-0.18304411 -0.039076831 0.45607412
-0.18213996 -0.03905936 0.45587018
-0.18124719 -0.039044179 0.45569301
-0.18036227 -0.039030559 0.45553404
-0.17948589 -0.039018672 0.45539531
-0.17861691 -0.03900829 0.45527413
-0.17775518 -0.038999405 0.45517042
-0.1768996 -0.03899179 0.45508155
-0.1760508 -0.038985606 0.4550094
-0.1752087 -0.03898086 0.454954
-0.17437208 -0.038977288 0.4549123
-0.17354107 -0.038974945 0.45488498
-0.17271581 -0.038973875 0.45487249
-0.17189614 -0.038974065 0.45487469
-0.17108147 -0.038975392 0.45489019
-0.17027192 -0.03897791 0.45491955
-0.16946754 -0.038981639 0.45496309
-0.16866809 -0.038986541 0.45502031
-0.16787308 -0.038992524 0.45509014
-0.16708283 -0.03899968 0.45517364
-0.16629675 -0.03900788 0.45526934
-0.16551486 -0.039017152 0.45537755
-0.16473666 -0.039027385 0.45549703
-0.1639635 -0.039038926 0.4556317
-0.16319351 -0.039051343 0.45577663
-0.16242725 -0.03906478 0.45593345
-0.16166495 -0.039079316 0.45610309
-0.16090654 -0.03909494 0.45628545
-0.16015136 -0.039111514 0.45647889
-0.15940098 -0.039129443 0.45668814
-0.15865359 -0.039148286 0.45690808
-0.15791109 -0.039168548 0.45714453
-0.1571725 -0.039189994 0.45739484
-0.1564384 -0.039212789 0.45766091
-0.15570988 -0.039237238 0.45794624
-0.15498587 -0.039263088 0.45824793
-0.1542678 -0.03929073 0.45857054
-0.15355779 -0.03932073 0.45892069
-0.15285368 -0.039352573 0.45929235
-0.15215597 -0.039386421 0.45968738
-0.15146451 -0.03942227 0.46010578
-0.15077938 -0.039460167 0.4605481
-0.15009961 -0.039499898 0.4610118
-0.1494253 -0.039541513 0.46149749
-0.14875449 -0.039584529 0.46199957
-0.1480872 -0.039628971 0.46251824
-0.14742219 -0.039674528 0.46304995
-0.14675897 -0.039721087 0.46359336
-0.14609869 -0.039768983 0.46415237
-0.14544098 -0.039818138 0.46472603
-0.14478667 -0.039868791 0.46531725
-0.14413624 -0.039921112 0.4659279
-0.14348957 -0.039975103 0.46655801
-0.14284751 -0.040031012 0.46721056
-0.14221051 -0.040089019 0.46788755
-0.14157875 -0.040149197 0.46858993
-0.14095129 -0.040211327 0.46931505
-0.14032818 -0.040275462 0.47006357
-0.13970894 -0.040341485 0.47083417
-0.13909267 -0.040409185 0.47162428
-0.13847922 -0.040478539 0.47243375
-0.13786764 -0.040549308 0.47325969
-0.13725938 -0.040621936 0.47410735
-0.13665749 -0.040697373 0.47498778
-0.13606474 -0.040776499 0.47591129
-0.13548467 -0.040860455 0.47689116
-0.13492459 -0.040951554 0.47795439
-0.13439515 -0.04105318 0.47914049
-0.13390334 -0.041167691 0.48047698
-0.13345097 -0.041295905 0.48197338
-0.13302831 -0.041435048 0.48359737
-0.13261808 -0.041579928 0.48528826
-0.1322208 -0.041730821 0.48704937
-0.1318602 -0.041895378 0.48896998
-0.13158345 -0.042088982 0.49122956
-0.13150886 -0.042350311 0.49427959
-0.20593743 -0.039652549 0.47274598
-0.20413037 -0.039468031 0.47054613
-0.20247199 -0.039310843 0.4686721
-0.20093165 -0.039175354 0.46705675
-0.19949555 -0.039059129 0.46567109
-0.19815241 -0.0389602 0.46449164
-0.19687106 -0.038872629 0.4634476
-0.195636 -0.038793493 0.46250412
-0.19443597 -0.038720652 0.46163571
-0.19326375 -0.038652752 0.46082616
-0.19212438 -0.03859086 0.46008828
-0.19101824 -0.038535133 0.4594239
-0.18994951 -0.038486503 0.45884413
-0.18891303 -0.038444009 0.45833752
-0.18790765 -0.038407497 0.45790222
-0.18692832 -0.038376011 0.45752683
-0.18597063 -0.038348712 0.45720136
-0.18503033 -0.038324766 0.45691589
-0.18410416 -0.03830355 0.45666292
-0.18318929 -0.038284503 0.45643583
-0.18228386 -0.038267266 0.45623034
-0.1813899 -0.038252294 0.45605183
-0.18050307 -0.038238693 0.45588967
-0.17962469 -0.038226765 0.45574749
-0.17875353 -0.038216271 0.45562235
-0.17788947 -0.038207207 0.45551431
-0.17703149 -0.038199369 0.45542085
-0.17618068 -0.038193014 0.45534509
-0.17533621 -0.038187981 0.45528507
-0.17449741 -0.03818414 0.4552393
-0.1736647 -0.038181603 0.45520905
-0.17283745 -0.038180243 0.45519283
-0.17201595 -0.03818015 0.45519173
-0.17119993 -0.038181279 0.4552052
-0.17038937 -0.038183641 0.45523334
-0.16958393 -0.03818718 0.45527554
-0.1687834 -0.038191862 0.45533136
-0.1679872 -0.038197577 0.45539948
-0.16719624 -0.038204547 0.45548257
-0.16640957 -0.038212568 0.45557821
-0.16562735 -0.038221695 0.45568705
-0.16484886 -0.038231783 0.4558073
-0.1640747 -0.038242977 0.45594075
-0.16330464 -0.038255241 0.45608699
-0.1625379 -0.038268417 0.45624405
-0.16177469 -0.038282558 0.45641267
-0.16101588 -0.038297895 0.45659551
-0.16025966 -0.038314007 0.45678762
-0.15950803 -0.038331389 0.45699483
-0.15875953 -0.038349707 0.45721319
-0.15801513 -0.038369209 0.45744574
-0.15727392 -0.038389698 0.45769
-0.15653774 -0.038411636 0.45795155
-0.15580565 -0.038434815 0.45822787
-0.15507789 -0.038459316 0.45852
-0.15435666 -0.03848571 0.45883465
-0.15364124 -0.038513839 0.45917004
-0.15293221 -0.038543887 0.4595283
-0.15222998 -0.038575992 0.45991102
-0.15153491 -0.038610265 0.46031964
-0.15084665 -0.038646661 0.46075356
-0.15016556 -0.038685311 0.46121433
-0.14949013 -0.038725853 0.46169773
-0.14882015 -0.038768277 0.46220347
-0.14815454 -0.038812317 0.46272853
-0.14749192 -0.038857646 0.46326897
-0.14683114 -0.038903978 0.46382135
-0.14617279 -0.03895149 0.4643878
-0.1455172 -0.039000284 0.46496955
-0.14486432 -0.039050382 0.46556681
-0.14421479 -0.039101973 0.46618187
-0.14356901 -0.039155185 0.46681628
-0.14292826 -0.039210405 0.46747464
-0.14229167 -0.039267432 0.46815452
-0.14166071 -0.039326705 0.46886119
-0.14103502 -0.039388157 0.46959385
-0.14041315 -0.039451428 0.47034818
-0.13979611 -0.039516836 0.47112796
-0.13918313 -0.039584193 0.47193101
-0.13857269 -0.039653108 0.47275263
-0.13796496 -0.039723657 0.47359374
-0.13735914 -0.039795641 0.47445193
-0.13675882 -0.039870128 0.47533998
-0.13616702 -0.039948054 0.47626904
-0.13558637 -0.04003026 0.47724912
-0.1350219 -0.040118326 0.47829905
-0.13448822 -0.040216736 0.47947234
-0.13399385 -0.040328246 0.48080176
-0.13354158 -0.040453963 0.48230061
-0.13312621 -0.040592581 0.48395324
-0.13273156 -0.040739387 0.4857035
-0.13234732 -0.040891364 0.48751539
-0.13199778 -0.041056164 0.48948017
-0.13173749 -0.04125113 0.4918046
-0.13169761 -0.041518226 0.49498898
-0.20645852 -0.038897984 0.47394219
-0.20453364 -0.038695551 0.47147572
-0.20280923 -0.038529519 0.46945274
-0.20122054 -0.038387984 0.46772826
-0.19975209 -0.038268298 0.46626994
-0.19838242 -0.038166597 0.46503082
-0.19707981 -0.038076989 0.46393901
-0.19582656 -0.037996195 0.46295461
-0.19460942 -0.037921749 0.46204752
-0.1934233 -0.037852731 0.46120659
-0.19227356 -0.037790269 0.46044552
-0.1911633 -0.037735056 0.4597728
-0.19009598 -0.037687872 0.45919791
-0.18906267 -0.037647054 0.45870057
-0.18806107 -0.037612215 0.45827606
-0.18708456 -0.037582107 0.45790923
-0.18612839 -0.03755584 0.45758921
-0.1851874 -0.037532415 0.45730376
-0.18426041 -0.037511628 0.4570505
-0.18334395 -0.037492808 0.4568212
-0.18243732 -0.037475839 0.45661443
-0.18154061 -0.037460759 0.45643073
-0.18065102 -0.037447024 0.45626336
-0.17976992 -0.037434928 0.45611596
-0.17889574 -0.037424166 0.45598486
-0.17802875 -0.037414819 0.45587096
-0.17716838 -0.03740678 0.45577303
-0.17631453 -0.037400052 0.45569104
-0.17546779 -0.037394773 0.45562673
-0.17462692 -0.037390705 0.45557716
-0.17379226 -0.037387934 0.45554337
-0.17296313 -0.037386332 0.45552385
-0.17214027 -0.037386075 0.45552072
-0.17132287 -0.037387006 0.45553207
-0.17051096 -0.037389152 0.45555821
-0.16970421 -0.037392452 0.45559844
-0.16890241 -0.037396885 0.45565245
-0.16810539 -0.037402421 0.45571992
-0.1673135 -0.03740916 0.45580202
-0.16652603 -0.037416961 0.45589706
-0.16574305 -0.037425853 0.45600539
-0.16496427 -0.037435781 0.45612639
-0.16418938 -0.0374467 0.45625943
-0.16341922 -0.037458811 0.45640698
-0.16265236 -0.037471808 0.45656535
-0.16188926 -0.037485804 0.45673588
-0.16112983 -0.037500806 0.45691866
-0.16037372 -0.037516728 0.45711267
-0.15962102 -0.037533626 0.45731851
-0.15887184 -0.037551526 0.45753664
-0.15812634 -0.037570488 0.45776767
-0.15738337 -0.037590254 0.4580085
-0.15664573 -0.037611511 0.45826748
-0.15591122 -0.037633743 0.45853838
-0.15518118 -0.037657302 0.45882544
-0.15445626 -0.037682358 0.45913073
-0.15373659 -0.037708975 0.45945501
-0.15302287 -0.037737347 0.45980072
-0.15231545 -0.037767593 0.46016923
-0.15161598 -0.037800148 0.46056589
-0.15092449 -0.037835065 0.46099132
-0.15024017 -0.037872173 0.46144348
-0.14956273 -0.037911445 0.46192196
-0.14889152 -0.03795274 0.46242511
-0.14822617 -0.037996005 0.46295229
-0.14756514 -0.038040869 0.46349892
-0.14690746 -0.038087118 0.46406242
-0.14625186 -0.038134437 0.46463898
-0.14559822 -0.038182817 0.46522844
-0.14494732 -0.038232483 0.46583357
-0.14429933 -0.038283497 0.46645513
-0.14365496 -0.038336072 0.46709573
-0.14301506 -0.038390473 0.46775857
-0.14237964 -0.038446728 0.46844399
-0.14174899 -0.038504951 0.46915337
-0.14112383 -0.038565371 0.46988958
-0.14050414 -0.038628027 0.47065297
-0.13988976 -0.038692914 0.47144356
-0.13927926 -0.038759671 0.47225696
-0.13867223 -0.038828224 0.47309223
-0.13806775 -0.038898345 0.4739466
-0.13746546 -0.03896996 0.47481918
-0.13686764 -0.039043747 0.4757182
-0.13627709 -0.039120551 0.47665402
-0.1356959 -0.03920104 0.4776347
-0.13513155 -0.039287448 0.47868752
-0.13459353 -0.039382674 0.47984779
-0.13409577 -0.039490987 0.4811675
-0.13364373 -0.039614268 0.48266956
-0.13323559 -0.03975226 0.48435089
-0.13285623 -0.039900716 0.48615971
-0.13248745 -0.040054344 0.48803154
-0.13215299 -0.040220477 0.49005574
-0.13191274 -0.040417708 0.49245888
-0.13193351 -0.040698133 0.49587563
-0.20711115 -0.038163338 0.47544032
-0.2050018 -0.037931729 0.47255492
-0.2031962 -0.037754618 0.47034848
-0.201545 -0.037604835 0.46848246
-0.20003422 -0.037480094 0.46692845
-0.1986354 -0.037375368 0.4656238
-0.19731018 -0.037283663 0.46448132
-0.19603574 -0.037200812 0.46344915
-0.1947978 -0.037124205 0.46249479
-0.19359617 -0.037053891 0.46161878
-0.19243704 -0.036991138 0.46083701
-0.19132677 -0.03693727 0.46016595
-0.19025852 -0.036891084 0.45959055
-0.18923026 -0.036852282 0.45910716
-0.1882301 -0.036818635 0.45868796
-0.18725526 -0.036789667 0.45832708
-0.18629791 -0.036763888 0.45800593
-0.18535636 -0.036741015 0.45772099
-0.18442659 -0.036720283 0.4574627
-0.18350799 -0.036701597 0.45722991
-0.18259895 -0.036684666 0.45701897
-0.18169814 -0.036669239 0.45682681
-0.18080564 -0.036655359 0.45665386
-0.17992099 -0.036642946 0.45649925
-0.17904331 -0.036631849 0.456361
-0.17817335 -0.036622237 0.45624122
-0.17731002 -0.036613904 0.45613742
-0.17645386 -0.036606979 0.45605114
-0.17560455 -0.036601417 0.45598185
-0.17476158 -0.036597133 0.45592847
-0.17392471 -0.036594089 0.45589057
-0.173094 -0.03659232 0.45586851
-0.17226918 -0.036591783 0.45586184
-0.17145047 -0.036592547 0.45587134
-0.17063698 -0.036594436 0.45589489
-0.16982885 -0.036597501 0.45593306
-0.169026 -0.036601741 0.45598587
-0.16822799 -0.036607068 0.45605227
-0.16743495 -0.036613539 0.45613286
-0.16664672 -0.036621131 0.45622745
-0.1658629 -0.036629774 0.45633513
-0.16508354 -0.036639489 0.45645618
-0.16430834 -0.036650233 0.45659
-0.16353747 -0.036662053 0.45673725
-0.16277073 -0.036674924 0.45689762
-0.16200714 -0.036688641 0.4570685
-0.16124767 -0.036703434 0.4572528
-0.16049181 -0.036719207 0.45744929
-0.15973897 -0.036735836 0.45765644
-0.15898958 -0.036753438 0.45787573
-0.15824342 -0.036771968 0.45810661
-0.15750019 -0.03679138 0.45834845
-0.15676117 -0.036811993 0.4586052
-0.1560251 -0.03683351 0.4588733
-0.15529336 -0.03685629 0.45915708
-0.15456578 -0.036880307 0.45945629
-0.15384258 -0.036905631 0.45977178
-0.15312494 -0.036932573 0.46010742
-0.15241335 -0.036961276 0.46046498
-0.15170896 -0.036992047 0.46084836
-0.15101261 -0.037025131 0.46126053
-0.15032449 -0.037060611 0.4617025
-0.14964378 -0.037098318 0.4621723
-0.14897059 -0.037138328 0.46267071
-0.14830421 -0.037180495 0.46319601
-0.14764355 -0.037224576 0.46374521
-0.14698754 -0.037270345 0.46431538
-0.1463348 -0.03731747 0.46490249
-0.14568399 -0.037365638 0.46550253
-0.14503512 -0.037414856 0.46611571
-0.14438924 -0.037465431 0.46674576
-0.1437463 -0.037517361 0.46739274
-0.14310755 -0.037571009 0.46806109
-0.14247327 -0.037626468 0.468752
-0.14184354 -0.037683807 0.4694663
-0.14121965 -0.03774339 0.47020859
-0.14060104 -0.037805114 0.47097754
-0.1399889 -0.037869338 0.47177765
-0.13938135 -0.037935596 0.47260311
-0.13877778 -0.038003761 0.4734523
-0.13817671 -0.038073458 0.47432062
-0.13757846 -0.038144808 0.47520947
-0.13698331 -0.03821791 0.4761202
-0.13639469 -0.038293779 0.47706535
-0.13581528 -0.038373206 0.47805488
-0.13524936 -0.038457487 0.47910485
-0.13471079 -0.038550675 0.4802658
-0.13421045 -0.038656082 0.48157898
-0.13375932 -0.038777132 0.483087
-0.1333593 -0.03891468 0.48480061
-0.13299352 -0.039064106 0.48666212
-0.13264212 -0.039219763 0.48860133
-0.13232605 -0.03938802 0.49069747
-0.13211447 -0.039589856 0.49321195
-0.13222362 -0.039891191 0.496966
-0.20817912 -0.037498102 0.47789192
-0.20554733 -0.037178002 0.47381243
-0.20363475 -0.036985852 0.4713636
-0.20190822 -0.036826026 0.46932673
-0.2003476 -0.036695246 0.46765998
-0.19891432 -0.036586776 0.46627763
-0.19756103 -0.036492161 0.46507183
-0.19626369 -0.036407124 0.46398804
-0.19500396 -0.03632836 0.46298423
-0.19378462 -0.036256477 0.46206814
-0.19262061 -0.036194369 0.46127662
-0.19150658 -0.036141153 0.46059841
-0.19043872 -0.036096226 0.46002585
-0.1894116 -0.036058661 0.4595471
-0.18841404 -0.036026418 0.45913619
-0.18743786 -0.035998002 0.458774
-0.18647979 -0.035972819 0.45845309
-0.18553518 -0.035950024 0.45816255
-0.18460272 -0.035929389 0.45789957
-0.18367982 -0.035910435 0.45765805
-0.18276784 -0.035893459 0.45744169
-0.1818632 -0.035877775 0.4572418
-0.1809663 -0.035863481 0.45705962
-0.18007782 -0.035850734 0.45689717
-0.17919691 -0.035839383 0.45675251
-0.17832343 -0.035829421 0.45662555
-0.17745753 -0.035820894 0.45651686
-0.17659815 -0.035813611 0.45642406
-0.17574722 -0.035807978 0.45635229
-0.17490211 -0.035803489 0.45629507
-0.17406319 -0.03580023 0.45625353
-0.17323044 -0.035798214 0.45622784
-0.17240413 -0.035797514 0.45621893
-0.17158365 -0.035798028 0.45622548
-0.1707688 -0.035799723 0.45624706
-0.16995923 -0.035802551 0.45628309
-0.16915491 -0.035806514 0.45633361
-0.16835539 -0.03581154 0.45639765
-0.16756165 -0.035817847 0.45647803
-0.16677245 -0.035825193 0.45657167
-0.16598779 -0.035833593 0.45667872
-0.16520762 -0.035843048 0.45679924
-0.1644315 -0.035853487 0.45693225
-0.16366 -0.035865039 0.45707947
-0.16289294 -0.035877686 0.45724067
-0.16212897 -0.035891145 0.45741221
-0.16136952 -0.035905749 0.4575983
-0.16061318 -0.035921201 0.45779523
-0.15986075 -0.035937686 0.45800534
-0.15911174 -0.03595512 0.45822752
-0.15836585 -0.035973441 0.45846102
-0.1576225 -0.03599254 0.45870441
-0.15688252 -0.036012612 0.45896021
-0.15614572 -0.03603363 0.45922807
-0.15541264 -0.036055736 0.45950979
-0.15468323 -0.03607893 0.4598054
-0.15395804 -0.036103368 0.46011683
-0.15323722 -0.036129102 0.46044481
-0.15252247 -0.036156554 0.46079469
-0.15181379 -0.036185753 0.4611668
-0.15111212 -0.036216956 0.46156445
-0.15041929 -0.036250632 0.46199366
-0.14973409 -0.036286537 0.46245122
-0.14905785 -0.036325023 0.46294171
-0.14838937 -0.036365844 0.46346197
-0.14772804 -0.036408894 0.4640106
-0.14707276 -0.036453933 0.46458459
-0.14642206 -0.036500625 0.46517968
-0.14577402 -0.036548529 0.46579018
-0.14512825 -0.036597561 0.46641505
-0.14448433 -0.036647625 0.46705312
-0.1438438 -0.036699153 0.46770978
-0.14320669 -0.036752157 0.46838531
-0.14257349 -0.036806807 0.46908179
-0.14194517 -0.036863372 0.46980265
-0.1413226 -0.03692212 0.47055137
-0.14070566 -0.036983058 0.47132799
-0.14009543 -0.037046511 0.47213668
-0.13949034 -0.037112106 0.47297266
-0.13888945 -0.037179638 0.47383329
-0.1382928 -0.037249144 0.47471914
-0.13769807 -0.037320036 0.47562259
-0.13710691 -0.037392791 0.47654983
-0.13652077 -0.037467849 0.47750637
-0.13594271 -0.03754608 0.47850341
-0.13537975 -0.037629515 0.47956672
-0.13483962 -0.037720408 0.48072511
-0.13433526 -0.037822548 0.48202685
-0.13388561 -0.037941523 0.4835431
-0.13349426 -0.038078692 0.48529121
-0.13314594 -0.038230024 0.48721987
-0.13281424 -0.03838817 0.48923534
-0.13251868 -0.038558945 0.49141181
-0.1323466 -0.038768195 0.49407855
-0.13260885 -0.039108373 0.49841392
-0.20621389 -0.036441125 0.47534892
-0.20414485 -0.036226124 0.47254437
-0.20232336 -0.03605343 0.47029173
-0.20069654 -0.035914119 0.46847451
-0.1992227 -0.03580112 0.46700051
-0.19783764 -0.035703182 0.46572301
-0.19651204 -0.035615187 0.46457517
-0.19522823 -0.035534047 0.46351674
-0.19399594 -0.035461623 0.46257201
-0.19281998 -0.035398915 0.46175405
-0.19170308 -0.035346556 0.46107104
-0.19063714 -0.035303175 0.46050516
-0.18960959 -0.035266552 0.46002746
-0.18861005 -0.035234846 0.45961386
-0.18763301 -0.035207078 0.45925164
-0.18667197 -0.035182077 0.45892555
-0.18572415 -0.035159361 0.45862922
-0.18478763 -0.035138588 0.45835826
-0.18386124 -0.035119563 0.45811009
-0.18294394 -0.03510211 0.45788243
-0.18203425 -0.035085969 0.45767185
-0.18113361 -0.035071429 0.45748219
-0.18024154 -0.035058424 0.45731255
-0.17935699 -0.035046767 0.45716053
-0.17848031 -0.035036553 0.45702726
-0.17761199 -0.035027888 0.45691425
-0.17674994 -0.035020385 0.45681638
-0.17589596 -0.035014417 0.45673853
-0.17504875 -0.035009753 0.45667768
-0.17420776 -0.035006288 0.45663249
-0.17337322 -0.035004094 0.45660388
-0.17254463 -0.035003088 0.45659074
-0.17172255 -0.035003398 0.45659477
-0.17090634 -0.03500491 0.45661452
-0.17009528 -0.035007503 0.45664835
-0.16928932 -0.035011172 0.45669621
-0.1684887 -0.035015985 0.45675901
-0.16769385 -0.035022058 0.45683819
-0.16690363 -0.035029154 0.45693079
-0.16611795 -0.035037287 0.45703682
-0.16533685 -0.035046466 0.45715657
-0.16455972 -0.035056584 0.45728856
-0.16378799 -0.035067957 0.45743692
-0.16301998 -0.03508025 0.45759726
-0.16225539 -0.035093404 0.45776889
-0.16149569 -0.035107758 0.45795611
-0.16073963 -0.035123054 0.45815563
-0.15998687 -0.035139237 0.45836669
-0.15923789 -0.035156418 0.45859084
-0.15849185 -0.035174429 0.4588258
-0.1577493 -0.035193413 0.45907339
-0.15700927 -0.035213165 0.45933104
-0.15627228 -0.035233799 0.45960024
-0.15553871 -0.03525544 0.4598825
-0.15480848 -0.035278071 0.46017772
-0.15408151 -0.035301693 0.46048585
-0.15335849 -0.035326481 0.46080917
-0.15264088 -0.035352789 0.46115237
-0.15192886 -0.035380695 0.46151635
-0.15122321 -0.035410393 0.46190375
-0.1505248 -0.035442125 0.46231768
-0.14983498 -0.035476245 0.46276277
-0.14915451 -0.035512976 0.4632419
-0.14848287 -0.035552237 0.46375403
-0.14782007 -0.035594068 0.46429968
-0.14716434 -0.035638086 0.46487388
-0.14651465 -0.035684083 0.46547386
-0.14586924 -0.035731658 0.46609443
-0.14522664 -0.035780478 0.46673125
-0.14458579 -0.035830297 0.46738112
-0.1439466 -0.035881117 0.46804404
-0.14331195 -0.035933677 0.46872962
-0.1426806 -0.03598769 0.46943417
-0.1420539 -0.036043525 0.47016254
-0.1414324 -0.036101364 0.47091699
-0.14081641 -0.036161311 0.47169897
-0.14020833 -0.036224037 0.47251719
-0.13960636 -0.036289115 0.47336605
-0.13900852 -0.036356073 0.4742395
-0.1384152 -0.036425054 0.47513929
-0.13782507 -0.036495738 0.47606131
-0.13723782 -0.036568068 0.47700483
-0.1366557 -0.036642697 0.47797829
-0.13608058 -0.036720153 0.47898868
-0.13551921 -0.03680234 0.48006073
-0.13497923 -0.036891431 0.48122287
-0.13447656 -0.036991931 0.48253384
-0.13402784 -0.037108686 0.4840568
-0.13364388 -0.037245017 0.48583513
-0.13331571 -0.037398797 0.4878411
-0.1330055 -0.037559692 0.48993984
-0.13273688 -0.037734561 0.49222091
-0.13261499 -0.037953783 0.4950805
-0.20710793 -0.035737962 0.47740981
-0.20475641 -0.035479713 0.47395998
-0.20280631 -0.035289146 0.4714143
-0.20109519 -0.035138741 0.46940506
-0.1995645 -0.035018716 0.46780172
-0.19814259 -0.034916848 0.46644089
-0.19678722 -0.034825884 0.46522573
-0.19547619 -0.03474202 0.46410543
-0.19422327 -0.034667809 0.46311408
-0.19303967 -0.034605384 0.46228015
-0.19191848 -0.034553651 0.4615891
-0.19085138 -0.03451125 0.46102268
-0.18982273 -0.034475464 0.46054462
-0.18882124 -0.034444313 0.46012849
-0.18784003 -0.034416605 0.45975834
-0.18687455 -0.034391548 0.4594236
-0.18592323 -0.034368884 0.45912084
-0.18498175 -0.03434784 0.45883974
-0.18404977 -0.034328382 0.45857981
-0.18312733 -0.034310538 0.45834142
-0.18221331 -0.034294117 0.45812204
-0.18130848 -0.034279279 0.45792386
-0.18041176 -0.034265846 0.45774442
-0.17952451 -0.0342541 0.45758751
-0.17864406 -0.03424355 0.45744655
-0.17777318 -0.03423474 0.45732889
-0.17690873 -0.034227099 0.45722678
-0.17605171 -0.034220822 0.45714295
-0.17520241 -0.034216002 0.45707855
-0.17435963 -0.03421241 0.45703059
-0.17352308 -0.034210015 0.45699856
-0.17269263 -0.034208801 0.45698237
-0.17186853 -0.034208845 0.45698294
-0.17105028 -0.034210056 0.45699912
-0.17023782 -0.034212444 0.45703101
-0.1694306 -0.034215912 0.45707735
-0.16862856 -0.034220465 0.45713818
-0.16783212 -0.034226205 0.45721486
-0.16704091 -0.034233078 0.45730665
-0.16625424 -0.034240946 0.4574118
-0.16547196 -0.034249809 0.45753014
-0.16469382 -0.034259617 0.45766118
-0.16392115 -0.03427067 0.45780882
-0.16315229 -0.034282632 0.45796865
-0.16238704 -0.034295484 0.45814031
-0.16162719 -0.034309607 0.45832899
-0.16087018 -0.034324486 0.45852774
-0.1601177 -0.03434049 0.45874155
-0.15936832 -0.034357328 0.45896646
-0.15862262 -0.034375139 0.45920438
-0.15787986 -0.034393772 0.45945334
-0.15714079 -0.03441342 0.45971578
-0.15640393 -0.034433756 0.45998746
-0.15567012 -0.034454986 0.46027106
-0.15493993 -0.034477253 0.46056849
-0.15421233 -0.034500331 0.46087679
-0.1534877 -0.034524333 0.46119744
-0.15276811 -0.034549735 0.46153677
-0.15205324 -0.034576491 0.46189418
-0.1513439 -0.034604803 0.46227238
-0.15064168 -0.034635067 0.4626767
-0.14994694 -0.034667399 0.4631086
-0.14926179 -0.03470232 0.46357509
-0.14858621 -0.034739874 0.46407679
-0.1479197 -0.034779985 0.4646126
-0.14726339 -0.034822967 0.46518677
-0.146614 -0.034868088 0.4657895
-0.14596985 -0.034914978 0.46641591
-0.14533034 -0.03496353 0.4670645
-0.14469263 -0.035013087 0.4677265
-0.14405651 -0.035063609 0.46840143
-0.14342326 -0.035115428 0.46909365
-0.14279453 -0.035168979 0.46980903
-0.14216937 -0.035224054 0.47054473
-0.14154989 -0.0352812 0.47130814
-0.14093615 -0.035340484 0.47210011
-0.14032905 -0.03540216 0.47292399
-0.13972917 -0.035466429 0.47378251
-0.13913517 -0.035532981 0.4746716
-0.13854593 -0.035601586 0.47558805
-0.13796058 -0.03567205 0.47652936
-0.13737762 -0.035744023 0.47749078
-0.13679926 -0.035818104 0.47848043
-0.1362277 -0.035894915 0.47950652
-0.13566802 -0.035975866 0.48058793
-0.13513006 -0.036063652 0.48176059
-0.1346283 -0.036162294 0.48307833
-0.13418436 -0.036277853 0.48462206
-0.13381273 -0.036414612 0.48644894
-0.1335045 -0.036570538 0.48853189
-0.13321991 -0.036735062 0.49072969
-0.13298602 -0.036915854 0.49314484
-0.13294415 -0.037152745 0.49630937
-0.2054918 -0.034749135 0.4756622
-0.20337267 -0.034534983 0.47273079
-0.20154569 -0.034368843 0.4704566
-0.19994766 -0.03424051 0.4686999
-0.19848081 -0.034133643 0.46723709
-0.19708754 -0.034038574 0.46593571
-0.1957479 -0.03395199 0.46475053
-0.19447505 -0.0338763 0.46371445
-0.1932787 -0.033813335 0.46285257
-0.19215119 -0.033761922 0.46214879
-0.19108215 -0.033720378 0.46158013
-0.19004874 -0.03368479 0.46109295
-0.18904412 -0.033654008 0.4606716
-0.18805881 -0.033626411 0.46029383
-0.18708928 -0.0336014 0.45995149
-0.1861314 -0.033578269 0.45963487
-0.18518427 -0.033556882 0.45934209
-0.18424615 -0.033536941 0.45906913
-0.18331909 -0.03351884 0.45882139
-0.18240041 -0.033502113 0.45859241
-0.1814913 -0.033487003 0.45838559
-0.1805909 -0.033473372 0.45819896
-0.17969967 -0.033461317 0.45803398
-0.17881645 -0.033450656 0.45788801
-0.17794196 -0.033441529 0.45776311
-0.17707531 -0.033433799 0.45765731
-0.17621525 -0.033427246 0.4575676
-0.17536399 -0.033422314 0.45750007
-0.1745193 -0.033418588 0.45744908
-0.17368045 -0.033415955 0.45741302
-0.17284793 -0.033414517 0.45739335
-0.17202161 -0.033414271 0.45738998
-0.17120244 -0.033415414 0.45740563
-0.17038818 -0.033417534 0.45743465
-0.16957918 -0.033420712 0.45747817
-0.16877586 -0.033425048 0.4575375
-0.16797778 -0.033430468 0.45761168
-0.16718501 -0.033437002 0.45770112
-0.16639718 -0.033444595 0.45780507
-0.16561344 -0.033453092 0.45792136
-0.16483369 -0.03346248 0.45804986
-0.16406032 -0.033473264 0.4581975
-0.16329086 -0.033484958 0.4583576
-0.16252458 -0.033497434 0.45852834
-0.161764 -0.03351121 0.45871693
-0.16100647 -0.033525769 0.45891622
-0.16025367 -0.033541467 0.45913109
-0.15950371 -0.033557925 0.45935637
-0.1587584 -0.033575539 0.45959747
-0.15801549 -0.033593845 0.45984808
-0.15727668 -0.033613224 0.46011332
-0.15654038 -0.033633344 0.46038875
-0.15580711 -0.033654336 0.46067607
-0.15507683 -0.033676203 0.46097541
-0.15434887 -0.033698808 0.46128485
-0.15362401 -0.033722341 0.46160701
-0.15290284 -0.03374695 0.46194384
-0.1521861 -0.033772804 0.46229777
-0.1514743 -0.033800051 0.46267071
-0.15076827 -0.033828888 0.46306548
-0.15006995 -0.033859793 0.46348849
-0.14937933 -0.033892788 0.46394014
-0.14869884 -0.033928465 0.46442851
-0.1480297 -0.033967156 0.46495813
-0.14737074 -0.034008633 0.4655259
-0.14671998 -0.034052487 0.46612617
-0.14607692 -0.034098644 0.46675801
-0.14543964 -0.034146696 0.46741578
-0.14480479 -0.034195885 0.46808907
-0.14417234 -0.034246214 0.46877801
-0.14354229 -0.034297716 0.46948296
-0.14291501 -0.034350492 0.47020543
-0.14229247 -0.034405045 0.47095215
-0.14167508 -0.034461509 0.47172505
-0.14106269 -0.034519874 0.47252396
-0.14045788 -0.034580816 0.47335818
-0.13986051 -0.034644347 0.47422785
-0.13926917 -0.034710161 0.47512874
-0.1386849 -0.034778565 0.47606507
-0.13810363 -0.034848578 0.47702345
-0.1375252 -0.03492019 0.47800371
-0.13695155 -0.034993932 0.47901309
-0.13638389 -0.035070144 0.48005632
-0.13582934 -0.035150725 0.48115936
-0.13529408 -0.035237364 0.48234531
-0.13479295 -0.035334077 0.48366916
-0.1343569 -0.035449214 0.48524523
-0.13400011 -0.035586916 0.48713014
-0.13371557 -0.035745744 0.48930427
-0.13345993 -0.035914462 0.49161378
-0.13326864 -0.036102876 0.49419287
-0.13335675 -0.036370024 0.49784967
-0.20647267 -0.034052901 0.47793266
-0.20405985 -0.033796076 0.47432813
-0.20207138 -0.033607662 0.47168371
-0.20037912 -0.033467125 0.46971127
-0.19885862 -0.033354204 0.46812645
-0.19742481 -0.033254925 0.46673307
-0.19604971 -0.033164725 0.4654671
-0.1947508 -0.033086695 0.46437195
-0.19353868 -0.033022799 0.46347517
-0.19240433 -0.032971676 0.46275765
-0.1913268 -0.032929886 0.46217111
-0.19029084 -0.032894917 0.46168032
-0.18928045 -0.032864079 0.4612475
-0.1882892 -0.032836307 0.46085772
-0.1873132 -0.03281096 0.460502
-0.18634987 -0.032787614 0.46017435
-0.18539661 -0.032765843 0.45986879
-0.18445329 -0.032745641 0.45958525
-0.18352023 -0.032727085 0.45932481
-0.18259636 -0.032710005 0.45908508
-0.18168251 -0.032694574 0.45886853
-0.18077889 -0.03268085 0.45867592
-0.17988275 -0.03266836 0.45850062
-0.17899729 -0.032657705 0.45835108
-0.17811869 -0.032648206 0.45821774
-0.17725022 -0.032640483 0.45810938
-0.176388 -0.032633845 0.45801619
-0.17553362 -0.032628603 0.45794261
-0.17468685 -0.032624733 0.45788828
-0.17384654 -0.032622036 0.45785046
-0.17301214 -0.032620426 0.45782787
-0.17218421 -0.032620031 0.45782232
-0.17136233 -0.03262078 0.45783284
-0.17054667 -0.032622725 0.45786014
-0.16973628 -0.032625709 0.45790201
-0.16893065 -0.032629635 0.45795712
-0.16813157 -0.032634877 0.45803067
-0.16733709 -0.032641061 0.45811749
-0.16654748 -0.032648265 0.45821857
-0.16576236 -0.032656424 0.4583331
-0.16498135 -0.03266548 0.45846018
-0.16420688 -0.032675929 0.45860684
-0.16343541 -0.032687083 0.45876339
-0.16266893 -0.032699354 0.45893559
-0.1619069 -0.032712646 0.45912218
-0.16114834 -0.032726783 0.45932057
-0.16039559 -0.032742251 0.45953768
-0.15964508 -0.03275834 0.4597635
-0.1588992 -0.032775555 0.46000507
-0.15815638 -0.032793578 0.46025807
-0.1574173 -0.032812577 0.46052471
-0.15668158 -0.032832481 0.46080405
-0.1559485 -0.032853153 0.46109417
-0.15521887 -0.032874774 0.46139762
-0.15449169 -0.032897152 0.4617117
-0.15376684 -0.032920271 0.46203619
-0.15304491 -0.032944273 0.46237305
-0.15232658 -0.032969315 0.46272451
-0.15161292 -0.032995652 0.46309415
-0.15090437 -0.033023395 0.46348354
-0.15020274 -0.03305297 0.46389863
-0.14950807 -0.033084422 0.46434003
-0.14882337 -0.033118438 0.46481746
-0.14815015 -0.033155415 0.46533641
-0.14748733 -0.033195153 0.46589416
-0.14683439 -0.03323758 0.46648964
-0.14619093 -0.03328266 0.46712232
-0.14555517 -0.033330023 0.46778706
-0.1449239 -0.033378974 0.46847406
-0.14429455 -0.033428941 0.46917537
-0.14366804 -0.033480164 0.46989429
-0.14304359 -0.033532474 0.47062844
-0.14242244 -0.033586185 0.47138229
-0.14180787 -0.033642109 0.47216716
-0.14119795 -0.033699814 0.47297707
-0.14059584 -0.033760093 0.4738231
-0.14000086 -0.033822838 0.47470373
-0.13941267 -0.033888005 0.4756183
-0.13883218 -0.033955857 0.47657064
-0.13825577 -0.034025565 0.47754899
-0.13768367 -0.03409721 0.47855452
-0.13711371 -0.034170292 0.47958025
-0.13655104 -0.034246132 0.48064464
-0.13600053 -0.034326009 0.48176575
-0.1354695 -0.034411866 0.48297071
-0.13497515 -0.03450821 0.48432291
-0.13454717 -0.034622889 0.48593241
-0.13420929 -0.034762409 0.48789057
-0.13395175 -0.034924712 0.49016854
-0.13373251 -0.035099231 0.49261791
-0.13359894 -0.035298716 0.49541765
-0.20492658 -0.033080392 0.4763428
-0.20270148 -0.032858975 0.47315452
-0.20087403 -0.032700423 0.47087142
-0.19928077 -0.032578811 0.46912023
-0.19779941 -0.032474529 0.46761864
-0.19638278 -0.03238003 0.46625787
-0.19505218 -0.032298964 0.46509057
-0.19382089 -0.032233711 0.464151
-0.19267534 -0.032182217 0.46340945
-0.19159062 -0.032140475 0.4628084
-0.19054633 -0.032105181 0.46230018
-0.18952885 -0.032074112 0.46185282
-0.18853195 -0.03204627 0.46145189
-0.18755038 -0.032020796 0.46108508
-0.18657938 -0.03199691 0.46074113
-0.18561956 -0.031974737 0.46042183
-0.18466921 -0.031953998 0.46012324
-0.18372996 -0.031935006 0.45984975
-0.18280253 -0.031917904 0.45960346
-0.18188429 -0.031902254 0.45937815
-0.18097499 -0.031888042 0.4591735
-0.18007661 -0.031875633 0.45899478
-0.17918706 -0.031864673 0.458837
-0.17830612 -0.031855155 0.45869991
-0.17743376 -0.031847086 0.45858371
-0.1765697 -0.03184044 0.45848802
-0.17571224 -0.031834926 0.45840862
-0.1748642 -0.031831071 0.45835313
-0.17402181 -0.031828217 0.45831203
-0.17318577 -0.0318265 0.45828733
-0.17235614 -0.031825956 0.45827946
-0.17153203 -0.031826425 0.45828626
-0.17071435 -0.031828098 0.45831034
-0.16990231 -0.031830847 0.45834988
-0.16909528 -0.031834561 0.45840341
-0.16829401 -0.031839408 0.45847318
-0.16749787 -0.031845275 0.45855767
-0.16670616 -0.031852044 0.45865515
-0.16591926 -0.031859808 0.45876691
-0.16513695 -0.031868536 0.45889258
-0.16436054 -0.031878494 0.45903599
-0.16358757 -0.031889223 0.45919049
-0.16282018 -0.031901155 0.4593623
-0.16205716 -0.03191407 0.45954826
-0.16129775 -0.031927831 0.45974645
-0.16054329 -0.031942725 0.45996088
-0.15979268 -0.031958535 0.46018857
-0.15904622 -0.031975351 0.46043068
-0.15830331 -0.031993058 0.46068564
-0.15756382 -0.032011647 0.46095333
-0.15682821 -0.032031227 0.46123528
-0.15609586 -0.032051682 0.46152985
-0.15536584 -0.032072838 0.46183449
-0.1546395 -0.032094989 0.46215343
-0.15391502 -0.032117769 0.46248144
-0.15319316 -0.032141346 0.46282095
-0.15247452 -0.032165855 0.4631739
-0.15175922 -0.032191347 0.46354097
-0.1510492 -0.032218248 0.46392831
-0.15034427 -0.032246541 0.46433574
-0.14964743 -0.032276899 0.46477282
-0.14895837 -0.032309279 0.46523911
-0.14828049 -0.032344468 0.46574584
-0.14761415 -0.032382589 0.46629477
-0.14695832 -0.03242347 0.46688342
-0.14631428 -0.032467432 0.46751645
-0.14567836 -0.032513719 0.46818298
-0.14504908 -0.032562036 0.46887872
-0.14442398 -0.032611866 0.46959624
-0.14380096 -0.032662753 0.47032899
-0.14317915 -0.032714523 0.47107443
-0.1425622 -0.032768026 0.47184488
-0.14194912 -0.032823071 0.47263747
-0.14134152 -0.032880053 0.47345799
-0.14074208 -0.032939635 0.47431594
-0.14015037 -0.033001769 0.47521067
-0.13956568 -0.033066332 0.47614032
-0.1389886 -0.033133507 0.47710761
-0.13841766 -0.033202991 0.47810814
-0.13785054 -0.033274267 0.4791345
-0.13728701 -0.033347316 0.48018637
-0.13672829 -0.03342247 0.48126855
-0.1361836 -0.033502035 0.48241428
-0.13565901 -0.033587601 0.48364636
-0.13517185 -0.033683598 0.48502871
-0.13475549 -0.033798609 0.4866848
-0.13444033 -0.033940673 0.48873046
-0.13422108 -0.034108985 0.49115407
-0.13404205 -0.034289829 0.49375814
-0.13400148 -0.034508739 0.49691036
-0.20611444 -0.032407932 0.47910392
-0.20349273 -0.032130431 0.47500148
-0.2014554 -0.031943247 0.47223422
-0.19976164 -0.031809181 0.47025225
-0.19821994 -0.031698283 0.46861282
-0.1967573 -0.031599138 0.46714708
-0.19538446 -0.031513624 0.46588287
-0.19412673 -0.031446014 0.46488339
-0.19296433 -0.031393331 0.4641045
-0.19186981 -0.031351276 0.46348283
-0.19081707 -0.031315714 0.46295705
-0.18979327 -0.031284604 0.46249717
-0.18878852 -0.031256378 0.46207988
-0.18779875 -0.03123039 0.4616957
-0.18682083 -0.031206153 0.46133739
-0.18585365 -0.031183498 0.46100247
-0.18489757 -0.031162513 0.46069223
-0.18395269 -0.031143233 0.4604072
-0.1830184 -0.031125579 0.46014622
-0.18209425 -0.031109497 0.45990846
-0.18118286 -0.031095458 0.45970091
-0.18027978 -0.03108272 0.45951259
-0.17938632 -0.031071533 0.45934722
-0.17850327 -0.031062054 0.45920709
-0.1776274 -0.031053741 0.45908418
-0.17676148 -0.031047098 0.45898598
-0.17590217 -0.031041561 0.45890412
-0.17505071 -0.031037359 0.45884201
-0.17420653 -0.031034417 0.45879853
-0.17336865 -0.031032575 0.45877129
-0.17253642 -0.031031732 0.4587588
-0.17171016 -0.031031959 0.45876217
-0.17089057 -0.031033397 0.45878342
-0.17007646 -0.031035852 0.45881972
-0.16926746 -0.031039266 0.4588702
-0.16846451 -0.031043829 0.45893767
-0.16766669 -0.031049386 0.45901981
-0.16687356 -0.031055873 0.45911571
-0.16608465 -0.031063214 0.45922422
-0.16530111 -0.031071637 0.45934877
-0.16452293 -0.031081157 0.45948949
-0.16374786 -0.031091366 0.45964041
-0.16297901 -0.031102864 0.45981041
-0.16221435 -0.031115286 0.45999405
-0.16145411 -0.031128684 0.46019211
-0.16069821 -0.031143064 0.46040469
-0.15994699 -0.031158505 0.46063298
-0.15919916 -0.03117477 0.46087343
-0.15845656 -0.031192236 0.46113163
-0.15771657 -0.031210404 0.46140021
-0.1569808 -0.0312296 0.46168402
-0.15624864 -0.031249728 0.46198156
-0.15551914 -0.031270605 0.46229023
-0.15479286 -0.031292357 0.46261176
-0.15406974 -0.031314988 0.46294633
-0.15334834 -0.031338219 0.46328977
-0.15262951 -0.031362228 0.46364474
-0.15191388 -0.031387165 0.4640134
-0.1512028 -0.031413324 0.46440008
-0.15049614 -0.031440698 0.46480477
-0.14979625 -0.0314698 0.46523499
-0.14910367 -0.031500775 0.46569297
-0.14842083 -0.031534169 0.46618661
