# .PCD v0.7 - Point Cloud Data file format
VERSION 0.7
FIELDS x y z
SIZE 4 4 4
TYPE F F F
COUNT 1 1 1
WIDTH 1392
HEIGHT 1
VIEWPOINT 0 0 0 1 0 0 0
POINTS 1392
DATA ascii
0.085076965 0.016344836 0.46468177
0.085878976 0.016337952 0.46448603
0.086683854 0.01633174 0.46430945
0.087491803 0.016326223 0.46415257
0.088303275 0.016321458 0.46401715
0.089117959 0.016317373 0.46390101
0.089935787 0.016313935 0.46380323
0.090757497 0.016311256 0.46372709
0.091582127 0.016309146 0.46366709
0.092410505 0.016307736 0.46362701
0.093242615 0.016307006 0.46360624
0.094078407 0.016306924 0.46360391
0.094918169 0.016307527 0.46362108
0.09576191 0.016308796 0.46365717
0.096610308 0.016310832 0.46371502
0.097462922 0.016313536 0.46379194
0.098320492 0.016317017 0.46389091
0.099182725 0.016321208 0.46401003
0.10005127 0.016326359 0.46415645
0.10092577 0.016332386 0.46432784
0.10180625 0.016339274 0.46452364
0.10269318 0.016347077 0.46474549
0.10358634 0.016355738 0.46499172
0.10448582 0.016365249 0.46526209
0.10539202 0.016375653 0.4655579
0.10630386 0.01638676 0.46587369
0.10722214 0.016398681 0.46621257
0.10814945 0.016411785 0.4665851
0.10909116 0.016426854 0.46701354
0.11005539 0.016445059 0.46753109
0.11105428 0.016468124 0.46818686
0.11209229 0.016496601 0.46899644
0.11315671 0.016528508 0.46990356
0.11423461 0.016561896 0.47085273
0.11533433 0.01659793 0.47187719
0.11647015 0.016638594 0.47303325
0.11764548 0.016684268 0.4743318
0.11884856 0.016733192 0.47572267
0.12009598 0.016787611 0.4772698
0.12164454 0.016883051 0.47998315
0.063169762 0.018368512 0.49674076
0.063215747 0.018124795 0.49014992
0.063613445 0.017987251 0.48643029
0.064201549 0.017906554 0.48424798
0.06483946 0.01784173 0.48249495
0.065479167 0.017779112 0.48080155
0.066130772 0.017721318 0.47923866
0.066819631 0.017674871 0.47798258
0.067537189 0.0176371 0.47696114
0.068266757 0.017603377 0.47604915
0.069000542 0.017571567 0.47518894
0.069734 0.017540453 0.47434753
0.070467196 0.01751003 0.47352481
0.071202524 0.01748086 0.47273591
0.071940467 0.017453013 0.47198287
0.072682336 0.017426759 0.47127286
0.073426597 0.017401678 0.47059461
0.074172065 0.017377455 0.46993953
0.074917167 0.017353695 0.46929699
0.075663261 0.017330691 0.4686749
0.076414198 0.017309293 0.46809626
0.077173971 0.017290343 0.46758378
0.077943519 0.01727397 0.46714097
0.078721501 0.017259795 0.46675766
0.079505205 0.017247161 0.46641597
0.080292411 0.017235544 0.46610183
0.081082523 0.017224785 0.46581087
0.081873886 0.017214509 0.46553299
0.082666583 0.017204721 0.46526828
0.083461061 0.017195495 0.46501881
0.084257737 0.017186902 0.46478641
0.085056789 0.017178958 0.46457157
0.085858636 0.017171727 0.46437603
0.086663507 0.017165234 0.46420047
0.087471649 0.01715951 0.46404564
0.0882833 0.017154574 0.46391219
0.089098014 0.017150322 0.46379718
0.0899157 0.017146716 0.46369964
0.090737082 0.017143873 0.46362278
0.091561295 0.017141612 0.46356165
0.092389427 0.01714012 0.46352127
0.093221068 0.017139301 0.4634991
0.094056472 0.01713918 0.46349585
0.094896033 0.017139813 0.46351296
0.095739692 0.017141167 0.46354961
0.096587673 0.017143266 0.46360636
0.097440332 0.017146153 0.46368444
0.098297395 0.017149758 0.46378192
0.099159077 0.017154103 0.4638994
0.10002652 0.017159361 0.46404162
0.10090011 0.017165581 0.46420979
0.10177993 0.017172744 0.46440357
0.1026662 0.017180873 0.46462339
0.10355908 0.017189968 0.46486935
0.10445889 0.017200058 0.46514219
0.10536508 0.017211029 0.46543887
0.10627738 0.017222816 0.46575764
0.10719583 0.017235408 0.46609816
0.10812181 0.017249005 0.46646586
0.10905992 0.017264312 0.46687981
0.11001742 0.01728243 0.46736977
0.11100598 0.017305115 0.46798325
0.11203656 0.017333956 0.46876323
0.11310001 0.017367419 0.46966812
0.1141789 0.017402731 0.47062311
0.11527729 0.017440476 0.47164381
0.11640898 0.017482668 0.47278482
0.11758187 0.017530387 0.47407532
0.1187866 0.017582132 0.47547463
0.12002627 0.01763827 0.47699276
0.12146153 0.017722145 0.47926101
0.063053817 0.019229179 0.49582905
0.063143767 0.018987287 0.48959181
0.063575827 0.018853523 0.48614264
0.064173892 0.018771956 0.48403943
0.064812362 0.018704239 0.48229334
0.065449625 0.018637972 0.48058462
0.066105425 0.01857865 0.47905499
0.066799559 0.018531492 0.47783899
0.067519613 0.018492632 0.47683701
0.068250008 0.018457549 0.47593239
0.068982907 0.018424006 0.47506747
0.069715358 0.01839117 0.47422075
0.070448406 0.018359281 0.47339854
0.071182549 0.018328441 0.47260329
0.071921155 0.018299466 0.47185615
0.072662719 0.018271912 0.47114566
0.073406555 0.018245561 0.4704662
0.074151069 0.018219978 0.46980652
0.074895136 0.018194864 0.46915895
0.07564117 0.018170783 0.46853808
0.076393686 0.018148776 0.46797058
0.077155352 0.018129399 0.46747097
0.077927604 0.018112902 0.46704558
0.078707136 0.018098433 0.46667248
0.079491265 0.018085314 0.46633419
0.080278844 0.018073248 0.46602306
0.081068262 0.018061841 0.46572894
0.081859045 0.018050969 0.46544859
0.082651332 0.018040648 0.46518245
0.0834454 0.018030915 0.46493155
0.08424174 0.018021865 0.46469817
0.085040644 0.018013535 0.46448338
0.085842393 0.018005965 0.46428818
0.086647287 0.017999195 0.46411359
0.087455653 0.017993268 0.46396077
0.088267237 0.01798811 0.46382776
0.089081705 0.01798363 0.46371228
0.08989916 0.017979832 0.46361434
0.090720013 0.017976778 0.46353555
0.091543771 0.017974349 0.46347293
0.092371322 0.0179727 0.46343043
0.093202397 0.017971763 0.46340626
0.094037436 0.017971599 0.46340203
0.094876915 0.017972279 0.46341959
0.095720723 0.01797376 0.46345776
0.096568622 0.017975977 0.46351492
0.097421356 0.017979048 0.46359414
0.098278448 0.017982865 0.46369255
0.099140115 0.017987447 0.46381068
0.10000679 0.017992852 0.46395007
0.10087927 0.017999208 0.46411392
0.10175829 0.018006612 0.46430483
0.10264408 0.018015083 0.46452329
0.1035369 0.018024644 0.46476981
0.10443661 0.018035239 0.46504301
0.10534272 0.018046761 0.46534011
0.10625549 0.018059235 0.46566173
0.10717412 0.018072499 0.46600378
0.1080999 0.018086754 0.46637133
0.10903583 0.018102475 0.4667767
0.10998853 0.018120715 0.46724704
0.11096836 0.018143116 0.46782464
0.1119905 0.018172044 0.46857056
0.11305158 0.018206809 0.46946698
0.11413343 0.018244376 0.47043568
0.11523121 0.018283918 0.47145528
0.11635874 0.018327568 0.47258076
0.11752968 0.018377369 0.47386491
0.11873575 0.018431904 0.47527111
0.11997221 0.018490342 0.47677794
0.12135232 0.018569928 0.4788301
0.062987238 0.020102309 0.49530545
0.063093372 0.019854559 0.48920107
0.063549682 0.019722316 0.48594272
0.064153671 0.019638879 0.4838869
0.064791635 0.019567942 0.48213908
0.0654267 0.019498022 0.4804163
0.06608694 0.019437335 0.478921
0.066785365 0.0193893 0.47773743
0.067506231 0.019348919 0.47674251
0.068237036 0.019312369 0.47584191
0.068969652 0.019277232 0.47497618
0.069701202 0.019242663 0.47412443
0.07043311 0.019209031 0.47329575
0.071167909 0.019176982 0.47250611
0.071906045 0.01914658 0.47175702
0.072647743 0.019117828 0.47104859
0.073390909 0.019090122 0.47036591
0.074134283 0.0190631 0.46970016
0.074877471 0.019036645 0.46904829
0.075623892 0.019011594 0.46843106
0.076377854 0.018988969 0.4678736
0.077142097 0.018969368 0.46739066
0.077915728 0.018952474 0.46697441
0.078696124 0.018937569 0.46660715
0.079480916 0.018924028 0.46627349
0.080268338 0.018911388 0.46596208
0.081057385 0.01889939 0.46566644
0.081847481 0.018887879 0.46538284
0.082639217 0.018876979 0.46511427
0.08343295 0.018866748 0.46486217
0.084229179 0.018857278 0.46462885
0.085028037 0.018848579 0.46441451
0.085829817 0.018840691 0.46422017
0.086634964 0.018833688 0.46404761
0.087443359 0.018827517 0.46389556
0.08825472 0.018822096 0.46376199
0.089068823 0.018817358 0.46364522
0.089885898 0.018813327 0.46354592
0.090705924 0.018809985 0.46346357
0.091529176 0.018807365 0.46339902
0.092355795 0.01880548 0.46335256
0.093186229 0.018804397 0.46332589
0.09402103 0.018804206 0.46332118
0.094860293 0.018804904 0.46333838
0.095704444 0.018806551 0.46337894
0.096552938 0.018809013 0.46343964
0.097405881 0.018812295 0.4635205
0.098263338 0.018816385 0.46362126
0.099125206 0.018821241 0.46374094
0.09999191 0.018826928 0.46388105
0.10086394 0.018833516 0.46404335
0.10174213 0.018841136 0.4642311
0.10262743 0.018849935 0.46444795
0.10351974 0.018859871 0.46469274
0.10441893 0.018870892 0.46496427
0.1053253 0.018883022 0.46526316
0.10623836 0.018896151 0.46558663
0.10715766 0.018910173 0.46593216
0.10808306 0.01892505 0.4662987
0.109018 0.018941352 0.46670035
0.1099672 0.018959863 0.46715644
0.11094123 0.01898234 0.46771026
0.11195558 0.019011324 0.46842441
0.11301378 0.019047266 0.46931002
0.1140966 0.019086791 0.47028387
0.11519439 0.01912822 0.47130463
0.11632013 0.019173648 0.47242394
0.11748967 0.019225582 0.47370356
0.11869756 0.019282999 0.47511825
0.11993271 0.019343985 0.47662094
0.12128086 0.019422201 0.47854814
0.062955543 0.020985181 0.49505621
0.063063167 0.020727055 0.48896685
0.063533209 0.020593524 0.48581675
0.06414067 0.020507561 0.48378882
0.064777739 0.020433247 0.4820357
0.065411858 0.020359984 0.48030734
0.066073686 0.020297145 0.47882494
0.066775955 0.020248193 0.47767013
0.067498073 0.020206431 0.47668493
0.068228364 0.020168133 0.47578147
0.068960026 0.020131188 0.4749099
0.069691204 0.020095009 0.47405642
0.070422754 0.020059815 0.47322613
0.071157098 0.02002625 0.47243431
0.071895316 0.019994555 0.47168663
0.07263653 0.019964427 0.47097588
0.073379122 0.019935368 0.47029036
0.074121892 0.019907022 0.46962166
0.074864335 0.019879231 0.46896604
0.075611204 0.019853221 0.46835247
0.076366358 0.019829938 0.46780318
0.077132419 0.019809967 0.46733204
0.077907681 0.019792762 0.46692619
0.078688927 0.01977743 0.46656451
0.079473779 0.019763321 0.46623164
0.080261193 0.019750137 0.46592063
0.081049442 0.019737428 0.46562082
0.081839219 0.019725351 0.46533588
0.082630701 0.019713923 0.46506631
0.083424181 0.019703198 0.46481329
0.084220067 0.01969325 0.4645786
0.085018665 0.019684125 0.46436334
0.085820563 0.019675933 0.4641701
0.086625971 0.019668698 0.46399942
0.087434359 0.019662272 0.46384782
0.088245481 0.019656576 0.46371344
0.089059338 0.01965159 0.46359584
0.089875698 0.019647246 0.46349335
0.090694994 0.019643616 0.4634077
0.091517106 0.019640658 0.46333793
0.092342615 0.019638475 0.46328643
0.093172431 0.01963724 0.46325728
0.094006874 0.019636992 0.46325144
0.094846316 0.019637782 0.4632701
0.095690645 0.019639565 0.46331212
0.096540026 0.019642344 0.46337768
0.097393893 0.019645978 0.46346343
0.098251864 0.019650374 0.46356711
0.099114329 0.019655583 0.46369004
0.099981233 0.019661583 0.46383154
0.1008532 0.019668465 0.46399394
0.1017308 0.019676328 0.4641794
0.10261521 0.019685367 0.46439263
0.10350689 0.019695643 0.46463507
0.10440633 0.01970722 0.46490818
0.10531274 0.019719915 0.46520767
0.10622597 0.019733679 0.46553233
0.10714594 0.019748468 0.46588123
0.10807167 0.019764079 0.46624953
0.10900573 0.019780964 0.46664783
0.10995316 0.019799994 0.46709678
0.11092284 0.019822713 0.46763274
0.11193115 0.01985194 0.46832222
0.11298488 0.019888725 0.46919
0.11406956 0.01993037 0.47017244
0.1151688 0.019973926 0.47119996
0.11629334 0.020021198 0.47231516
0.1174612 0.020075185 0.47358876
0.11866935 0.020135231 0.4750053
0.11990666 0.020199331 0.47651744
0.12124104 0.020278752 0.47839102
0.123663 0.020537673 0.48449916
0.062947437 0.02187535 0.49499249
0.06304805 0.021603877 0.48884964
0.06352634 0.02146752 0.48576418
0.064134203 0.021378066 0.48374003
0.06477017 0.021300256 0.48197934
0.065403886 0.021223778 0.48024878
0.066067934 0.021159012 0.47878328
0.066771053 0.02110827 0.47763509
0.067494087 0.021065034 0.47665676
0.068224043 0.021025019 0.47575131
0.068955168 0.020986356 0.47487643
0.0696854 0.020948371 0.47401693
0.070416801 0.020911656 0.47318617
0.07115081 0.020876585 0.47239256
0.071888573 0.020843433 0.4716424
0.072629735 0.020812029 0.4709318
0.073371895 0.020781634 0.47024405
0.074113734 0.020751845 0.46956998
0.074855804 0.020722793 0.4689126
0.075603135 0.020695832 0.46830249
0.076359861 0.020672007 0.46776339
0.077127434 0.020651609 0.46730182
0.077903353 0.020633861 0.46690023
0.078684837 0.020617953 0.46654025
0.079469949 0.02060332 0.46620914
0.080256887 0.020589463 0.46589562
0.081044979 0.020576186 0.46559519
0.081834428 0.020563522 0.46530864
0.082625329 0.020551477 0.46503606
0.083418705 0.020540284 0.4647828
0.08421468 0.020529946 0.46454889
0.085013621 0.020520529 0.46433577
0.085815713 0.020512048 0.46414387
0.086621098 0.02050451 0.46397331
0.087429367 0.020497795 0.46382135
0.088240117 0.020491781 0.46368527
0.089053236 0.020486426 0.4635641
0.089868829 0.020481734 0.46345791
0.090686776 0.020477658 0.4633657
0.091507792 0.020474346 0.46329075
0.092332207 0.020471847 0.46323419
0.093160689 0.020470286 0.46319887
0.093994528 0.020469919 0.46319059
0.094834439 0.020470871 0.4632121
0.095679902 0.020472992 0.46326011
0.096530318 0.020476127 0.46333107
0.097385034 0.020480115 0.46342129
0.098244175 0.020484956 0.46353084
0.099107176 0.020490512 0.46365657
0.099974565 0.020496877 0.46380058
0.10084643 0.020504046 0.46396279
0.10172398 0.020512242 0.46414825
0.10260822 0.020521645 0.46436101
0.10349981 0.020532351 0.46460328
0.10439866 0.020544315 0.464874
0.10530522 0.020557594 0.46517447
0.10621875 0.02057201 0.46550068
0.10713908 0.020587509 0.4658514
0.10806528 0.020603886 0.46622196
0.10899902 0.020621438 0.4666191
0.10994516 0.020641044 0.46706277
0.11091206 0.020664224 0.46758729
0.11191536 0.020693783 0.46825615
0.1129659 0.02073157 0.4691112
0.1140518 0.020775236 0.47009924
0.11515216 0.020820871 0.47113186
0.11627767 0.02087035 0.4722515
0.11744361 0.020926317 0.47351789
0.11865501 0.020989515 0.47494793
0.11989365 0.021056591 0.4764657
0.12121978 0.02113797 0.47830713
0.12359053 0.021399066 0.4842152
0.062967718 0.022775559 0.495152
0.063051604 0.022486934 0.48887718
0.06352827 0.022344425 0.48577896
0.064135812 0.0222512 0.48375219
0.064769097 0.022169286 0.48197135
0.065401971 0.022089409 0.48023474
0.066067547 0.022022516 0.47878048
0.06677103 0.021969821 0.47763488
0.067493856 0.021924756 0.47665513
0.068223663 0.021883061 0.47574866
0.068954565 0.021842752 0.47487229
0.069684125 0.021803008 0.47400826
0.070415124 0.021764675 0.47317487
0.071148463 0.021727974 0.47237697
0.071886778 0.021693643 0.4716306
0.072627448 0.021660818 0.47091699
0.073368818 0.021628957 0.47022432
0.074109949 0.021597756 0.46954599
0.074851893 0.021567496 0.4688881
0.075599745 0.021539593 0.46828148
0.076357245 0.021515025 0.46774736
0.077125832 0.021494083 0.4672921
0.077902459 0.021475814 0.46689489
0.078684121 0.021459306 0.46653599
0.079469226 0.021444079 0.46620494
0.080255866 0.021429578 0.46588969
0.081043713 0.021415696 0.46558791
0.081832722 0.021402404 0.46529892
0.082623787 0.021389915 0.46502739
0.083416998 0.021378225 0.46477327
0.084212914 0.021367455 0.46453914
0.085011728 0.021357628 0.46432546
0.085813954 0.021348838 0.46413437
0.08661928 0.021340983 0.4639636
0.08742737 0.021333952 0.46381074
0.088237867 0.021327635 0.46367344
0.089050502 0.02132195 0.46354985
0.0898652 0.021316862 0.4634392
0.090681948 0.021312347 0.46334106
0.091501079 0.021308471 0.46325678
0.092323735 0.021305477 0.46319169
0.093151502 0.021303708 0.46315321
0.093984544 0.021303162 0.46314138
0.094824784 0.021304248 0.46316496
0.095671214 0.02130669 0.46321806
0.096523434 0.021310369 0.46329802
0.097379975 0.02131493 0.4633972
0.098240301 0.021320235 0.46351254
0.099104196 0.02132622 0.46364266
0.099972226 0.021332985 0.46378973
0.10084465 0.021340569 0.46395463
0.10172214 0.021349093 0.46413991
0.10260548 0.021358691 0.46434858
0.10349718 0.021369865 0.4645915
0.10439631 0.021382377 0.46486351
0.10530261 0.021396147 0.4651629
0.10621675 0.021411283 0.46549195
0.10713715 0.02142743 0.46584302
0.10806432 0.021444671 0.46621782
0.10899826 0.021462979 0.46661586
0.10994386 0.021483283 0.46705729
0.11090824 0.021506922 0.4675712
0.11190906 0.021537215 0.4682298
0.11295762 0.021576174 0.46907678
0.11404417 0.021621758 0.4700678
0.11514639 0.021669617 0.47110826
0.11627136 0.021721024 0.47222587
0.11743981 0.021779746 0.47350255
0.11865223 0.021845717 0.47493678
0.11989383 0.021916077 0.47646642
0.12122026 0.022000829 0.47830901
0.1236059 0.022275267 0.48427543
0.063023135 0.023689546 0.49558774
0.063072622 0.023376565 0.48904014
0.06353832 0.023224352 0.48585582
0.06414403 0.023126759 0.48381415
0.064776585 0.023041336 0.48202711
0.065407194 0.022957493 0.4802731
0.066072255 0.022887776 0.4788146
0.066775896 0.022833047 0.47766969
0.067498609 0.022786155 0.47668871
0.068227805 0.022742603 0.47577757
0.06895797 0.022700449 0.47489572
0.069687083 0.022658989 0.47402838
0.070417732 0.02261903 0.47319242
0.071151361 0.02258097 0.47239622
0.071888894 0.02254504 0.47164452
0.072629116 0.02251078 0.4709278
0.073370218 0.022477582 0.47023332
0.074110821 0.022444991 0.46955153
0.074852511 0.022413464 0.46889198
0.075600453 0.022384491 0.46828586
0.076358512 0.022359122 0.46775511
0.077127717 0.022337535 0.46730351
0.077904887 0.022318698 0.46690944
0.078686811 0.022301611 0.46655196
0.079471596 0.022285685 0.46621883
0.08025831 0.022270631 0.46590388
0.081045717 0.022256078 0.46559942
0.081834719 0.022242256 0.46531028
0.082625672 0.022229243 0.46503803
0.083418757 0.022217058 0.4647831
0.084214546 0.022205826 0.46454814
0.085013255 0.022195579 0.4643338
0.085815936 0.022186559 0.46414509
0.086621404 0.022178426 0.46397495
0.087429322 0.022171073 0.46382111
0.088239379 0.022164393 0.46368137
0.089051381 0.022158325 0.46355441
0.089865096 0.022152791 0.46343866
0.090680838 0.022147855 0.46333539
0.091498338 0.022143433 0.46324289
0.09231934 0.022139933 0.46316966
0.093145378 0.02213769 0.46312276
0.093977943 0.022137027 0.46310887
0.094818987 0.022138355 0.46313664
0.095666967 0.022141263 0.4631975
0.096520826 0.022145471 0.46328551
0.097379096 0.02215061 0.46339303
0.098240696 0.022156412 0.46351442
0.099105716 0.022162881 0.46364975
0.099974088 0.022169987 0.46379837
0.10084683 0.022177935 0.46396467
0.10172472 0.022186873 0.46415165
0.10260843 0.022196928 0.464362
0.10349922 0.022208335 0.46460062
0.10439875 0.02222142 0.46487439
0.10530543 0.022235809 0.46517539
0.10621954 0.022251522 0.46550414
0.10714079 0.022268478 0.46585885
0.10806817 0.022286432 0.46623445
0.10900253 0.022305537 0.46663412
0.10994802 0.022326609 0.46707496
0.11091223 0.022351135 0.46758804
0.11191119 0.022382239 0.46823871
0.1129588 0.022422533 0.4690817
0.11404634 0.022470096 0.47007671
0.11515115 0.022520337 0.47112775
0.11627855 0.022574224 0.47225508
0.11744788 0.02263541 0.47353509
0.11866283 0.022704441 0.47497922
0.11990792 0.022778207 0.47652242
0.12123768 0.022866894 0.47837776
0.12373551 0.023173081 0.48478323
0.063132122 0.024626005 0.49644479
0.063110933 0.024273435 0.48933718
0.063557506 0.024108019 0.4860025
0.064159781 0.024005361 0.48393297
0.064790398 0.023915919 0.48212987
0.065419391 0.023828255 0.48036262
0.066082306 0.023755077 0.47888741
0.066785336 0.023698023 0.47773725
0.067507528 0.023649134 0.47675169
0.068236493 0.023603819 0.47583815
0.068965964 0.023559799 0.47495076
0.069694951 0.023516702 0.4740819
0.070424914 0.023474971 0.47324064
0.071157999 0.02343527 0.4724403
0.071895249 0.023397863 0.47168621
0.072635226 0.023362208 0.47096741
0.073376067 0.023327651 0.47027078
0.074116215 0.023293667 0.46958569
0.07485763 0.023260845 0.46892402
0.075605594 0.023230769 0.46831769
0.076363765 0.023204461 0.46778733
0.077133298 0.023182139 0.46733734
0.077910565 0.023162602 0.46694347
0.078692675 0.023144905 0.46658671
0.079477474 0.023128366 0.46625331
0.080263861 0.02311263 0.46593609
0.081051216 0.023097496 0.46563101
0.081840202 0.023083134 0.46534148
0.082631037 0.023069577 0.46506819
0.083424032 0.023056893 0.46481246
0.084219687 0.023045188 0.46457651
0.085018866 0.023034668 0.46436441
0.085821494 0.023025278 0.46417513
0.08662691 0.023016812 0.46400446
0.087434709 0.023009133 0.46384966
0.088244475 0.023002114 0.46370816
0.089056127 0.022995712 0.46357912
0.089869358 0.022989837 0.46346065
0.090683974 0.022984417 0.4633514
0.091500945 0.02297969 0.46325609
0.092320181 0.022975611 0.46317387
0.093143605 0.022972638 0.46311393
0.093974337 0.022971503 0.46309108
0.094817556 0.022973416 0.46312964
0.095667973 0.022977024 0.46320236
0.096523896 0.02298188 0.46330026
0.097383142 0.022987437 0.46341228
0.098245725 0.02299368 0.46353814
0.099111557 0.023000572 0.46367708
0.099980675 0.023008106 0.46382895
0.10085359 0.02301638 0.46399575
0.10173178 0.023025712 0.4641839
0.10261577 0.023036193 0.46439517
0.10350683 0.023048079 0.46463478
0.10440622 0.023061616 0.46490768
0.10531338 0.023076637 0.4652105
0.10622787 0.023093015 0.46554065
0.10714958 0.023110693 0.46589705
0.10807759 0.023129445 0.46627507
0.10901228 0.023149326 0.46667588
0.10995803 0.023171233 0.46711749
0.11092243 0.023196705 0.46763098
0.11192209 0.023229113 0.46828431
0.11297059 0.023271095 0.46913067
0.11406007 0.023320831 0.4701333
0.11516626 0.023373228 0.47118956
0.11629473 0.02342934 0.47232077
0.11746774 0.023493547 0.47361514
0.11868636 0.023565883 0.4750734
0.11993409 0.023642922 0.47662643
0.12127458 0.023737017 0.47852334
0.063411228 0.025634326 0.49863955
0.063173361 0.025180988 0.48982123
0.063588478 0.024996851 0.48623937
0.064182512 0.024887098 0.48410445
0.064811856 0.024793798 0.48228958
0.065439358 0.024702275 0.48050928
0.066098601 0.024624968 0.47900549
0.066799358 0.024564926 0.47783753
0.067520581 0.024513843 0.47684386
0.068248771 0.024466541 0.47592375
0.068978526 0.024420969 0.47503731
0.069707006 0.02437607 0.47416392
0.070436418 0.024332579 0.47331795
0.071169272 0.024291309 0.47251514
0.071906507 0.024252489 0.47176003
0.07264588 0.024215294 0.47103649
0.073386483 0.024179362 0.47033754
0.074126169 0.024143951 0.46964875
0.074867308 0.024109812 0.46898466
0.075615078 0.024078544 0.46837643
0.0763731 0.024051197 0.46784449
0.077142306 0.024027932 0.46739194
0.077919595 0.024007658 0.46699756
0.078701772 0.02398931 0.46664068
0.079486564 0.023972139 0.46630663
0.08027292 0.023955792 0.46598867
0.081060126 0.023940038 0.46568221
0.081849135 0.023925131 0.46539226
0.08263988 0.023911031 0.46511796
0.083432943 0.023897877 0.46486211
0.08422856 0.02388571 0.46462545
0.085027859 0.023874817 0.46441355
0.085830517 0.02386507 0.46422395
0.08663597 0.02385628 0.46405298
0.087443687 0.023848278 0.46389732
0.088253357 0.023840955 0.46375483
0.089065105 0.023834324 0.46362585
0.089878246 0.023828186 0.46350646
0.090692647 0.023822492 0.46339571
0.091508932 0.023817394 0.46329653
0.09232793 0.023813086 0.46321273
0.093149468 0.023809504 0.46314308
0.093974829 0.023806958 0.46309352
0.094824113 0.023810461 0.46316168
0.095676534 0.023814684 0.46324381
0.096532665 0.023819748 0.46334234
0.097392917 0.023825735 0.46345881
0.098256119 0.023832334 0.46358716
0.099122219 0.023839522 0.46372697
0.099991702 0.023847394 0.46388009
0.10086491 0.023856016 0.46404782
0.1017435 0.023865759 0.46423736
0.10262781 0.023876673 0.46444964
0.10351917 0.023889039 0.46469018
0.1044191 0.023903169 0.46496505
0.1053266 0.023918791 0.46526891
0.1062414 0.02393581 0.46559995
0.10716368 0.023954235 0.46595839
0.10809216 0.023973746 0.46633792
0.10902727 0.02399442 0.46674004
0.10997373 0.02401725 0.46718416
0.11093948 0.024043918 0.4677029
0.11194086 0.024077844 0.46836284
0.11299218 0.024121925 0.46922031
0.11408377 0.024173886 0.47023103
0.11519218 0.024228614 0.4712956
0.11632452 0.024287539 0.47244179
0.11750027 0.024354601 0.4737463
0.11872272 0.024430307 0.47521895
0.11997484 0.024510989 0.47678837
0.12133776 0.024612999 0.47877267
0.063265793 0.02610267 0.49053791
0.063630663 0.025891097 0.48656192
0.064213611 0.02577281 0.484339
0.06484025 0.025674999 0.48250085
0.065465935 0.025579404 0.4807044
0.066120505 0.02549745 0.47916424
0.066818528 0.025434149 0.47797468
0.067538448 0.02538069 0.47697002
0.068266489 0.02533159 0.47604731
0.068995647 0.025284119 0.4751552
0.069723785 0.025237445 0.47427806
0.070452921 0.025192257 0.47342888
0.071184963 0.02514918 0.47261932
0.071921505 0.025108691 0.47185847
0.072660811 0.025070105 0.47113332
0.073401034 0.025032721 0.47043079
0.074140742 0.024996022 0.46974111
0.0748818 0.0249606 0.46907544
0.075628944 0.024927977 0.46846235
0.07638631 0.024899404 0.4679254
0.077155098 0.02487514 0.46746942
0.077932104 0.024854021 0.46707255
0.078713961 0.024834886 0.46671292
0.079498827 0.024817094 0.46637857
0.080285348 0.024800185 0.46606082
0.081072681 0.024783876 0.46575433
0.081861563 0.024768369 0.46546292
0.082652479 0.024753788 0.46518889
0.083445445 0.024740107 0.46493179
0.084241137 0.024727497 0.46469483
0.08504039 0.024716172 0.46448198
0.085843079 0.024706058 0.4642919
0.086648583 0.024696941 0.46412057
0.087456487 0.024688672 0.46396521
0.088266402 0.024681127 0.46382338
0.089078233 0.024674254 0.46369421
0.089891896 0.02466801 0.46357688
0.090706952 0.02466226 0.46346882
0.091523498 0.024657015 0.46337026
0.092343636 0.024652826 0.46329153
0.093167834 0.024649786 0.46323439
0.093999408 0.024648733 0.46321464
0.094842643 0.024650732 0.46325219
0.095693462 0.024654647 0.46332577
0.096549258 0.024659766 0.46342197
0.097409092 0.024665821 0.46353576
0.098271757 0.024672484 0.46366096
0.099138007 0.024679925 0.46380082
0.10000753 0.024688052 0.46395352
0.10088108 0.02469703 0.46412224
0.10175993 0.024707144 0.46431231
0.10264448 0.024718467 0.4645251
0.10353635 0.024731353 0.46476728
0.10443707 0.024746131 0.46504501
0.10534506 0.024762383 0.46535042
0.10626052 0.024780119 0.46568373
0.10718316 0.024799241 0.46604306
0.10811207 0.024819501 0.46642381
0.10904804 0.024841059 0.46682894
0.10999575 0.024864938 0.46727771
0.11096288 0.024892813 0.46780151
0.11196798 0.024928721 0.46847633
0.11302355 0.024975242 0.46935058
0.11411845 0.025029698 0.47037396
0.11522838 0.025086621 0.47144368
0.11636455 0.025148381 0.47260433
0.11754681 0.025219135 0.47393396
0.11877394 0.02529842 0.47542396
0.1200308 0.025382858 0.47701076
0.12142733 0.025495417 0.47912607
0.063408606 0.027048426 0.49164525
0.0636857 0.026791915 0.48698279
0.064253882 0.026663175 0.48464271
0.064877592 0.026560627 0.48277876
0.065500058 0.026460288 0.48095497
0.066149339 0.026373265 0.47937319
0.066842698 0.026305836 0.47814757
0.067560993 0.026249815 0.47712928
0.068288311 0.026198659 0.47619948
0.069017135 0.026149349 0.47530317
0.069745153 0.026100947 0.47442341
0.07047388 0.026053978 0.47356969
0.071205668 0.026009256 0.47275677
0.07194154 0.025967065 0.4719899
0.07268057 0.025926987 0.47126141
0.073420823 0.025888268 0.47055763
0.074160516 0.025850238 0.46986639
0.074900933 0.025813315 0.46919528
0.075647362 0.02577927 0.46857643
0.076403946 0.025749395 0.46803343
0.07717184 0.025723947 0.46757087
0.077948138 0.025701819 0.46716866
0.078729764 0.025681902 0.46680665
0.079514533 0.025663421 0.46647072
0.080301136 0.025645912 0.46615246
0.08108861 0.025629042 0.46584582
0.081877552 0.025612976 0.46555382
0.082668558 0.025597878 0.46527937
0.083461694 0.025583737 0.46502233
0.08425758 0.025570707 0.46478552
0.085056402 0.02555882 0.46456945
0.085859098 0.025548317 0.46437854
0.086664818 0.025538906 0.4642075
0.087473094 0.025530424 0.4640533
0.088283464 0.025522709 0.46391305
0.089095719 0.025515676 0.46378523
0.089909986 0.025509344 0.46367016
0.090726353 0.025503721 0.46356794
0.091544673 0.025498746 0.46347749
0.092366531 0.025494834 0.46340641
0.093192972 0.025492247 0.46335939
0.094026715 0.025491687 0.46334919
0.094868504 0.025493298 0.46337849
0.09571702 0.025496675 0.46343985
0.096571609 0.025501594 0.46352929
0.097430691 0.025507605 0.46363854
0.09829282 0.025514307 0.46376035
0.099158533 0.025521817 0.46389684
0.100028 0.025530158 0.46404848
0.10090189 0.025539482 0.46421796
0.10178091 0.025549941 0.46440804
0.10266592 0.025561718 0.46462211
0.10355915 0.025575338 0.46486968
0.1044602 0.025590653 0.46514803
0.10536851 0.025607485 0.46545401
0.10628509 0.025626048 0.46579143
0.10720809 0.025645856 0.46615145
0.10813744 0.025666865 0.4665333
0.10907431 0.025689315 0.46694139
0.11002346 0.025714295 0.46739542
0.11099467 0.025744013 0.46793559
0.11200487 0.025782254 0.46863067
0.11306679 0.02583174 0.46953017
0.1141642 0.025888538 0.47056255
0.11527628 0.025947796 0.47163966
0.11641692 0.026012572 0.47281703
0.117606 0.026087148 0.47417259
0.11883851 0.026170215 0.47568244
0.1201032 0.026259124 0.4772985
0.12156419 0.026389381 0.47966611
0.063598454 0.028018901 0.49311727
0.063758478 0.027701959 0.48753926
0.064303026 0.027558438 0.4850134
0.064921997 0.027450241 0.48310918
0.065544426 0.02734635 0.48128074
0.066184923 0.027252616 0.4796311
0.066872589 0.027180472 0.4783614
0.067587771 0.027121207 0.47731835
0.068314359 0.027067954 0.47638112
0.069043234 0.027016919 0.47548294
0.06977123 0.026966793 0.47460076
0.070499837 0.026918121 0.47374415
0.071231067 0.026871599 0.47292539
0.071966246 0.026827652 0.47215196
0.072704896 0.026786014 0.47141916
0.073444933 0.026745843 0.47071216
0.074185096 0.026706634 0.47002211
0.07492508 0.026668249 0.46934655
0.075670168 0.026632516 0.46871766
0.076425552 0.026601158 0.46816579
0.077191956 0.026574282 0.46769276
0.077967465 0.026551083 0.4672845
0.078748651 0.026530294 0.46691862
0.079533726 0.026511243 0.46658331
0.080320314 0.026493087 0.4662638
0.081108198 0.026475731 0.46595836
0.081897274 0.026459118 0.46566597
0.082688242 0.026443448 0.46539018
0.083481602 0.02642885 0.46513325
0.084277652 0.026415383 0.46489626
0.085076578 0.026403077 0.46467966
0.085879035 0.026392093 0.46448636
0.086684726 0.026382307 0.46431413
0.087493077 0.026373511 0.46415931
0.088304117 0.026365686 0.46402159
0.089117311 0.026358642 0.46389762
0.089932568 0.026352335 0.46378663
0.090750441 0.026346903 0.46369103
0.091570608 0.02634223 0.4636088
0.092394382 0.026338669 0.46354613
0.093222871 0.026336506 0.46350804
0.094057545 0.026336113 0.46350113
0.094898589 0.026337495 0.46352544
0.095746391 0.02634071 0.46358204
0.096599497 0.026345318 0.46366313
0.097457029 0.026351042 0.46376389
0.098318517 0.026357731 0.46388158
0.099183872 0.026365332 0.46401539
0.10005319 0.026373854 0.46416536
0.10092708 0.026383426 0.46433383
0.10180644 0.026394263 0.46452454
0.10269284 0.026406731 0.46474397
0.10358708 0.026420997 0.46499506
0.1044886 0.026436877 0.46527451
0.1053983 0.026454555 0.46558565
0.10631491 0.026473675 0.46592215
0.10723855 0.026494229 0.46628389
0.10816841 0.02651599 0.46666688
0.10910636 0.026539385 0.46707863
0.11005807 0.026565742 0.46754247
0.11103375 0.02659744 0.46810034
0.11205239 0.026638869 0.46882948
0.11312152 0.026691593 0.46975741
0.11422098 0.026750641 0.47079659
0.11533637 0.026812516 0.47188556
0.11648352 0.026880812 0.47308755
0.11768065 0.026959566 0.47447357
0.11891752 0.027046224 0.4759987
0.12019278 0.027140306 0.47765449
0.12180507 0.027308611 0.48061657
0.06384737 0.029021531 0.49504724
0.063855454 0.028624857 0.4882808
0.064363152 0.028459897 0.48546693
0.064975113 0.028344849 0.48350444
0.065596618 0.028236954 0.48166397
0.066229463 0.0281367 0.47995386
0.066908389 0.028058356 0.47861746
0.067620769 0.02799586 0.4775514
0.068345532 0.027939999 0.47659853
0.069074325 0.027887151 0.47569704
0.069802329 0.027835285 0.47481233
0.07053066 0.027784806 0.47395125
0.071260877 0.027736269 0.47312331
0.071995623 0.027690625 0.47234473
0.072733857 0.02764737 0.47160691
0.073474012 0.027605843 0.47089854
0.074214384 0.027565341 0.47020766
0.074954234 0.027525565 0.46952915
0.075698361 0.027488232 0.46889234
0.076451257 0.027454872 0.46832326
0.077216052 0.027426466 0.46783873
0.077990673 0.027402127 0.46742356
0.078771375 0.027380424 0.46705335
0.079556033 0.02736054 0.46671417
0.08034309 0.027341887 0.466396
0.081131145 0.027323961 0.4660902
0.081920661 0.027306888 0.46579897
0.08271189 0.027290726 0.46552327
0.083505206 0.027275572 0.46526477
0.084301196 0.027261579 0.46502611
0.085100278 0.027248858 0.46480909
0.085902728 0.027237451 0.46461451
0.086708598 0.027227338 0.46444201
0.087517306 0.027218301 0.46428785
0.088328727 0.027210271 0.46415088
0.08914271 0.027203174 0.46402985
0.08995907 0.027196929 0.46392331
0.090778209 0.027191628 0.46383289
0.091600113 0.027187249 0.46375817
0.092425726 0.027184037 0.46370339
0.093255937 0.027182223 0.46367246
0.094091594 0.027182017 0.46366891
0.094933018 0.027183464 0.46369362
0.095779747 0.02718639 0.46374354
0.096631512 0.027190685 0.46381679
0.09748774 0.02719615 0.46391001
0.098348387 0.027202746 0.46402252
0.099213287 0.027210396 0.46415302
0.10008277 0.027219163 0.46430257
0.10095724 0.02722913 0.46447259
0.1018375 0.027240483 0.46466625
0.10272481 0.02725352 0.46488863
0.10361956 0.027268305 0.46514085
0.10452268 0.027285038 0.46542627
0.10543295 0.027303353 0.46573868
0.10635042 0.027323231 0.46607774
0.10727429 0.027344426 0.46643931
0.10820483 0.027366981 0.46682402
0.10914444 0.027391464 0.46724164
0.11009949 0.027419414 0.46771845
0.11108185 0.027453691 0.46830311
0.11211099 0.027498921 0.46907467
0.11318821 0.027555183 0.47003436
0.11428875 0.027616242 0.47107592
0.11540779 0.027680833 0.47217771
0.11656351 0.027753217 0.47341242
0.11776925 0.027836367 0.47483081
0.11900955 0.027926428 0.47636706
0.12030481 0.028028002 0.47809967
0.12234275 0.028299924 0.48273811
0.063994117 0.029569697 0.48934114
0.064437464 0.029369455 0.48602742
0.065036125 0.029244432 0.48395842
0.065657407 0.029132757 0.48211035
0.066282347 0.029025603 0.48033708
0.066951178 0.028940186 0.47892356
0.067658246 0.028873265 0.47781608
0.068381451 0.028814826 0.47684899
0.069110058 0.028760087 0.47594312
0.069837786 0.028706329 0.47505352
0.070566021 0.028654082 0.47418889
0.071296111 0.028603829 0.47335726
0.072029784 0.028556187 0.47256884
0.072767474 0.028511232 0.47182488
0.073507674 0.028468288 0.47111425
0.074248381 0.028426522 0.47042307
0.074988425 0.028385451 0.46974337
0.075731218 0.028346322 0.46909586
0.076482676 0.028311266 0.46851572
0.077244796 0.028280882 0.4680129
0.078017622 0.028255031 0.46758509
0.078797482 0.028232252 0.46720815
0.079582073 0.028211635 0.46686694
0.080369145 0.028192317 0.46654725
0.081157841 0.028173966 0.46624357
0.081947617 0.028156362 0.46595225
0.082739189 0.028139725 0.46567693
0.083532877 0.028124135 0.46541893
0.084329024 0.028109673 0.46517962
0.085127935 0.028096413 0.46496016
0.085930161 0.02808449 0.46476287
0.086735934 0.02807395 0.46458843
0.087544911 0.028064638 0.46443433
0.088356964 0.028056478 0.46429929
0.089171603 0.028049283 0.46418023
0.089989141 0.028043129 0.46407837
0.090809472 0.028037949 0.46399266
0.091633089 0.028033867 0.46392512
0.092460379 0.028030973 0.46387723
0.093291759 0.028029364 0.46385059
0.094128057 0.028029243 0.46384859
0.094969273 0.028030578 0.46387067
0.095815569 0.028033376 0.46391699
0.096666619 0.028037503 0.46398529
0.097522378 0.028042916 0.46407485
0.09838248 0.028049475 0.46418339
0.099247277 0.028057247 0.46431202
0.10011686 0.028066233 0.46446073
0.1009917 0.02807653 0.46463111
0.1018732 0.028088495 0.46482915
0.1027622 0.028102316 0.46505785
0.10365856 0.02811791 0.46531591
0.10456195 0.028135143 0.46560112
0.10547337 0.028154247 0.46591723
0.10639136 0.028174784 0.46625713
0.10731583 0.028196709 0.46661994
0.10824694 0.028220022 0.46700573
0.10918874 0.028245736 0.46743128
0.11014911 0.028275825 0.46792921
0.11114086 0.028313451 0.46855187
0.11218195 0.028362984 0.46937159
0.11326551 0.028422432 0.47035536
0.11436787 0.028485676 0.47140199
0.11549249 0.028553491 0.47252426
0.1166582 0.028630398 0.47379696
0.11787176 0.028717848 0.47524413
0.11911725 0.028811753 0.47679815
0.12044536 0.028924154 0.47865823
0.06421718 0.030558521 0.49104685
0.064531453 0.030290274 0.48673636
0.065108038 0.030150704 0.48449358
0.06572789 0.030034598 0.48262787
0.066346146 0.029920811 0.48079944
0.067001954 0.029826676 0.47928679
0.067702159 0.029754452 0.4781262
0.068422787 0.029692907 0.47713724
0.069150344 0.029635863 0.47622058
0.069879055 0.029580705 0.47533426
0.070606776 0.029526468 0.47446272
0.071336135 0.02947421 0.47362298
0.072068997 0.029424619 0.47282609
0.072806515 0.029378066 0.47207803
0.07354638 0.029333528 0.47136235
0.074287549 0.02929052 0.47067124
0.07502801 0.029248206 0.4699913
0.075770184 0.029207502 0.46933722
0.076518923 0.029170198 0.46873778
0.077278242 0.029137697 0.46821553
0.078048907 0.029110134 0.4677726
0.078827612 0.029086124 0.46738678
0.079611652 0.029064573 0.46704048
0.080398925 0.029044637 0.46672013
0.081187896 0.029025724 0.46641621
0.081978396 0.02900774 0.46612725
0.082770295 0.028990611 0.46585199
0.08356405 0.02897447 0.46559262
0.084360398 0.028959539 0.46535268
0.085159652 0.028945891 0.46513337
0.085961901 0.028933518 0.46493456
0.086767465 0.028922489 0.46475732
0.087576628 0.028912857 0.46460256
0.088388719 0.028904369 0.46446615
0.089204192 0.028897133 0.46434987
0.09002272 0.028891012 0.46425152
0.090844147 0.028885929 0.46416983
0.091668665 0.028881909 0.46410525
0.092497431 0.028879289 0.46406314
0.093329899 0.02887786 0.46404019
0.094166696 0.028877785 0.464039
0.095008165 0.028879134 0.46406066
0.095854349 0.028881878 0.46410474
0.096705377 0.02888602 0.46417132
0.097560689 0.028891362 0.46425715
0.098420709 0.028897997 0.46436375
0.099285774 0.028905984 0.46449211
0.10015596 0.028915318 0.46464211
0.10103201 0.028926177 0.4648166
0.10191475 0.028938755 0.46501872
0.10280475 0.028953176 0.46525043
0.10370267 0.028969573 0.46551391
0.10460755 0.028987635 0.46580416
0.1055192 0.029007269 0.46611968
0.10643802 0.02902855 0.46646163
0.10736261 0.02905106 0.46682334
0.10829508 0.029075334 0.46721339
0.10924001 0.029102553 0.46765077
0.11020727 0.029135257 0.46817631
0.11121187 0.029177258 0.46885124
0.11226589 0.029231496 0.46972278
0.1133547 0.029293912 0.47072574
0.1144596 0.029359525 0.47178009
0.1155913 0.029430993 0.47292852
0.11676861 0.029512946 0.47424543
0.11799141 0.029605119 0.47572654
0.11924428 0.029703449 0.47730663
0.12064117 0.02983599 0.47943643
0.064593025 0.031628311 0.4939208
0.06465333 0.031227117 0.48765561
0.065192267 0.031064771 0.48512033
0.065806404 0.030942084 0.48320442
0.066422127 0.030823339 0.48135003
0.067063011 0.030719183 0.47972351
0.067753151 0.030639961 0.47848633
0.068469405 0.030574389 0.47746232
0.069196276 0.030515129 0.4765369
0.069924779 0.030458031 0.47564524
0.070652969 0.030402187 0.47477317
0.071381919 0.030348003 0.47392699
0.072113872 0.030296361 0.47312054
0.072850153 0.030247724 0.472361
0.073589519 0.030201478 0.4716388
0.07433138 0.030157303 0.47094893
0.075073034 0.030114042 0.47027335
0.075814389 0.030071629 0.46961102
0.076560937 0.03003219 0.46899512
0.077317245 0.029997401 0.46845186
0.078084931 0.029967731 0.46798849
0.07886178 0.029942174 0.46758938
0.079645 0.02991955 0.4672361
0.080432035 0.02989882 0.46691236
0.081221707 0.029879488 0.46661046
0.082012631 0.029861009 0.46632189
0.082805172 0.029843489 0.4660483
0.083599612 0.029826997 0.46579075
0.084396191 0.029811591 0.46555015
0.085195608 0.02979748 0.4653298
0.085997872 0.029784629 0.46512911
0.086803406 0.02977315 0.46494985
0.087612413 0.029763069 0.46479243
0.088424817 0.029754322 0.46465582
0.089240432 0.02974681 0.46453851
0.090059765 0.029740667 0.46444258
0.090882041 0.029735599 0.46436343
0.091707721 0.029731726 0.46430296
0.092537068 0.029729102 0.46426198
0.093370564 0.029727848 0.4642424
0.094208144 0.029727904 0.46424326
0.095049813 0.029729236 0.46426407
0.095896311 0.029732045 0.46430793
0.096747406 0.029736215 0.46437305
0.097602911 0.02974166 0.46445808
0.09846314 0.029748438 0.46456394
0.099328883 0.029756755 0.46469381
0.10019998 0.029766522 0.46484634
0.10107759 0.029778047 0.46502632
0.10196215 0.029791409 0.46523499
0.10285365 0.029806567 0.46547171
0.10375217 0.029823497 0.46573609
0.10465805 0.029842257 0.46602905
0.10557063 0.029862607 0.46634686
0.10648983 0.029884497 0.46668869
0.10741481 0.029907653 0.46705031
0.10835001 0.02993327 0.46745035
0.10930013 0.029962583 0.46790811
0.11027739 0.029998831 0.46847418
0.11129729 0.030046035 0.46921134
0.11236331 0.030104887 0.47013038
0.11345521 0.030169738 0.47114313
0.11456282 0.030237772 0.47220558
0.1157055 0.030313985 0.47339576
0.11689567 0.030401438 0.47476146
0.11812416 0.030497512 0.47626179
0.11939302 0.030602543 0.477902
0.12101538 0.030796029 0.48092353
0.064825796 0.032192402 0.48895648
0.065291613 0.031988509 0.4858596
0.065893739 0.031855911 0.48384568
0.066509873 0.031733468 0.48198593
0.067136034 0.031618904 0.48024589
0.06781131 0.031530101 0.47889706
0.068521962 0.031459767 0.4778288
0.069246791 0.031397611 0.47688475
0.06997595 0.031338923 0.47599334
0.070704393 0.031281337 0.4751187
0.071433097 0.031225245 0.47426674
0.072163954 0.031171411 0.47344908
0.072899267 0.03112074 0.47267947
0.07363873 0.031072991 0.47195423
0.074380256 0.031027192 0.47125861
0.075122736 0.030982824 0.47058472
0.075864628 0.030939206 0.46992221
0.076609381 0.030897707 0.4692919
0.077362463 0.030860435 0.4687258
0.078126334 0.03082823 0.46823665
0.078900538 0.030800747 0.46781921
0.079682469 0.030776829 0.46745592
0.080469079 0.030755199 0.46712741
0.081258804 0.030735195 0.46682358
0.082050547 0.03071636 0.46653751
0.082843758 0.03069845 0.46626547
0.083638728 0.030681543 0.46600869
0.084435932 0.030665785 0.46576935
0.085235514 0.030651195 0.46554774
0.086038016 0.030637927 0.46534622
0.08684358 0.030625997 0.46516502
0.087652594 0.030615499 0.46500558
0.08846502 0.030606382 0.46486709
0.089280859 0.030598605 0.46474898
0.090100735 0.030592345 0.46465388
0.09092351 0.030587172 0.46457532
0.091750138 0.030583378 0.46451771
0.092580251 0.030580806 0.46447864
0.09341418 0.03057953 0.46445924
0.094252385 0.030579662 0.46446127
0.09509483 0.030581156 0.46448395
0.095941916 0.030584104 0.46452874
0.09679316 0.030588316 0.4645927
0.097649492 0.030594047 0.46467975
0.098510213 0.030601047 0.46478605
0.099377006 0.030609796 0.46491894
0.10024989 0.03062026 0.46507788
0.101129 0.030632436 0.46526283
0.1020151 0.03064651 0.4654766
0.1029079 0.030662354 0.46571723
0.10380758 0.030679973 0.46598485
0.10471433 0.030699383 0.46627966
0.10562734 0.030720301 0.46659738
0.10654669 0.030742722 0.4669379
0.1074735 0.030766923 0.46730548
0.10841235 0.03079417 0.46771932
0.10936973 0.030826217 0.46820608
0.11036122 0.030867314 0.46883029
0.11139863 0.030920532 0.46963859
0.1124749 0.030983651 0.47059727
0.11356673 0.031050079 0.47160622
0.11468178 0.031121822 0.47269589
0.11583604 0.031203067 0.47392988
0.11703923 0.031296205 0.47534454
0.11827336 0.031396203 0.47686332
0.11957423 0.031512342 0.47862735
0.12206051 0.031936981 0.48507696
0.065144278 0.033236876 0.49135864
0.065418154 0.032928601 0.48680127
0.065992124 0.032777544 0.48456812
0.066608161 0.032651059 0.48269823
0.067222431 0.032526985 0.48086393
0.067880087 0.032426793 0.47938275
0.068582006 0.032350004 0.47824752
0.069303177 0.032284088 0.47727311
0.070031866 0.032223251 0.4763737
0.070760943 0.032164063 0.47549871
0.071489669 0.032106139 0.47464237
0.072220258 0.032050412 0.47381851
0.072954103 0.031997412 0.47303501
0.073692851 0.031947769 0.47230107
0.074434564 0.031900525 0.47160268
0.075177573 0.031854905 0.47092822
0.075920589 0.031810302 0.47026885
0.076664388 0.031767014 0.46962887
0.077414326 0.031727184 0.46904004
0.078174062 0.031692188 0.4685227
0.078944713 0.031662319 0.46808112
0.079724222 0.031636596 0.46770084
0.080510192 0.03161395 0.46736607
0.081299685 0.031593144 0.46705845
0.082092039 0.031573862 0.46677339
0.082886115 0.031555627 0.46650386
0.083681874 0.031538393 0.46624908
0.084479325 0.031522136 0.46600872
0.085279673 0.031507269 0.46578893
0.086082555 0.031493615 0.46558711
0.08688844 0.031481318 0.46540532
0.087697536 0.031470407 0.465244
0.088509962 0.031460889 0.46510327
0.089325823 0.031452753 0.46498302
0.090145968 0.031446271 0.46488714
0.090968996 0.031440895 0.46480772
0.091796428 0.031437133 0.46475208
0.092627272 0.031434596 0.46471456
0.093462005 0.031433411 0.46469703
0.094300777 0.031433593 0.46469975
0.095144004 0.031435244 0.46472415
0.0959915 0.031438265 0.4647688
0.096843272 0.031442624 0.46483323
0.097700782 0.031448752 0.46492383
0.098562874 0.031456236 0.46503448
0.09943115 0.031465553 0.46517223
0.10030576 0.031476703 0.46533707
0.10118646 0.031489562 0.46552718
0.1020739 0.031504292 0.46574491
0.10296794 0.031520799 0.46598893
0.10386866 0.031539064 0.466259
0.104776 0.031559035 0.46655422
0.10568932 0.031580471 0.46687114
0.10660958 0.031603631 0.46721348
0.10753915 0.031629164 0.46759096
0.10848382 0.031658705 0.46802768
0.10945337 0.031694993 0.46856415
0.11046202 0.031741958 0.46925849
0.11151553 0.031801008 0.47013143
0.11259586 0.031866755 0.4711034
0.11369169 0.031935867 0.47212514
0.11481484 0.032011572 0.47324434
0.11598703 0.032099731 0.47454765
0.11719811 0.032197282 0.47598979
0.118442 0.032302361 0.47754323
0.11983559 0.032446459 0.4796735
0.065762952 0.03444726 0.49602509
0.065590933 0.033895988 0.488087
0.066107586 0.033710491 0.48541591
0.066715643 0.033575848 0.48347712
0.067327276 0.033446454 0.4816139
0.067963384 0.033332359 0.47997102
0.068650357 0.033245772 0.47872418
0.069366015 0.033175051 0.47770584
0.070092954 0.033111393 0.47678921
0.070823021 0.033050742 0.47591585
0.071552292 0.032991178 0.47505814
0.072282128 0.03293328 0.47422442
0.073015161 0.032878172 0.47343093
0.073752739 0.032826364 0.47268489
0.074493855 0.032777298 0.47197837
0.075237699 0.032730523 0.47130483
0.075981893 0.032684948 0.47064859
0.076725803 0.03264026 0.47000507
0.077473387 0.032598089 0.46939787
0.078229077 0.032560211 0.4688524
0.07899528 0.032527469 0.46838096
0.079771742 0.032499596 0.46797961
0.080555804 0.032475375 0.46763083
0.08134453 0.032453515 0.46731606
0.082137093 0.032433622 0.46702957
0.082931966 0.032415032 0.46676192
0.083728589 0.032397494 0.46650937
0.084527232 0.032381076 0.46627298
0.085327916 0.032365762 0.46605241
0.086131386 0.032351788 0.46585122
0.086937793 0.032339178 0.46566966
0.087747246 0.032327931 0.46550772
0.088559791 0.03231803 0.46536511
0.089376181 0.0323097 0.46524516
0.090196192 0.032302823 0.46514615
0.091019683 0.032297306 0.4650667
0.091847219 0.032293312 0.46500921
0.092678748 0.032290787 0.46497282
0.093514197 0.032289658 0.46495655
0.094353773 0.032289959 0.4649609
0.095197767 0.032291751 0.46498674
0.096045859 0.032294895 0.46503201
0.096899316 0.032299772 0.4651022
0.09775795 0.032306276 0.46519586
0.09862189 0.032314405 0.46531293
0.099491373 0.032324202 0.46545398
0.10036749 0.032335971 0.46562344
0.10124958 0.032349449 0.46581754
0.1021383 0.032364812 0.46603876
0.10303329 0.032381892 0.46628469
0.10393476 0.032400716 0.46655574
0.10484266 0.032421224 0.46685109
0.1057566 0.032443263 0.46716839
0.10667931 0.032467619 0.4675191
0.10761391 0.032495182 0.46791601
0.10856769 0.032528065 0.46838951
0.10955346 0.032569945 0.46899259
0.11058248 0.03262395 0.46977022
0.11164737 0.032687634 0.47068724
0.11272894 0.032755204 0.4716602
0.11383035 0.032827478 0.47270095
0.1149695 0.032909486 0.47388181
0.11615448 0.033003304 0.47523275
0.11737301 0.033105209 0.47670013
0.11864026 0.033219274 0.47834262
0.12052324 0.033502851 0.48242599
0.065879546 0.034929425 0.49023464
0.0662475 0.034659289 0.48644331
0.066833004 0.034508545 0.48432761
0.067445926 0.034375668 0.48246267
0.068063132 0.034248326 0.48067546
0.068728991 0.034148365 0.47927251
0.069436394 0.034071274 0.47819051
0.070160337 0.034004088 0.47724757
0.070890278 0.033941407 0.4763678
0.071620412 0.033880316 0.47551042
0.07235045 0.033820625 0.47467265
0.073082395 0.033763215 0.47386688
0.073818706 0.03370912 0.47310767
0.07455945 0.033658266 0.47239393
0.07530307 0.033609845 0.47171438
0.076048225 0.033563182 0.47105944
0.076793984 0.033517819 0.47042274
0.077540308 0.033473685 0.46980336
0.078292377 0.033432961 0.46923178
0.079053588 0.03339697 0.46872666
0.079825714 0.033366304 0.46829626
0.080606796 0.033339981 0.46792683
0.081394091 0.03331675 0.46760079
0.082186274 0.033295978 0.46730924
0.082981423 0.033276815 0.46704027
0.083779246 0.033259097 0.4667916
