# .PCD v0.7 - Point Cloud Data file format
VERSION 0.7
FIELDS x y z
SIZE 4 4 4
TYPE F F F
COUNT 1 1 1
WIDTH 146
HEIGHT 1
VIEWPOINT 0 0 0 1 0 0 0
POINTS 146
DATA ascii
-0.061525732 0.044944331 0.48381281
-0.05235457 0.043700922 0.47974327
-0.063628897 0.043717816 0.47992873
-0.03894319 0.040693447 0.48515576
-0.050539184 0.03949701 0.47089159
-0.074813657 0.040217746 0.47948438
-0.069507129 0.039657444 0.47280431
-0.03727749 0.039908845 0.48625875
-0.076545306 0.039353799 0.47949597
-0.049585424 0.03856644 0.4699026
-0.059738081 0.039401714 0.46975544
-0.059324451 0.031114222 0.45997831
-0.077521384 0.033465516 0.46968868
-0.03940963 0.034324516 0.46984982
-0.080101587 0.031786345 0.46991464
-0.026731791 0.031114051 0.48588991
-0.06941396 0.029511323 0.46086106
-0.040597938 0.029716017 0.46405762
-0.029239617 0.025001992 0.46985328
-0.033437964 0.029205309 0.469302
-0.048535846 0.029453376 0.45995614
-0.059972234 0.029365715 0.45858717
-0.068402909 0.028604852 0.4596532
-0.02235858 0.024989001 0.48608667
-0.020426426 0.019557217 0.48187479
-0.017400756 0.01115433 0.49470145
-0.024999825 0.017372759 0.46981257
-0.030595286 0.019698335 0.46469855
-0.040014286 0.019388365 0.45738614
-0.069381937 0.019295568 0.45519701
-0.079132162 0.019472312 0.4593665
-0.048022684 0.042831045 0.47969273
-0.083373792 0.012029055 0.45991033
-0.017156279 0.010117806 0.48775098
-0.070291065 0.043222457 0.48407641
-0.022466017 0.008053855 0.46999139
-0.030365063 0.0095670745 0.46120182
-0.031925615 0.0095362226 0.4597145
-0.040602397 0.0094328802 0.45473266
-0.059834283 0.0093618268 0.45130739
-0.04005805 0.039196588 0.47758046
-0.084217854 0.0087121911 0.45998937
-0.083357483 -0.002902997 0.45982039
-0.077980794 0.039643869 0.48303023
-0.02500689 -0.0097484486 0.46994534
-0.089138173 0.030002605 0.48211378
-0.030540546 -0.0096223643 0.46386716
-0.080943026 0.036792286 0.47992957
-0.035252519 -0.0095389169 0.45984441
-0.040742464 -0.0094654215 0.45630139
-0.059239 -0.0093965307 0.45298037
-0.045145486 0.043392263 0.48597819
-0.089333393 0.019898906 0.46943021
-0.027272802 0.029870212 0.47998634
-0.069255136 -0.0094252545 0.45436507
-0.05373605 0.044998478 0.48439571
-0.092788771 0.010592326 0.46977618
-0.030280907 0.029427923 0.4728792
-0.079979487 -0.0095312335 0.45947403
-0.067597382 -0.020320686 0.45981374
-0.020120863 0.00984638 0.47466633
-0.092810638 -0.0029665502 0.4698869
-0.087795585 -0.022057019 0.4795306
-0.019775154 -0.010986197 0.48724461
-0.089325152 0.02804896 0.47845718
-0.039389409 -0.014511888 0.45972228
-0.028382417 -0.015673872 0.46969318
-0.071419522 -0.033329111 0.47992423
-0.091545738 -0.017788509 0.48105568
-0.023403222 -0.01810438 0.4895978
-0.022940984 -0.015149706 0.47992772
-0.092735074 0.0097392993 0.4695043
-0.079192914 -0.011194809 0.45971918
-0.030205188 -0.019994983 0.47169673
-0.030089159 -0.018223012 0.46988478
-0.092257328 0.024688581 0.48024291
-0.040477104 -0.019612618 0.46267644
-0.090466127 0.027269695 0.47993165
-0.046041224 -0.019494934 0.45990017
-0.067341186 -0.030070592 0.46959484
-0.0203669 -0.0099667804 0.48047051
-0.094658203 -0.010805731 0.47924083
-0.089412354 0.0096548554 0.46543345
-0.020340493 0.017743833 0.47984755
-0.069242835 -0.019487504 0.4597249
-0.097384319 0.0099548418 0.47989497
-0.079350479 -0.01973266 0.46550831
-0.059330918 0.019231401 0.45368326
-0.069073752 0.037715118 0.46985638
-0.025257085 -0.020826017 0.49130145
-0.019478016 0.015149567 0.47992334
-0.059841622 -0.01939694 0.45758843
-0.059636857 -0.030875821 0.46895948
-0.017162146 -0.001320165 0.48791778
-0.089192316 -0.019389633 0.47774568
-0.083500341 -0.020769121 0.46996087
-0.080058932 -0.010370328 0.45993045
-0.02639953 -0.020340621 0.47985059
-0.038563956 -0.025850562 0.4698723
-0.097307838 -0.0012974378 0.47951809
-0.078388281 -0.024999505 0.46980655
-0.059285291 -0.02197287 0.45967469
-0.018585237 0.0099409409 0.47922483
-0.089915633 -0.0080206441 0.46805328
-0.028121008 0.030716794 0.47968617
-0.06985575 0.0093958024 0.45294526
-0.079720534 0.029947925 0.4676792
-0.035915088 -0.030594332 0.4916223
-0.033326272 -0.027266949 0.47988334
-0.040649485 -0.029524362 0.47442886
-0.097797573 0.010866397 0.48193142
-0.045342483 -0.029239545 0.46985212
-0.035261627 0.018667921 0.45996323
-0.070164397 -0.034428492 0.48320407
-0.047885589 -0.030087406 0.46985739
-0.096539184 0.014286067 0.47999689
-0.047706492 -0.020327114 0.45995921
-0.097641982 -0.0021698219 0.48116469
-0.078171916 -0.029800344 0.47886366
-0.039276291 -0.030644139 0.47855157
-0.018610796 -0.0030296645 0.47988391
-0.08856006 -0.013983167 0.46981975
-0.064291544 0.030279245 0.45989835
-0.025990233 -0.021585109 0.48842496
-0.02032824 -0.0090828305 0.4795585
-0.090234652 -0.010590921 0.4697139
-0.032195665 -0.027785299 0.48900601
-0.021785276 -0.015560911 0.49295428
-0.037629135 0.03849417 0.47956187
-0.079475962 0.0094712283 0.45658132
-0.087713957 0.02330564 0.46982706
-0.042880256 -0.034038965 0.49014583
-0.079224505 0.020324612 0.45990258
-0.037363824 -0.031209782 0.48738489
-0.047160797 -0.03418076 0.47972718
-0.045309585 -0.034752011 0.48774466
-0.017099211 0.0092072673 0.48612857
-0.059484113 -0.029952994 0.46775836
-0.039404113 0.023642467 0.45989385
-0.083060466 -0.027396906 0.48217052
-0.018216196 -0.0066644619 0.49262166
-0.051447134 -0.035018638 0.47935128
-0.064431094 -0.035026301 0.47945619
-0.053742848 -0.0362655 0.48445702
-0.069872178 -0.029219275 0.46952641
-0.06143311 -0.036162753 0.48308447
