# .PCD v0.7 - Point Cloud Data file format
VERSION 0.7
FIELDS x y z
SIZE 4 4 4
TYPE F F F
COUNT 1 1 1
WIDTH 1341
HEIGHT 1
VIEWPOINT 0 0 0 1 0 0 0
POINTS 1341
DATA ascii
-0.23136027 -0.035503853 0.4325873
-0.23017578 -0.035441618 0.43182901
-0.22907472 -0.035391849 0.43122262
-0.22803816 -0.035351742 0.43073395
-0.22704647 -0.035318341 0.43032697
-0.22608984 -0.035290178 0.42998385
-0.22516371 -0.035266604 0.42969662
-0.22426091 -0.035246532 0.42945206
-0.2233776 -0.035229396 0.42924327
-0.2225145 -0.035215337 0.42907196
-0.22166434 -0.035203237 0.42892453
-0.22083066 -0.035193678 0.42880806
-0.22000851 -0.035185896 0.42871323
-0.21919791 -0.035179913 0.42864034
-0.21839915 -0.035175793 0.42859015
-0.21761167 -0.035173468 0.42856181
-0.21683268 -0.035172503 0.42855006
-0.21606375 -0.03517317 0.42855817
-0.21530358 -0.035175271 0.4285838
-0.21455106 -0.035178643 0.42862487
-0.21380825 -0.035183638 0.42868572
-0.21307281 -0.035189882 0.42876181
-0.21234511 -0.035197459 0.42885414
-0.21162516 -0.035206381 0.42896283
-0.21091335 -0.035216723 0.42908886
-0.2102084 -0.035228297 0.42922986
-0.20951034 -0.035241112 0.42938599
-0.20882213 -0.035255685 0.42956355
-0.20813882 -0.035271198 0.42975256
-0.2074665 -0.035288695 0.42996576
-0.20680059 -0.035307419 0.4301939
-0.20614325 -0.035327751 0.43044162
-0.20549421 -0.035349667 0.43070865
-0.20485388 -0.035373248 0.430996
-0.20422329 -0.035398703 0.43130615
-0.2036019 -0.03542595 0.43163812
-0.20299026 -0.035455115 0.43199345
-0.20238872 -0.03548627 0.43237305
-0.20179902 -0.035519753 0.43278101
-0.2012189 -0.035555188 0.43321276
-0.20065112 -0.035593085 0.43367451
-0.20009436 -0.035633244 0.43416381
-0.19954832 -0.035675634 0.43468031
-0.19901505 -0.03572065 0.43522882
-0.19849569 -0.035768528 0.43581218
-0.1979894 -0.035819158 0.43642905
-0.19749542 -0.035872422 0.43707803
-0.19701745 -0.035929032 0.4377678
-0.19655456 -0.035988864 0.43849677
-0.19610678 -0.036051955 0.43926549
-0.19567899 -0.036119249 0.44008541
-0.19527139 -0.036190826 0.44095755
-0.19488543 -0.036267024 0.44188595
-0.19452645 -0.036348887 0.44288337
-0.19420154 -0.036437817 0.44396693
-0.19391641 -0.036534976 0.44515073
-0.19368099 -0.036642347 0.446459
-0.1935219 -0.036765121 0.44795489
-0.19345401 -0.036906321 0.44967529
-0.23708834 -0.035109587 0.43739659
-0.23471408 -0.034874044 0.43446219
-0.23317018 -0.034760714 0.4330503
-0.23187022 -0.034683108 0.43208349
-0.23069693 -0.034623992 0.43134701
-0.22960703 -0.034577031 0.43076199
-0.22857511 -0.034538515 0.43028215
-0.22758685 -0.034506354 0.42988148
-0.22663113 -0.034478925 0.42953977
-0.22570314 -0.034455538 0.42924842
-0.22479942 -0.034435712 0.42900142
-0.2239152 -0.034418743 0.42879003
-0.22304727 -0.034404173 0.42860851
-0.2221958 -0.034392048 0.42845744
-0.22135666 -0.034381751 0.42832917
-0.22053136 -0.03437354 0.42822689
-0.21971777 -0.034367103 0.42814669
-0.21891455 -0.034362249 0.42808622
-0.21812078 -0.034358848 0.42804387
-0.21733786 -0.034357138 0.42802256
-0.21656346 -0.034356769 0.42801797
-0.21579881 -0.03435795 0.42803267
-0.21504083 -0.034360204 0.42806074
-0.21429265 -0.034364045 0.4281086
-0.21355172 -0.034369085 0.42817137
-0.21281852 -0.034375403 0.4282501
-0.21209207 -0.034382869 0.42834309
-0.21137327 -0.034391627 0.42845222
-0.21066198 -0.034401681 0.42857745
-0.20995633 -0.03441273 0.42871514
-0.20925957 -0.034425326 0.42887205
-0.2085683 -0.034438923 0.42904142
-0.20788547 -0.034454018 0.42922947
-0.20720884 -0.034470256 0.42943177
-0.20654143 -0.034488156 0.42965478
-0.20588005 -0.0345072 0.42989203
-0.20522712 -0.034527816 0.43014884
-0.20458332 -0.034550123 0.43042678
-0.20394711 -0.03457389 0.43072286
-0.20331989 -0.034599371 0.43104029
-0.20270236 -0.0346267 0.43138075
-0.20209512 -0.034656003 0.43174583
-0.20149769 -0.034687221 0.43213475
-0.20091024 -0.034720413 0.43254822
-0.20033352 -0.034755718 0.43298808
-0.19976804 -0.034793258 0.43345577
-0.19921543 -0.034833346 0.43395516
-0.19867398 -0.034875706 0.4344829
-0.19814593 -0.034920767 0.43504426
-0.19762911 -0.034968175 0.43563485
-0.19712554 -0.03501831 0.43625945
-0.19663575 -0.035071306 0.43691969
-0.19616054 -0.035127338 0.43761775
-0.1956993 -0.035186339 0.43835276
-0.19525555 -0.035248972 0.43913308
-0.1948297 -0.035315365 0.43996015
-0.1944242 -0.035386 0.44084013
-0.19404055 -0.03546121 0.44177711
-0.1936834 -0.035541903 0.4427824
-0.19335693 -0.035628915 0.4438664
-0.19307067 -0.035724096 0.44505215
-0.19283222 -0.035828952 0.44635844
-0.19266345 -0.035947688 0.44783768
-0.19258136 -0.036083665 0.44953167
-0.23745671 -0.034259923 0.43662319
-0.23523878 -0.034052867 0.4339844
-0.23372282 -0.033946387 0.43262735
-0.23243396 -0.033872284 0.43168297
-0.23126814 -0.033815678 0.43096155
-0.23018098 -0.03377023 0.43038231
-0.2291507 -0.033732843 0.42990586
-0.22816107 -0.033701211 0.42950273
-0.22720498 -0.033674333 0.42916018
-0.22627477 -0.033651121 0.42886436
-0.22536768 -0.033631198 0.42861044
-0.22447924 -0.033613931 0.42839041
-0.22360861 -0.03359922 0.42820293
-0.22275093 -0.033586361 0.42803904
-0.22190891 -0.033575784 0.42790422
-0.2210786 -0.033566907 0.42779112
-0.22025967 -0.033559702 0.4276993
-0.21945192 -0.033554159 0.42762864
-0.21865362 -0.033550028 0.42757598
-0.21786502 -0.033547357 0.42754194
-0.21708629 -0.033546194 0.42752713
-0.21631591 -0.033546317 0.42752871
-0.21555355 -0.033547692 0.4275462
-0.21479981 -0.033550419 0.42758095
-0.21405409 -0.033554427 0.42763203
-0.21331525 -0.033559542 0.42769724
-0.21258344 -0.033565808 0.42777708
-0.21185917 -0.033573311 0.42787272
-0.21114163 -0.033581942 0.42798272
-0.21043071 -0.033591691 0.42810696
-0.20972633 -0.033602562 0.42824551
-0.20902878 -0.033614609 0.42839906
-0.20833795 -0.03362783 0.42856756
-0.2076534 -0.033642173 0.42875031
-0.20697586 -0.033657756 0.42894894
-0.20630507 -0.03367456 0.4291631
-0.20564178 -0.033692721 0.42939451
-0.20498613 -0.033712275 0.42964372
-0.20433708 -0.033733066 0.42990869
-0.20369653 -0.033755425 0.43019366
-0.20306586 -0.033779599 0.43050173
-0.20244305 -0.03380527 0.4308289
-0.20182878 -0.033832569 0.43117681
-0.20122351 -0.033861596 0.43154675
-0.20062894 -0.033892654 0.43194258
-0.20004706 -0.033926111 0.43236893
-0.19947441 -0.033961397 0.43281865
-0.19891271 -0.033998832 0.43329576
-0.19836332 -0.034038674 0.43380353
-0.19782595 -0.034080908 0.43434173
-0.19730042 -0.034125518 0.4349103
-0.19678794 -0.034172755 0.4355123
-0.19628841 -0.034222629 0.4361479
-0.19580217 -0.03427523 0.43681827
-0.19533007 -0.034330741 0.43752572
-0.19487284 -0.034389324 0.43827236
-0.19443272 -0.034451418 0.4390637
-0.19401051 -0.03451721 0.43990216
-0.19360812 -0.034587078 0.44079259
-0.1932276 -0.034661446 0.44174039
-0.19287232 -0.034740977 0.44275394
-0.1925476 -0.034826696 0.4438464
-0.19226466 -0.034920722 0.4450447
-0.1920269 -0.035023771 0.44635803
-0.19185424 -0.035139617 0.4478344
-0.19176911 -0.035272542 0.44952846
-0.23804432 -0.033444244 0.43625671
-0.23585217 -0.03324616 0.43367285
-0.23433518 -0.033142246 0.43231738
-0.2330457 -0.033069924 0.43137398
-0.23188065 -0.033014834 0.43065536
-0.23078997 -0.032969996 0.43007049
-0.22975917 -0.03293344 0.42959362
-0.22876723 -0.032902226 0.42918646
-0.22780706 -0.032875381 0.42883632
-0.22687325 -0.032852173 0.42853358
-0.22596188 -0.032832067 0.42827132
-0.22506785 -0.032814354 0.42804024
-0.22419165 -0.032799125 0.42784157
-0.22332981 -0.032785896 0.42766905
-0.22248065 -0.032774445 0.42751968
-0.2216447 -0.032764867 0.42739475
-0.22081947 -0.032756817 0.42728969
-0.22000585 -0.032750435 0.42720646
-0.21920285 -0.032745592 0.42714331
-0.21840896 -0.032742083 0.42709753
-0.21762462 -0.032739986 0.42707017
-0.21684903 -0.032739196 0.42705986
-0.21608251 -0.032739777 0.42706743
-0.21532348 -0.032741494 0.42708984
-0.21457255 -0.032744464 0.42712858
-0.21382883 -0.032748561 0.42718202
-0.21309264 -0.032753844 0.42725092
-0.21236366 -0.032760274 0.42733482
-0.2116414 -0.032767795 0.42743292
-0.21092519 -0.032776311 0.427544
-0.2102163 -0.032786027 0.42767075
-0.20951238 -0.032796599 0.42780864
-0.20881569 -0.032808382 0.42796233
-0.2081247 -0.032821149 0.4281289
-0.20744045 -0.032835081 0.4283106
-0.20676115 -0.032849904 0.42850396
-0.20608968 -0.032866083 0.42871502
-0.20542453 -0.032883398 0.42894089
-0.20476501 -0.032901749 0.42918026
-0.20411411 -0.032921631 0.4294396
-0.20347066 -0.032942869 0.42971665
-0.20283429 -0.032965418 0.4300108
-0.202206 -0.032989461 0.43032441
-0.20158663 -0.033015154 0.43065953
-0.20097718 -0.033042669 0.43101847
-0.2003769 -0.033071913 0.43139994
-0.19978642 -0.033103015 0.43180561
-0.19920702 -0.033136196 0.43223846
-0.19863741 -0.033171277 0.43269607
-0.19807994 -0.033208668 0.43318382
-0.19753411 -0.033248316 0.43370098
-0.19700031 -0.033290312 0.43424878
-0.19647908 -0.033334773 0.43482876
-0.19596975 -0.033381619 0.43543983
-0.19547507 -0.033431351 0.43608853
-0.1949928 -0.03348361 0.43677023
-0.19452493 -0.033538781 0.4374899
-0.19407177 -0.033596944 0.4382486
-0.19363651 -0.033658698 0.43905413
-0.19321798 -0.033723876 0.43990433
-0.19281964 -0.033793133 0.44080773
-0.19244437 -0.033867024 0.44177157
-0.19209282 -0.033945717 0.44279808
-0.19177103 -0.034030352 0.44390208
-0.19149116 -0.034123164 0.44511274
-0.19125782 -0.034225084 0.44644222
-0.19108836 -0.034339346 0.44793272
-0.19100578 -0.03447026 0.44964036
-0.23880923 -0.032654312 0.4362165
-0.23653243 -0.032449905 0.43348593
-0.23499975 -0.032346565 0.43210545
-0.23370242 -0.032275043 0.43115002
-0.23252945 -0.032220274 0.43041837
-0.23143646 -0.03217626 0.4298304
-0.2303973 -0.032139454 0.42933875
-0.22940058 -0.032108344 0.42892316
-0.22843504 -0.032081403 0.42856324
-0.22749579 -0.032057982 0.42825037
-0.22657761 -0.032037377 0.42797515
-0.22567815 -0.032019291 0.42773354
-0.22479393 -0.03200325 0.42751926
-0.22392592 -0.031989418 0.42733446
-0.22307044 -0.031977285 0.42717236
-0.22222754 -0.031966873 0.42703331
-0.22139658 -0.031958114 0.4269163
-0.22057652 -0.031950876 0.42681959
-0.21976633 -0.03194502 0.42674136
-0.21896739 -0.031940762 0.4266845
-0.21817729 -0.031937771 0.4266445
-0.21739684 -0.031936172 0.4266232
-0.2166246 -0.031935778 0.42661789
-0.21586077 -0.031936619 0.42662916
-0.21510486 -0.031938646 0.42665625
-0.21435682 -0.031941861 0.42669916
-0.21361595 -0.031946171 0.42675674
-0.21288201 -0.03195155 0.42682859
-0.21215555 -0.031958096 0.42691603
-0.2114353 -0.031965628 0.42701668
-0.21072111 -0.031974137 0.42713031
-0.21001375 -0.031983744 0.42725867
-0.20931159 -0.03199422 0.42739862
-0.208616 -0.032005783 0.42755306
-0.2079262 -0.032018319 0.42772055
-0.20724195 -0.032031808 0.42790076
-0.20656359 -0.032046314 0.42809454
-0.2058904 -0.032061733 0.4283005
-0.20522389 -0.032078311 0.42852193
-0.20456383 -0.032096025 0.42875859
-0.20390983 -0.03211483 0.4290098
-0.20326255 -0.032134842 0.42927712
-0.2026231 -0.032156248 0.42956308
-0.2019915 -0.032179069 0.42986792
-0.20136787 -0.032203339 0.43019217
-0.20075229 -0.032229088 0.43053615
-0.20014617 -0.032256566 0.4309032
-0.19954932 -0.032285757 0.43129316
-0.19896306 -0.032316897 0.43170914
-0.19838673 -0.032349899 0.43214998
-0.1978213 -0.032384947 0.4326182
-0.19726682 -0.032422069 0.43311411
-0.19672561 -0.03246168 0.43364325
-0.19619609 -0.032503545 0.43420249
-0.1956788 -0.032547776 0.43479335
-0.19517566 -0.032594729 0.43542057
-0.1946843 -0.032644033 0.43607923
-0.19420627 -0.032695983 0.43677321
-0.1937442 -0.032751057 0.43750891
-0.19329615 -0.032808959 0.4382824
-0.19286487 -0.032870192 0.43910041
-0.1924517 -0.032935034 0.43996659
-0.19205725 -0.033003628 0.44088289
-0.19168662 -0.033076901 0.44186172
-0.19134125 -0.033155166 0.44290724
-0.19102545 -0.033239231 0.44403023
-0.19075121 -0.033331264 0.44525966
-0.19052288 -0.033432133 0.44660714
-0.19036208 -0.033545759 0.44812503
-0.19028659 -0.033675455 0.44985756
-0.23983379 -0.031899076 0.43664929
-0.23727863 -0.031663209 0.43342066
-0.23571211 -0.031558152 0.43198255
-0.23439559 -0.031485975 0.43099457
-0.23321392 -0.031431492 0.4302488
-0.23211117 -0.031387322 0.42964414
-0.2310643 -0.031350434 0.42913923
-0.23006007 -0.0313191 0.42871034
-0.2290875 -0.031291883 0.42833778
-0.22814041 -0.031267975 0.42801049
-0.22721522 -0.031246914 0.42772219
-0.22630709 -0.031228065 0.42746419
-0.22541535 -0.031211356 0.42723545
-0.22453898 -0.031196669 0.42703441
-0.22367592 -0.031183733 0.42685735
-0.22282577 -0.031172516 0.42670381
-0.22198802 -0.031162962 0.42657304
-0.2211609 -0.031154839 0.42646185
-0.22034542 -0.031148307 0.42637241
-0.21953987 -0.031143133 0.4263016
-0.21874385 -0.031139283 0.42624888
-0.21795751 -0.031136787 0.42621472
-0.21717983 -0.031135516 0.42619732
-0.21641085 -0.031135485 0.4261969
-0.21564968 -0.031136584 0.42621195
-0.21489695 -0.031138914 0.42624384
-0.21415147 -0.031142315 0.42629039
-0.21341343 -0.031146826 0.42635214
-0.21268214 -0.031152358 0.42642787
-0.21195701 -0.031158835 0.42651653
-0.21123949 -0.031166481 0.4266212
-0.21052733 -0.031174978 0.42673752
-0.20982139 -0.031184463 0.42686734
-0.20912167 -0.031194946 0.42701083
-0.20842749 -0.031206334 0.42716673
-0.207739 -0.031218663 0.42733547
-0.20705582 -0.031231884 0.42751646
-0.20637727 -0.031245906 0.42770839
-0.20570521 -0.031261016 0.42791525
-0.20503831 -0.031277031 0.42813444
-0.20437717 -0.031294048 0.42836738
-0.20372131 -0.031312004 0.42861319
-0.20307292 -0.031331252 0.42887664
-0.2024309 -0.031351633 0.42915562
-0.20179535 -0.031373173 0.42945051
-0.20116758 -0.031396095 0.42976427
-0.20054698 -0.03142032 0.43009585
-0.19993569 -0.031446196 0.43045005
-0.19933319 -0.031473663 0.43082604
-0.19874024 -0.031502858 0.43122566
-0.19815814 -0.031534009 0.43165207
-0.19758622 -0.03156703 0.43210408
-0.19702558 -0.031602122 0.43258446
-0.19647594 -0.031639267 0.43309289
-0.19593862 -0.031678699 0.43363267
-0.19541381 -0.031720478 0.43420458
-0.19490093 -0.031764537 0.43480766
-0.19440211 -0.031811256 0.43544716
-0.19391617 -0.031860467 0.43612078
-0.19344303 -0.031912189 0.43682879
-0.19298604 -0.031967014 0.43757924
-0.19254228 -0.032024488 0.43836597
-0.19211765 -0.032085627 0.4392029
-0.19170918 -0.032149985 0.44008386
-0.1913214 -0.032218363 0.44101986
-0.19095597 -0.032291092 0.44201538
-0.19061628 -0.032368802 0.44307911
-0.19030806 -0.032452535 0.44422528
-0.19004124 -0.032544062 0.44547814
-0.18982077 -0.032644335 0.44685075
-0.18967476 -0.032758329 0.44841114
-0.23811404 -0.030888358 0.43351826
-0.23647699 -0.030777071 0.43195635
-0.23513311 -0.030703332 0.43092144
-0.2339312 -0.030647703 0.43014067
-0.23281546 -0.030603031 0.42951369
-0.23175886 -0.03056586 0.428992
-0.23074417 -0.030533984 0.42854464
-0.22976179 -0.030506186 0.4281545
-0.22880666 -0.030481832 0.42781267
-0.22787127 -0.03045995 0.42750555
-0.22695453 -0.030440422 0.42723149
-0.22605407 -0.03042295 0.42698628
-0.22516896 -0.030407432 0.42676848
-0.22429791 -0.030393714 0.42657593
-0.22343971 -0.030381648 0.42640659
-0.22259443 -0.03037126 0.4262608
-0.2217603 -0.030362329 0.42613545
-0.2209373 -0.030354863 0.42603067
-0.22012526 -0.030348858 0.42594638
-0.21932317 -0.030344186 0.42588082
-0.21853027 -0.030340757 0.42583269
-0.21774736 -0.030338697 0.42580378
-0.21697271 -0.030337777 0.42579088
-0.21620642 -0.030338023 0.4257943
-0.21544831 -0.030339424 0.42581397
-0.21469803 -0.03034194 0.42584929
-0.21395554 -0.03034558 0.42590037
-0.2132194 -0.030350149 0.4259645
-0.21249066 -0.030355809 0.42604396
-0.21176861 -0.030362468 0.42613742
-0.21105267 -0.030370057 0.4262439
-0.21034285 -0.030378584 0.42636359
-0.20963909 -0.030388052 0.42649648
-0.20894085 -0.030398393 0.42664161
-0.20824848 -0.030409666 0.42679983
-0.20756124 -0.030421777 0.4269698
-0.20687911 -0.03043473 0.42715159
-0.20620272 -0.030448625 0.42734662
-0.20553137 -0.030463375 0.42755362
-0.20486422 -0.030478856 0.42777091
-0.20420326 -0.030495383 0.42800286
-0.20354711 -0.030512754 0.42824668
-0.20289713 -0.030531188 0.42850539
-0.20225227 -0.030550534 0.42877692
-0.20161456 -0.030571112 0.42906573
-0.20098323 -0.030592823 0.42937043
-0.20035942 -0.030615849 0.42969361
-0.1997437 -0.030640297 0.43003672
-0.19913681 -0.030666292 0.43040156
-0.1985386 -0.030693835 0.43078813
-0.19795007 -0.030723095 0.43119881
-0.19737163 -0.030754158 0.43163478
-0.19680427 -0.030787203 0.43209857
-0.19624758 -0.030822186 0.43258953
-0.19570275 -0.030859316 0.43311065
-0.19517067 -0.030898765 0.43366432
-0.19465034 -0.030940397 0.43424863
-0.19414198 -0.030984277 0.43486449
-0.19364813 -0.031030837 0.43551797
-0.19316731 -0.031079873 0.43620619
-0.19270091 -0.031131638 0.43693271
-0.19224776 -0.031185981 0.43769541
-0.19181097 -0.031243434 0.43850178
-0.19139153 -0.031304207 0.43935469
-0.19099003 -0.031368423 0.440256
-0.19060731 -0.031436279 0.44120833
-0.19024877 -0.031508707 0.44222486
-0.18991679 -0.031586159 0.44331193
-0.18962017 -0.031670175 0.44449109
-0.18936177 -0.031761315 0.44577023
-0.18915588 -0.03186208 0.44718444
-0.18901874 -0.031975333 0.44877398
-0.23904543 -0.030125201 0.43378937
-0.23729663 -0.030003022 0.43203005
-0.235911 -0.029926108 0.43092251
-0.23468195 -0.029868612 0.4300946
-0.23354973 -0.0298231 0.42943925
-0.23247859 -0.029785112 0.42889223
-0.2314523 -0.029752634 0.42842457
-0.23045991 -0.029724311 0.42801672
-0.22949214 -0.029698985 0.42765203
-0.22854662 -0.029676374 0.42732647
-0.22761972 -0.029656038 0.42703363
-0.22670995 -0.029637802 0.42677104
-0.22581564 -0.029621473 0.4265359
-0.2249357 -0.029606922 0.42632636
-0.22406965 -0.029594105 0.42614183
-0.22321518 -0.029582735 0.42597809
-0.22237386 -0.029573034 0.42583841
-0.2215431 -0.029564677 0.42571807
-0.22072388 -0.029557807 0.42561916
-0.21991457 -0.029552219 0.42553869
-0.21911569 -0.029547999 0.42547792
-0.21832593 -0.029544985 0.42543453
-0.21754578 -0.029543253 0.42540959
-0.21677391 -0.029542638 0.42540073
-0.21601045 -0.029543171 0.42540839
-0.21525538 -0.029544855 0.42543265
-0.21450759 -0.029547559 0.42547157
-0.21376742 -0.029551331 0.4255259
-0.21303426 -0.029556105 0.42559463
-0.21230806 -0.029561883 0.42567784
-0.21158811 -0.029568575 0.42577422
-0.21087442 -0.029576194 0.42588392
-0.21016665 -0.029584702 0.42600644
-0.20946506 -0.029594144 0.42614239
-0.20876895 -0.029604437 0.4262906
-0.20807818 -0.029615564 0.42645082
-0.20739231 -0.029627472 0.4266223
-0.2067121 -0.029640282 0.42680675
-0.20603663 -0.02965387 0.4270024
-0.20536606 -0.029668268 0.42720973
-0.20470035 -0.029683478 0.42742875
-0.20404008 -0.029699596 0.42766085
-0.20338379 -0.029716417 0.42790306
-0.20273314 -0.029734194 0.42815906
-0.202087 -0.02975277 0.42842653
-0.20144765 -0.029772494 0.42871055
-0.20081423 -0.029793249 0.42900941
-0.20018785 -0.029815212 0.42932567
-0.19956812 -0.02983834 0.42965871
-0.19895706 -0.02986295 0.43001306
-0.19835366 -0.029888909 0.43038687
-0.19776016 -0.029916568 0.43078515
-0.19717568 -0.029945813 0.43120626
-0.19660166 -0.029976886 0.43165371
-0.19603907 -0.030009955 0.43212989
-0.19548728 -0.030044951 0.43263379
-0.194947 -0.030082002 0.43316734
-0.19441973 -0.030121366 0.43373415
-0.19390403 -0.030162849 0.43433148
-0.19340183 -0.030206777 0.43496403
-0.19291419 -0.030253345 0.43563458
-0.19243862 -0.030302195 0.43633801
-0.19197777 -0.030353775 0.43708074
-0.19153146 -0.030408088 0.43786281
-0.19110076 -0.030465338 0.43868721
-0.19068697 -0.030525774 0.43955743
-0.19029137 -0.030589635 0.44047701
-0.18991621 -0.030657334 0.44145185
-0.18956636 -0.030729704 0.44249395
-0.18924554 -0.030807413 0.4436129
-0.18895684 -0.030891033 0.44481701
-0.18870859 -0.030982008 0.446127
-0.1885207 -0.031083712 0.44759151
-0.18840627 -0.031198459 0.44924378
-0.24011597 -0.029377973 0.43431041
-0.23817998 -0.029236495 0.43221888
-0.23672886 -0.029153802 0.43099636
-0.23546891 -0.02909418 0.43011495
-0.23431313 -0.029047083 0.42941868
-0.2332253 -0.029008122 0.42884269
-0.23218441 -0.02897476 0.42834949
-0.23117813 -0.028945509 0.42791706
-0.23019937 -0.028919518 0.42753282
-0.22924219 -0.028896075 0.42718625
-0.228304 -0.028874874 0.42687282
-0.22738387 -0.028855821 0.42659116
-0.22647871 -0.028838545 0.42633575
-0.22558933 -0.028823169 0.42610845
-0.22471413 -0.028809503 0.42590642
-0.22385138 -0.028797347 0.42572671
-0.22300106 -0.028786711 0.42556947
-0.22216274 -0.028777556 0.42543414
-0.22133487 -0.028769698 0.42531794
-0.22051877 -0.028763317 0.42522362
-0.2197127 -0.028758207 0.42514807
-0.21891604 -0.028754296 0.42509025
-0.21812914 -0.028751645 0.42505106
-0.21735138 -0.028750181 0.42502943
-0.21658233 -0.028749866 0.42502478
-0.215822 -0.02875071 0.42503724
-0.21506892 -0.02875253 0.42506415
-0.2143241 -0.028755469 0.4251076
-0.21358706 -0.02875948 0.42516688
-0.21285641 -0.02876438 0.42523932
-0.2121325 -0.028770229 0.42532581
-0.21141478 -0.028776966 0.42542541
-0.21070398 -0.028784698 0.4255397
-0.2099984 -0.028793199 0.42566538
-0.20929885 -0.028802592 0.42580426
-0.20860459 -0.02881279 0.425955
-0.20791575 -0.02882381 0.42611793
-0.20723198 -0.028835619 0.42629251
-0.20655264 -0.028848134 0.42647752
-0.20587912 -0.028861558 0.42667598
-0.20521002 -0.028875707 0.42688513
-0.20454542 -0.028890595 0.42710525
-0.20388541 -0.028906249 0.42733666
-0.20323013 -0.028922694 0.42757976
-0.20257957 -0.02893994 0.42783472
-0.20193364 -0.028957978 0.42810139
-0.20129336 -0.028976971 0.42838219
-0.20065787 -0.028996803 0.42867535
-0.200029 -0.029017746 0.428985
-0.1994064 -0.029039767 0.42931053
-0.19879147 -0.029063081 0.42965519
-0.19818452 -0.029087748 0.43001986
-0.19758596 -0.029113844 0.43040565
-0.196996 -0.029141422 0.43081334
-0.19641665 -0.029170789 0.4312475
-0.19584739 -0.029201897 0.43170738
-0.19528922 -0.029234914 0.43219548
-0.19474208 -0.029269854 0.43271202
-0.19420746 -0.029306959 0.43326059
-0.19368619 -0.029346392 0.43384352
-0.19317654 -0.029387912 0.43445733
-0.19268137 -0.029431982 0.43510884
-0.19219837 -0.029478276 0.43579325
-0.19172893 -0.029527044 0.4365142
-0.19127357 -0.029578386 0.43727323
-0.19083329 -0.029632498 0.43807319
-0.19040896 -0.029689547 0.43891656
-0.19000272 -0.029749904 0.43980888
-0.18961407 -0.029813534 0.44074953
-0.18924788 -0.029881243 0.44175053
-0.18890877 -0.029953822 0.4428235
-0.18859649 -0.030031288 0.44396871
-0.18831871 -0.030114932 0.44520527
-0.18809104 -0.030207342 0.44657141
-0.18791804 -0.03030936 0.44807962
-0.18782602 -0.030425383 0.44979483
-0.24148661 -0.028664263 0.4353691
-0.2391374 -0.028478026 0.43254042
-0.23759317 -0.028386746 0.43115401
-0.23629014 -0.028323777 0.4301976
-0.23510726 -0.028274843 0.42945436
-0.23399808 -0.02823448 0.42884129
-0.23293969 -0.028199997 0.42831755
-0.23192088 -0.028170092 0.42786333
-0.23092712 -0.028143039 0.42745245
-0.2299574 -0.028118743 0.42708343
-0.22900797 -0.028096776 0.4267498
-0.22807568 -0.028076772 0.42644593
-0.22716029 -0.028058715 0.42617169
-0.22626071 -0.028042499 0.42592537
-0.22537506 -0.028027903 0.4257037
-0.22450238 -0.028014828 0.4255051
-0.22364259 -0.028003275 0.42532963
-0.22279526 -0.02799321 0.42517674
-0.22195943 -0.027984522 0.4250448
-0.22113483 -0.027977196 0.42493352
-0.22032097 -0.027971184 0.42484221
-0.21951731 -0.027966427 0.42476997
-0.21872352 -0.027962901 0.42471641
-0.21793912 -0.027960554 0.42468077
-0.21716377 -0.027959358 0.42466259
-0.21639757 -0.027959332 0.4246622
-0.21563961 -0.027960377 0.42467806
-0.21488979 -0.027962487 0.42471012
-0.21414746 -0.02796559 0.42475724
-0.2134126 -0.027969694 0.42481959
-0.2126848 -0.027974756 0.42489648
-0.21196346 -0.027980709 0.4249869
-0.21124886 -0.027987599 0.42509153
-0.21054006 -0.027995309 0.42520863
-0.20983727 -0.028003877 0.42533877
-0.20913959 -0.028013192 0.42548025
-0.20844768 -0.028023353 0.42563459
-0.20776065 -0.028034247 0.42580006
-0.20707887 -0.028045934 0.42597756
-0.20640159 -0.028058317 0.42616564
-0.20572925 -0.028071467 0.42636538
-0.20506145 -0.02808534 0.42657608
-0.20439817 -0.028099936 0.42679778
-0.20373909 -0.028115224 0.42702997
-0.20308493 -0.02813131 0.42727429
-0.20243515 -0.028148124 0.42752969
-0.20178966 -0.02816567 0.42779619
-0.20114882 -0.028184 0.4280746
-0.20051272 -0.028203137 0.42836526
-0.19988176 -0.028223149 0.42866921
-0.19925737 -0.02824425 0.42898968
-0.19863957 -0.02826645 0.42932689
-0.19802873 -0.028289817 0.42968181
-0.19742593 -0.028314525 0.43005708
-0.19683188 -0.028340684 0.4304544
-0.19624729 -0.028368419 0.43087566
-0.19567224 -0.028397761 0.43132132
-0.19510795 -0.028428903 0.43179432
-0.19455522 -0.028461987 0.43229681
-0.19401319 -0.028496908 0.4328272
-0.19348525 -0.028534187 0.43339342
-0.19296901 -0.028573504 0.4339906
-0.19246599 -0.028615106 0.43462247
-0.19197635 -0.028659046 0.43528986
-0.19149965 -0.028705286 0.43599218
-0.19103658 -0.028753961 0.43673146
-0.19058813 -0.028805247 0.43751043
-0.19015473 -0.028859241 0.43833053
-0.18973678 -0.028916044 0.43919328
-0.18933789 -0.028976241 0.44010758
-0.18896046 -0.02904024 0.44107965
-0.1886041 -0.029108033 0.44210932
-0.18827203 -0.029180165 0.44320491
-0.18797262 -0.029257998 0.44438708
-0.18771249 -0.029342638 0.44567263
-0.18749554 -0.029434785 0.44707221
-0.18735154 -0.029539227 0.44865856
-0.24020624 -0.027731126 0.43306077
-0.23852213 -0.027626542 0.43142754
-0.23715164 -0.027557718 0.43035275
-0.2359331 -0.027506158 0.42954755
-0.23479837 -0.02746406 0.42889014
-0.23372136 -0.027428458 0.42833415
-0.23268585 -0.027397504 0.42785078
-0.2316775 -0.027369555 0.42741433
-0.23069356 -0.027344313 0.4270201
-0.22973037 -0.027321367 0.42666179
-0.2287862 -0.027300538 0.42633653
-0.22785944 -0.027281653 0.4260416
-0.22694841 -0.02726453 0.42577419
-0.22605188 -0.027249038 0.42553228
-0.22516924 -0.027235121 0.42531493
-0.22429939 -0.027222661 0.42512035
-0.22344249 -0.027211694 0.42494908
-0.22259726 -0.027202075 0.42479888
-0.22176354 -0.027193801 0.42466968
-0.22094116 -0.027186867 0.42456138
-0.22012962 -0.027181223 0.42447326
-0.21932791 -0.027176756 0.42440349
-0.21853673 -0.027173569 0.42435372
-0.21775445 -0.02717147 0.42432094
-0.21698216 -0.027170606 0.42430744
-0.21621835 -0.027170802 0.42431051
-0.21546328 -0.027172102 0.4243308
-0.2147159 -0.027174382 0.42436641
-0.21397646 -0.02717769 0.42441806
-0.21324451 -0.027181976 0.424485
-0.21251942 -0.027187169 0.42456609
-0.21180074 -0.027193224 0.42466065
-0.21108854 -0.027200157 0.42476892
-0.21038261 -0.02720795 0.42489064
-0.20968223 -0.027216524 0.42502451
-0.20898698 -0.027225826 0.4251698
-0.20829757 -0.027235962 0.42532808
-0.2076126 -0.027246756 0.42549664
-0.20693281 -0.027258312 0.42567709
-0.20625748 -0.027270542 0.42586809
-0.20558654 -0.027283447 0.42606962
-0.20492053 -0.027297106 0.42628291
-0.20425867 -0.027311422 0.42650649
-0.20360069 -0.02732637 0.4267399
-0.20294747 -0.02734207 0.42698509
-0.20229825 -0.02735843 0.42724058
-0.20165341 -0.02737551 0.42750731
-0.20101306 -0.027393334 0.42778566
-0.20037675 -0.027411848 0.42807478
-0.19974531 -0.027431175 0.42837659
-0.19911936 -0.027451407 0.42869255
-0.19849899 -0.027472571 0.42902306
-0.19788542 -0.027494844 0.42937088
-0.19727924 -0.027518323 0.42973754
-0.19668128 -0.027543139 0.43012506
-0.19609207 -0.02756938 0.43053487
-0.19551218 -0.027597146 0.43096846
-0.19494206 -0.02762652 0.43142718
-0.19438294 -0.027657691 0.43191397
-0.19383612 -0.027690874 0.43243217
-0.19330071 -0.027725961 0.43298009
-0.19277826 -0.027763197 0.43356159
-0.19226883 -0.02780262 0.43417725
-0.19177239 -0.027844252 0.43482739
-0.19128849 -0.027888054 0.43551141
-0.19081768 -0.027934136 0.43623105
-0.19036131 -0.027982717 0.43698972
-0.18992002 -0.028033933 0.4377895
-0.18949421 -0.028087869 0.4386318
-0.18908647 -0.028144944 0.43952313
-0.18869652 -0.028205164 0.44046351
-0.18832587 -0.028268786 0.44145709
-0.18797871 -0.028336495 0.44251445
-0.18766129 -0.02840928 0.44365108
-0.18737698 -0.02848772 0.44487604
-0.18712977 -0.028572503 0.44620004
-0.18694142 -0.028667042 0.44767642
-0.1868203 -0.028772756 0.44932729
-0.2414826 -0.027005348 0.43395066
-0.23952118 -0.026873108 0.4318257
-0.23806377 -0.026796738 0.4305985
-0.23679504 -0.026741175 0.42970565
-0.23562922 -0.026696905 0.4289943
-0.23453012 -0.026659932 0.42840016
-0.23347504 -0.026627732 0.42788273
-0.23245077 -0.026598845 0.42741853
-0.23145133 -0.026572615 0.42699707
-0.23047434 -0.026548797 0.42661431
-0.22951746 -0.026527144 0.42626637
-0.22857748 -0.026507305 0.42594758
-0.22765432 -0.026489289 0.42565808
-0.22674598 -0.026472881 0.42539442
-0.22585179 -0.026458019 0.42515561
-0.22497164 -0.026444707 0.42494169
-0.22410418 -0.026432799 0.42475036
-0.22324927 -0.026422298 0.42458159
-0.22240573 -0.026413074 0.42443338
-0.2215738 -0.026405167 0.42430633
-0.22075322 -0.026398566 0.42420024
-0.21994327 -0.026393192 0.4241139
-0.2191436 -0.02638902 0.42404684
-0.21835464 -0.026386114 0.42400014
-0.21757531 -0.026384354 0.42397186
-0.2168051 -0.026383689 0.42396119
-0.21604396 -0.02638413 0.42396829
-0.2152915 -0.026385637 0.42399248
-0.21454702 -0.026388137 0.42403266
-0.21381061 -0.02639165 0.4240891
-0.21308126 -0.026396062 0.42416
-0.21235901 -0.026401389 0.42424563
-0.21164325 -0.026407566 0.42434487
-0.21093401 -0.026414605 0.42445797
-0.21023045 -0.026422407 0.42458335
-0.20953326 -0.026431069 0.42472255
-0.20884055 -0.026440363 0.42487189
-0.20815341 -0.026450435 0.42503372
-0.20747104 -0.026461188 0.42520651
-0.20679341 -0.026472626 0.42539033
-0.20612021 -0.026484719 0.42558464
-0.20545106 -0.026497427 0.42578885
-0.20478646 -0.026510818 0.42600402
-0.20412631 -0.026524888 0.42623013
-0.20346986 -0.026539547 0.42646569
-0.20281754 -0.02655486 0.42671174
-0.20216924 -0.026570816 0.42696813
-0.20152536 -0.026587475 0.42723584
-0.20088506 -0.026604738 0.42751324
-0.20024915 -0.026622718 0.42780218
-0.1996177 -0.026641434 0.42810291
-0.19899063 -0.02666088 0.42841539
-0.1983691 -0.026681224 0.42874229
-0.19775355 -0.026702533 0.42908472
-0.19714443 -0.026724884 0.42944387
-0.19654283 -0.026748432 0.42982227
-0.19594951 -0.026773298 0.43022186
-0.19536477 -0.026799543 0.43064356
-0.19478996 -0.02682736 0.43109056
-0.19422615 -0.026856923 0.43156561
-0.19367391 -0.02688833 0.43207029
-0.193133 -0.02692157 0.43260443
-0.19260338 -0.026956659 0.43316829
-0.19208708 -0.026993908 0.43376684
-0.19158366 -0.027033279 0.43439949
-0.19109336 -0.027074829 0.43506715
-0.19061576 -0.02711853 0.43576941
-0.19015338 -0.027164767 0.43651238
-0.18970595 -0.027213536 0.43729606
-0.18927211 -0.027264668 0.43811768
-0.18885453 -0.02731858 0.43898401
-0.18845358 -0.027375363 0.43989646
-0.18807204 -0.027435457 0.44086212
-0.18771292 -0.027499346 0.44188875
-0.18738006 -0.027567644 0.44298622
-0.18707447 -0.027640553 0.44415781
-0.18680331 -0.0277192 0.44542161
-0.18658096 -0.027805801 0.4468132
-0.18641454 -0.027901527 0.44835141
-0.24360913 -0.026368031 0.43635765
-0.2406323 -0.02613025 0.43242264
-0.23903127 -0.026040806 0.43094245
-0.23769906 -0.025980158 0.42993882
-0.23649479 -0.025933145 0.4291608
-0.23536687 -0.025894221 0.42851666
-0.23429073 -0.025860757 0.42796287
-0.23324755 -0.025830721 0.42746583
-0.23223157 -0.025803508 0.42701548
-0.23123987 -0.025778821 0.42660695
-0.23026837 -0.025756229 0.42623308
-0.22931503 -0.025735524 0.42589042
-0.2283791 -0.025716638 0.42557791
-0.22745888 -0.025699401 0.42529264
-0.22655265 -0.025683634 0.42503172
-0.22566083 -0.025669398 0.42479613
-0.22478199 -0.025656547 0.42458346
-0.22391555 -0.025645029 0.42439285
-0.22306161 -0.025634868 0.4242247
-0.22221953 -0.025626004 0.42407802
-0.22138901 -0.025618417 0.42395246
-0.22056966 -0.025612075 0.4238475
-0.21976183 -0.025607031 0.42376405
-0.21896406 -0.025603127 0.42369944
-0.21817675 -0.025600424 0.42365471
-0.21739958 -0.025598897 0.42362943
-0.21663192 -0.025598481 0.42362255
-0.21587346 -0.025599154 0.42363369
-0.21512359 -0.025600854 0.42366183
-0.2143822 -0.025603577 0.42370689
-0.21364892 -0.025607295 0.4237684
-0.21292271 -0.025611887 0.4238444
-0.21220334 -0.025617341 0.42393464
-0.21149117 -0.025623703 0.42403996
-0.21078466 -0.025630804 0.42415744
-0.21008429 -0.025638701 0.42428815
-0.20938933 -0.025647322 0.42443079
-0.20869997 -0.025656695 0.42458591
-0.20801559 -0.025666749 0.4247523
-0.20733552 -0.025677413 0.42492875
-0.20666002 -0.025688721 0.42511591
-0.20598882 -0.025700655 0.42531338
-0.20532216 -0.025713243 0.4255217
-0.20465912 -0.025726382 0.42573914
-0.20400058 -0.025740186 0.42596757
-0.20334572 -0.025754562 0.42620549
-0.20269471 -0.025769535 0.42645329
-0.2020475 -0.025785111 0.42671102
-0.20140435 -0.025801321 0.4269793
-0.20076455 -0.025818089 0.42725679
-0.20012957 -0.025835609 0.42754671
-0.19949836 -0.025853753 0.42784697
-0.19887109 -0.025872551 0.42815804
-0.19824842 -0.025892094 0.42848146
-0.19763152 -0.025912547 0.42881995
-0.19702043 -0.025933925 0.42917374
-0.19641539 -0.025956275 0.42954358
-0.19581898 -0.025979944 0.42993528
-0.19523005 -0.026004799 0.43034658
-0.19465135 -0.026031218 0.43078381
-0.19408266 -0.026059195 0.43124679
-0.19352505 -0.02608889 0.4317382
-0.1929782 -0.026120281 0.43225768
-0.19244336 -0.026153559 0.4328084
-0.19192018 -0.0261887 0.43338993
-0.19141005 -0.026225917 0.43400583
-0.19091406 -0.026265383 0.43465894
-0.19043155 -0.026307039 0.4353483
-0.18996224 -0.026350869 0.43607363
-0.1895074 -0.026397081 0.43683836
-0.18906648 -0.026445625 0.43764171
-0.18864056 -0.026496684 0.43848667
-0.1882309 -0.026550462 0.43937665
-0.18784152 -0.026607573 0.44032174
-0.18747057 -0.026667787 0.44131821
-0.18712348 -0.026731925 0.44237962
-0.18680064 -0.026800092 0.4435077
-0.18651155 -0.026873708 0.44472593
-0.18626145 -0.0269536 0.44604805
-0.18606178 -0.027041517 0.44750297
-0.18592401 -0.027139235 0.44912007
-0.24193665 -0.025405303 0.43336186
-0.24008124 -0.025292188 0.43143237
-0.23865275 -0.025223462 0.43026003
-0.23739542 -0.025172435 0.42938963
-0.23623492 -0.025131375 0.42868921
-0.23513238 -0.02509623 0.42808974
-0.23406972 -0.025065126 0.42755917
-0.23303647 -0.025036978 0.42707899
-0.23202826 -0.025011338 0.42664164
-0.23104137 -0.024987835 0.42624074
-0.23007387 -0.024966279 0.42587304
-0.22912414 -0.024946515 0.42553589
-0.22819021 -0.024928343 0.42522591
-0.22727175 -0.024911743 0.42494276
-0.22636715 -0.024896555 0.42468369
-0.22547615 -0.024882767 0.42444849
-0.22459807 -0.024870314 0.42423606
-0.22373229 -0.024859143 0.42404553
-0.22287913 -0.024849303 0.42387766
-0.22203796 -0.024840735 0.42373151
-0.22120838 -0.024833411 0.42360657
-0.22039025 -0.024827324 0.42350274
-0.21958296 -0.024822421 0.42341912
-0.21878715 -0.024818785 0.4233571
-0.21800175 -0.024816312 0.4233149
-0.21722664 -0.024814995 0.42329243
-0.21646121 -0.024814777 0.42328873
-0.2157055 -0.024815677 0.42330408
-0.21495892 -0.024817638 0.42333752
-0.21422085 -0.024820598 0.423388
-0.21349052 -0.024824478 0.4234542
-0.21276791 -0.024829289 0.42353627
-0.2120523 -0.024834953 0.42363289
-0.21134318 -0.024841424 0.42374325
-0.21064028 -0.024848672 0.4238669
-0.2099427 -0.024856605 0.4240022
-0.20925121 -0.024865316 0.42415082
-0.20856446 -0.024874661 0.42431021
-0.2078827 -0.024884669 0.42448094
-0.20720547 -0.024895297 0.42466223
-0.20653272 -0.024906542 0.42485404
-0.20586407 -0.02491837 0.4250558
-0.20519926 -0.024930751 0.42526698
-0.20453823 -0.024943685 0.42548764
-0.20388123 -0.024957214 0.4257184
-0.20322798 -0.024971303 0.42595872
-0.20257857 -0.024985971 0.42620894
-0.20193264 -0.025001183 0.42646843
-0.20129018 -0.025016943 0.42673725
-0.20065157 -0.025033304 0.42701635
-0.20001663 -0.025050253 0.42730546
-0.19938609 -0.025067884 0.4276062
-0.19875915 -0.025086107 0.42791703
-0.19813664 -0.025105033 0.42823988
-0.19751857 -0.025124673 0.42857489
-0.19690534 -0.025145084 0.42892307
-0.19629891 -0.025166528 0.42928886
-0.1956986 -0.02518893 0.42967099
-0.1951071 -0.025212647 0.43007556
-0.1945243 -0.025237685 0.43050265
-0.19395116 -0.025264177 0.43095458
-0.19338807 -0.025292203 0.4314326
-0.19283642 -0.025321955 0.43194011
-0.1922957 -0.025353389 0.43247631
-0.19176741 -0.025386723 0.43304494
-0.19125277 -0.025422147 0.43364918
-0.19075033 -0.025459489 0.43428618
-0.19026187 -0.025499012 0.43496037
-0.18978617 -0.025540583 0.43566945
-0.18932457 -0.025584402 0.43641692
-0.18887635 -0.025630401 0.43720159
-0.1884445 -0.025679018 0.4380309
-0.18802862 -0.025730232 0.43890449
-0.18762988 -0.025784232 0.43982562
-0.1872492 -0.025841184 0.44079709
-0.18688869 -0.02590142 0.44182459
-0.18655479 -0.025965871 0.44292399
-0.18624951 -0.026034877 0.4441011
-0.18597467 -0.026108755 0.44536132
-0.18574986 -0.026190327 0.44675276
-0.18557496 -0.026279679 0.44827691
-0.243901 -0.024743579 0.43547341
-0.24124886 -0.024553601 0.43212989
-0.23967171 -0.024472151 0.43069643
-0.23834309 -0.024415633 0.42970175
-0.23713863 -0.024371507 0.42892516
-0.23600599 -0.024334498 0.4282738
-0.23491946 -0.024302013 0.4277021
-0.23386648 -0.024272798 0.42718792
-0.23283975 -0.024246123 0.42671844
-0.23183681 -0.024221756 0.42628962
-0.23085444 -0.024199383 0.42589587
-0.22988985 -0.024178732 0.42553243
-0.22894223 -0.024159733 0.42519805
-0.22801009 -0.024142245 0.42489025
-0.22709252 -0.024126187 0.42460763
-0.22618809 -0.024111422 0.42434779
-0.22529727 -0.024098011 0.42411175
-0.22441933 -0.024085891 0.42389846
-0.22355384 -0.024075028 0.42370728
-0.22270069 -0.024065426 0.4235383
-0.2218594 -0.024057042 0.42339075
-0.22102951 -0.024049843 0.42326403
-0.22021192 -0.024043936 0.42316008
-0.21940565 -0.024039228 0.42307723
-0.21861084 -0.024035746 0.42301595
-0.21782665 -0.024033414 0.42297488
-0.21705362 -0.024032298 0.42295527
-0.21629114 -0.024032351 0.42295617
-0.21553855 -0.024033502 0.42297643
-0.21479528 -0.024035705 0.42301524
-0.2140604 -0.024038868 0.42307088
-0.21333419 -0.024043029 0.42314413
-0.21261556 -0.024048079 0.423233
-0.21190389 -0.024053954 0.42333639
-0.21119888 -0.024060633 0.42345393
-0.21049951 -0.024068002 0.42358363
-0.20980588 -0.024076084 0.42372587
-0.20911777 -0.024084862 0.42388037
-0.20843397 -0.024094202 0.42404473
-0.20775558 -0.024104238 0.42422137
-0.20708103 -0.024114797 0.42440718
-0.20641093 -0.024125952 0.42460352
-0.20574476 -0.024137653 0.42480946
-0.20508233 -0.024149882 0.42502466
-0.20442361 -0.024162641 0.42524922
-0.20376837 -0.024175908 0.42548272
-0.20311679 -0.024189712 0.42572567
-0.20246877 -0.024204046 0.42597792
-0.20182404 -0.024218885 0.42623907
-0.20118298 -0.024234278 0.42651001
-0.20054558 -0.024250234 0.4267908
-0.19991145 -0.024266707 0.42708072
-0.19928107 -0.024283765 0.42738095
-0.19865438 -0.02430141 0.42769149
-0.19803208 -0.024319729 0.42801389
-0.19741333 -0.024338629 0.42834651
-0.19679923 -0.024358256 0.42869192
-0.19619089 -0.02437875 0.42905262
-0.1955888 -0.024400186 0.42942989
-0.19499457 -0.02442278 0.42982751
-0.19440834 -0.024446558 0.430246
-0.19383149 -0.024471711 0.43068868
-0.1932635 -0.024498191 0.4311547
-0.19270635 -0.024526263 0.43164876
-0.19216134 -0.024556113 0.43217412
-0.1916277 -0.024587667 0.43272945
-0.19110757 -0.024621222 0.43331999
-0.19059947 -0.024656605 0.43394271
-0.19010431 -0.024693962 0.43460017
-0.18962276 -0.024733404 0.43529433
-0.18915661 -0.024775188 0.43602973
-0.18870337 -0.024819024 0.4368012
-0.18826491 -0.024865177 0.43761346
-0.18784156 -0.024913723 0.43846786
-0.18743357 -0.024964724 0.43936545
-0.18704425 -0.025018658 0.44031465
-0.18667711 -0.025076032 0.44132438
-0.18633091 -0.02513672 0.44239247
-0.18600824 -0.025201116 0.44352582
-0.18572155 -0.025270967 0.44475514
-0.18547107 -0.025346372 0.44608223
-0.18526886 -0.025429061 0.44753751
-0.18513092 -0.025521331 0.44916141
-0.24264666 -0.023834856 0.43323386
-0.24077998 -0.023727914 0.43129
-0.23934451 -0.02366291 0.43010846
-0.23808113 -0.02361455 0.42922947
-0.23691094 -0.023575151 0.42851332
-0.2357986 -0.023541266 0.42789742
-0.23472361 -0.023510903 0.42734551
-0.23367724 -0.023483215 0.42684224
-0.23265684 -0.023457961 0.42638323
-0.2316581 -0.023434734 0.42596102
-0.2306779 -0.023413232 0.42557019
-0.22971572 -0.023393421 0.42521009
-0.2287696 -0.023375118 0.42487743
-0.22783785 -0.023358164 0.42456928
-0.22691976 -0.023342503 0.42428461
-0.22601533 -0.023328148 0.42402366
-0.22512391 -0.02331504 0.42378542
-0.22424524 -0.023303168 0.42356962
-0.22337869 -0.02329248 0.42337534
-0.222524 -0.023282958 0.42320228
-0.2216813 -0.023274628 0.42305088
-0.22085103 -0.023267552 0.42292225
-0.22003253 -0.023261672 0.42281535
-0.21922638 -0.023257058 0.42273152
-0.2184322 -0.023253689 0.42267027
-0.21764988 -0.023251563 0.42263162
-0.21687901 -0.023250649 0.42261502
-0.21611895 -0.023250893 0.42261943
-0.2153699 -0.023252325 0.42264548
-0.21463047 -0.023254812 0.42269066
-0.21390033 -0.023258325 0.42275453
-0.21317853 -0.023262773 0.42283538
-0.21246451 -0.023268107 0.42293233
-0.21175742 -0.023274239 0.42304379
-0.21105699 -0.023281151 0.42316943
-0.21036254 -0.023288775 0.42330801
-0.20967311 -0.023297012 0.42345771
-0.20898837 -0.023305831 0.42361805
-0.20830882 -0.023315299 0.42379013
-0.20763354 -0.023325315 0.42397216
-0.20696214 -0.023335842 0.42416352
-0.20629476 -0.023346903 0.42436457
-0.20563129 -0.023358488 0.42457515
-0.20497112 -0.02337054 0.4247942
-0.20431463 -0.0233831 0.42502251
-0.20366138 -0.023396129 0.42525932
-0.2030115 -0.023409644 0.42550498
-0.20236525 -0.023423683 0.42576015
-0.20172212 -0.023438187 0.42602381
-0.2010823 -0.023453193 0.42629656
-0.20044541 -0.023468656 0.42657763
-0.19981256 -0.023484714 0.42686948
-0.1991829 -0.02350127 0.42717043
-0.19855687 -0.023518385 0.42748153
-0.19793451 -0.023536073 0.42780301
-0.19731593 -0.023554347 0.42813519
-0.19670139 -0.023573251 0.42847878
-0.19609146 -0.023592858 0.42883515
-0.1954881 -0.023613414 0.42920879
-0.19489123 -0.02363492 0.4295997
-0.19430201 -0.023657531 0.43001068
-0.19372131 -0.023681363 0.43044388
-0.19314913 -0.023706432 0.43089956
-0.19258845 -0.023733122 0.43138468
-0.19203912 -0.023761433 0.43189925
-0.19150047 -0.0237913 0.43244216
-0.19097461 -0.023823008 0.43301848
-0.19046065 -0.023856467 0.43362665
-0.18996128 -0.023892038 0.43427321
-0.18947515 -0.023929574 0.43495548
-0.18900257 -0.023969142 0.43567467
-0.18854403 -0.024010826 0.43643236
-0.18809862 -0.024054542 0.43722695
-0.18766858 -0.024100596 0.43806407
-0.18725604 -0.024149299 0.43894929
-0.18685961 -0.024200501 0.43987998
-0.18648198 -0.024254587 0.44086307
-0.18612438 -0.024311751 0.4419021
-0.18579392 -0.024372965 0.44301477
-0.18549086 -0.024438322 0.44420272
-0.18522026 -0.024508538 0.44547901
-0.18499547 -0.024585456 0.44687709
-0.18482582 -0.024670405 0.44842118
-0.24203639 -0.022995407 0.43214425
-0.24041885 -0.022915529 0.43064314
-0.23907489 -0.022861294 0.42962393
-0.23785566 -0.022818672 0.42882296
-0.23671032 -0.022782886 0.42815045
-0.23560968 -0.02275118 0.42755461
-0.23454294 -0.022722552 0.42701659
-0.23350278 -0.022696316 0.42652357
-0.2324865 -0.022672238 0.42607108
-0.23149009 -0.022649942 0.42565209
-0.2305121 -0.022629308 0.4252643
-0.22955048 -0.022610147 0.42490423
-0.22860424 -0.022592379 0.42457032
-0.22767203 -0.022575881 0.42426029
-0.22675312 -0.022560596 0.42397305
-0.22584777 -0.022546563 0.4237093
-0.22495478 -0.022533672 0.42346704
-0.22407332 -0.02252185 0.42324489
-0.22320428 -0.022511201 0.42304477
-0.22234686 -0.022501655 0.42286536
-0.22150147 -0.022493266 0.42270771
-0.22066927 -0.022486161 0.42257419
-0.21984889 -0.022480216 0.42246246
-0.21904214 -0.022475628 0.42237625
-0.21824791 -0.022472298 0.42231366
-0.21746695 -0.022470314 0.42227641
-0.21669853 -0.022469619 0.42226332
-0.21594226 -0.022470184 0.42227393
-0.21519735 -0.022471935 0.42230687
-0.21446282 -0.022474788 0.42236048
-0.21373782 -0.022478666 0.42243335
-0.21302152 -0.022483487 0.42252395
-0.21231321 -0.022489192 0.42263114
-0.21161191 -0.02249568 0.4227531
-0.21091698 -0.022502895 0.4228887
-0.2102274 -0.022510737 0.42303607
-0.20954286 -0.022519179 0.42319468
-0.20886324 -0.022528211 0.42336443
-0.20818748 -0.022537727 0.42354324
-0.20751587 -0.022547765 0.42373189
-0.20684808 -0.022558294 0.42392978
-0.20618373 -0.022569276 0.42413616
-0.20552316 -0.022580756 0.4243519
-0.2048656 -0.022592654 0.42457551
-0.20421164 -0.022605041 0.42480826
-0.20356062 -0.022617847 0.42504892
-0.20291279 -0.022631105 0.42529809
-0.20226821 -0.022644829 0.42555597
-0.20162632 -0.022658957 0.42582151
-0.20098777 -0.022673573 0.42609617
-0.2003525 -0.022688672 0.42637992
-0.1997202 -0.022704223 0.42667216
-0.19909158 -0.022720316 0.42697459
-0.19846576 -0.022736855 0.4272854
-0.19784378 -0.022753963 0.42760691
-0.19722536 -0.022771617 0.42793867
-0.19661057 -0.02278983 0.42828095
-0.19600075 -0.022808766 0.42863679
-0.19539577 -0.022828415 0.42900607
-0.19479685 -0.022848934 0.42939165
-0.19420485 -0.022870431 0.42979565
-0.19362086 -0.022893047 0.43022066
-0.19304575 -0.0229169 0.43066892
-0.19248168 -0.022942262 0.43114552
-0.19192703 -0.022968955 0.43164718
-0.19138359 -0.022997214 0.43217823
-0.19085291 -0.023027241 0.43274254
-0.1903359 -0.023059174 0.43334264
-0.18983105 -0.023092849 0.43397546
-0.18933959 -0.023128439 0.43464428
-0.18886048 -0.023165839 0.43534714
-0.18839686 -0.023205459 0.43609169
-0.18794754 -0.023247181 0.43687576
-0.18751243 -0.023291016 0.43769956
-0.18709302 -0.023337184 0.43856716
-0.18668948 -0.023385732 0.4394795
-0.1863036 -0.023436913 0.44044134
-0.18593945 -0.02349128 0.44146302
-0.18559685 -0.023548849 0.44254491
-0.18527937 -0.023610113 0.44369623
-0.18499725 -0.023676436 0.44494262
-0.18475175 -0.023748046 0.44628835
-0.1845555 -0.02382664 0.44776532
-0.18442495 -0.023914445 0.44941542
-0.24363102 -0.022290478 0.43359494
-0.24160691 -0.02217648 0.43137744
-0.24013169 -0.022112288 0.43012878
-0.23884551 -0.022065144 0.42921174
-0.2376579 -0.022026829 0.42846644
-0.23652855 -0.021993682 0.42782167
-0.23543686 -0.021963831 0.427241
-0.23437637 -0.021936703 0.42671332
-0.23334102 -0.021911761 0.42622811
-0.23232661 -0.021888623 0.42577803
-0.23133223 -0.021867225 0.42536181
-0.23035537 -0.021847349 0.42497516
-0.22939382 -0.021828795 0.42461425
-0.22844639 -0.021811465 0.42427716
-0.22751293 -0.021795357 0.42396381
-0.22659259 -0.0217804 0.42367288
-0.22568366 -0.021766445 0.42340142
-0.22478746 -0.021753626 0.42315206
-0.22390203 -0.021741765 0.42292136
-0.22302788 -0.021730922 0.42271045
-0.22216603 -0.021721207 0.42252147
-0.22131623 -0.021712609 0.42235419
-0.22048016 -0.021705301 0.42221206
-0.21965675 -0.021699194 0.42209327
-0.21884824 -0.021694522 0.42200238
-0.21805406 -0.021691242 0.42193857
-0.21727426 -0.021689376 0.42190227
-0.21650869 -0.02168892 0.42189339
-0.2157567 -0.021689827 0.42191106
-0.21501686 -0.021691967 0.42195266
-0.21428862 -0.021695295 0.42201743
-0.21357073 -0.021699701 0.42210311
-0.21286118 -0.021704985 0.42220592
-0.21216001 -0.021711167 0.42232618
-0.21146573 -0.021718102 0.42246106
-0.21077698 -0.021725656 0.42260802
-0.21009347 -0.021733807 0.42276657
-0.20941541 -0.021742584 0.42293727
-0.20874082 -0.021751786 0.42311627
-0.20806976 -0.021761423 0.42330375
-0.20740288 -0.021771574 0.42350119
-0.20673883 -0.021782095 0.42370585
-0.20607819 -0.021793054 0.42391905
-0.20542024 -0.021804383 0.42413941
-0.20476602 -0.021816192 0.42436913
-0.20411433 -0.021828363 0.42460585
-0.20346576 -0.021840958 0.42485085
-0.20281959 -0.021853907 0.42510274
-0.20217711 -0.021867353 0.42536432
-0.2015368 -0.021881139 0.42563245
-0.20089981 -0.02189539 0.42590967
-0.20026533 -0.021910027 0.4261944
-0.19963436 -0.021925161 0.42648879
-0.19900633 -0.021940736 0.42679176
-0.19838132 -0.021956766 0.42710358
-0.19775933 -0.021973258 0.42742437
-0.19714108 -0.021990297 0.4277558
-0.19652717 -0.022007953 0.42809927
-0.195917 -0.02202617 0.42845362
-0.19531091 -0.022044992 0.42881975
-0.19471033 -0.022064589 0.42920095
-0.19411622 -0.02208508 0.42959952
-0.19353019 -0.022106655 0.4300192
-0.19295241 -0.022129351 0.43046069
-0.19238378 -0.022153284 0.43092623
-0.19182479 -0.022178525 0.43141723
-0.19127852 -0.022205448 0.43194094
-0.19074383 -0.022233944 0.43249524
-0.1902207 -0.022264024 0.43308035
-0.18971042 -0.022295864 0.4336997
-0.18921447 -0.022329658 0.43435708
-0.18873255 -0.022365397 0.43505225
-0.18826415 -0.022403041 0.43578452
-0.18780893 -0.022442577 0.43655357
-0.18736799 -0.022484159 0.43736243
