# .PCD v0.7 - Point Cloud Data file format
VERSION 0.7
FIELDS x y z
SIZE 4 4 4
TYPE F F F
COUNT 1 1 1
WIDTH 1420
HEIGHT 1
VIEWPOINT 0 0 0 1 0 0 0
POINTS 1420
DATA ascii
0.24216144 0.037087787 0.4837842
0.24278353 0.037049551 0.48328543
0.24341451 0.037012938 0.48280784
0.24405862 0.03697858 0.48235965
0.2447017 0.036944307 0.48191258
0.24536709 0.036913633 0.48151249
0.24603134 0.036883004 0.48111296
0.24670869 0.03685455 0.48074177
0.2473961 0.036827791 0.48039272
0.24808715 0.036801759 0.48005316
0.24879764 0.036778782 0.47975343
0.24950746 0.036755864 0.47945449
0.25023055 0.036735054 0.47918302
0.25096339 0.036715813 0.47893205
0.25169834 0.036697015 0.47868684
0.25245488 0.036681481 0.47848418
0.25321218 0.036666159 0.47828436
0.25398073 0.036652569 0.47810706
0.25476295 0.036641035 0.47795662
0.25554684 0.036629815 0.47781026
0.25634909 0.036621299 0.47769919
0.25716031 0.036614113 0.47760543
0.25797525 0.036607504 0.47751924
0.25880781 0.036603432 0.47746614
0.25965309 0.036601182 0.47743675
0.26050675 0.03660012 0.47742292
0.26137197 0.03660069 0.47743034
0.26225048 0.036603104 0.47746184
0.26314184 0.036607292 0.47751647
0.26404348 0.036612879 0.47758937
0.26496536 0.036621228 0.47769827
0.26590791 0.03663237 0.47784361
0.26685771 0.036644436 0.47800097
0.2678434 0.036661331 0.47822139
0.26883966 0.036679566 0.47845924
0.26987463 0.03670295 0.47876427
0.27092424 0.036728166 0.47909319
0.27202937 0.036760725 0.47951788
0.27315828 0.036796279 0.47998169
0.27434933 0.036839958 0.48055142
0.27561086 0.036892794 0.48124063
0.27694729 0.03695529 0.48205587
0.27840659 0.03703374 0.4830792
0.23274888 0.03916664 0.4991565
0.23307869 0.039070994 0.49793756
0.23342742 0.038979243 0.49676824
0.23381367 0.038894437 0.49568743
0.23421735 0.038813159 0.49465162
0.23464164 0.038735908 0.49366707
0.2350882 0.038662899 0.49273661
0.23554771 0.038592562 0.49184021
0.23603007 0.038526483 0.49099809
0.23652023 0.038462166 0.49017841
0.23703147 0.038401745 0.48940837
0.23755071 0.038343064 0.48866048
0.23808721 0.038287591 0.48795354
0.23863594 0.038234487 0.48727676
0.23919564 0.038183525 0.48662728
0.23976962 0.038135204 0.48601145
0.24034737 0.038087834 0.48540774
0.24094452 0.038043872 0.48484746
0.24154003 0.037999969 0.48428795
0.24215722 0.037959781 0.48377576
0.24277577 0.037920095 0.48326999
0.24340735 0.037882719 0.48279366
0.24404851 0.037847094 0.48233965
0.24469301 0.03781224 0.48189548
0.2453558 0.037780449 0.48149031
0.24601933 0.037749 0.48108947
0.24670114 0.037720561 0.48072705
0.24738684 0.037692916 0.48037475
0.24808006 0.037666604 0.48003942
0.24878797 0.037642702 0.47973478
0.24949464 0.037618775 0.47942987
0.25022122 0.03759801 0.4791652
0.25095233 0.037578061 0.47891098
0.25169164 0.037559472 0.47867405
0.25244552 0.037543181 0.47846645
0.2531988 0.037526909 0.47825909
0.25397363 0.03751393 0.47809368
0.2547521 0.037501577 0.47793624
0.25553733 0.037490301 0.47779253
0.25634173 0.0374819 0.47768545
0.257148 0.037473828 0.47758257
0.25796801 0.037467808 0.47750586
0.25880253 0.037463926 0.47745639
0.25964254 0.037460864 0.47741735
0.26049128 0.037459079 0.47739461
0.261356 0.03745959 0.47740114
0.26223439 0.037462056 0.47743255
0.26313064 0.037467048 0.47749618
0.26403868 0.037473679 0.47758067
0.26495388 0.037481278 0.47767755
0.26589635 0.037492678 0.47782281
0.26685232 0.037505902 0.47799134
0.26782954 0.037522011 0.47819665
0.26883215 0.037541568 0.47844592
0.2698597 0.037564471 0.47873777
0.27091578 0.037591182 0.4790782
0.27201542 0.037623752 0.47949329
0.27314076 0.03765966 0.4799509
0.27433535 0.037704859 0.48052692
0.27559489 0.037758671 0.48121274
0.27693343 0.037822932 0.48203173
0.27839112 0.037903018 0.48305237
0.23277579 0.040071655 0.49921423
0.23309781 0.039972454 0.49797839
0.23344007 0.039877478 0.49679515
0.23382224 0.039790019 0.49570557
0.23422733 0.039707109 0.49467269
0.23465197 0.039628133 0.49368879
0.23510002 0.039553687 0.49276137
0.23555918 0.03948167 0.49186417
0.23604293 0.039414298 0.49102485
0.23653325 0.039348524 0.49020541
0.2370455 0.039286871 0.48943734
0.2375645 0.039226793 0.48868889
0.23810175 0.039170157 0.48798335
0.23864703 0.039115261 0.48729941
0.23920472 0.039062791 0.48664573
0.23977546 0.039012827 0.48602331
0.24035229 0.038964216 0.48541769
0.24094675 0.038918804 0.48485196
0.24154003 0.038873531 0.48428795
0.24215741 0.038832448 0.48377615
0.24277413 0.038791556 0.48326671
0.24340861 0.038753785 0.48279613
0.24404977 0.038717344 0.48234215
0.24469712 0.03868214 0.48190358
0.24535987 0.038649607 0.4814983
0.24602152 0.038617134 0.48109376
0.24670425 0.038588189 0.48073313
0.24738771 0.038559556 0.48037642
0.24808219 0.038532838 0.48004356
0.24878813 0.038508076 0.47973511
0.24949451 0.038483553 0.4794296
0.25022313 0.038462624 0.47916886
0.25095218 0.0384419 0.47891065
0.25169441 0.038423333 0.47867936
0.25244614 0.038406335 0.47846761
0.25319982 0.03838975 0.47826099
0.25397539 0.038376585 0.47809699
0.25475162 0.038363609 0.47793534
0.25554192 0.038352836 0.47780108
0.25634331 0.038343787 0.47768837
0.25714549 0.038334925 0.47757795
0.25797343 0.03832994 0.47751588
0.25880316 0.038325261 0.47745758
0.25964126 0.038321845 0.47741503
0.26049978 0.038321454 0.47741017
0.26136613 0.038322218 0.47741967
0.2622436 0.038324598 0.47744933
0.26312962 0.038328212 0.47749433
0.26404029 0.038335379 0.47758362
0.26496172 0.038344052 0.47769168
0.26589593 0.03835452 0.47782207
0.26685798 0.038368918 0.47800145
0.2678287 0.038384467 0.47819519
0.2688376 0.038405374 0.4784556
0.26986027 0.038428102 0.47873875
0.27092242 0.038456291 0.47908998
0.27201939 0.03848923 0.47950032
0.2731466 0.038526226 0.47996119
0.27434543 0.038573053 0.4805446
0.27559894 0.038627256 0.48121983
0.27694005 0.038693354 0.48204327
0.2784071 0.038776573 0.48308006
0.23282854 0.040981427 0.49932733
0.23314863 0.040879626 0.49808699
0.23348892 0.040782135 0.49689913
0.23386841 0.040692206 0.49580345
0.23426671 0.04060623 0.49475586
0.23468605 0.040524535 0.4937605
0.2351291 0.040447541 0.49282235
0.23558377 0.040373113 0.49191552
0.23606397 0.040303603 0.4910686
0.23655081 0.040235747 0.4902418
0.23706093 0.040172335 0.4894692
0.23757844 0.040110648 0.48871756
0.23811676 0.040052913 0.4880141
0.2386626 0.039996866 0.48733121
0.23922156 0.039943416 0.48667997
0.23979186 0.039892249 0.48605654
0.24036966 0.039842695 0.48545277
0.2409641 0.039796248 0.48488685
0.24155843 0.039750122 0.48432484
0.24217616 0.039708164 0.48381361
0.24279232 0.03966625 0.48330292
0.24342547 0.039627403 0.4828296
0.24406448 0.039589781 0.48237121
0.2447117 0.039553758 0.48193228
0.24537294 0.039520241 0.48152393
0.24603307 0.039486788 0.48111632
0.24671641 0.039457284 0.48075682
0.24739859 0.039427795 0.48039755
0.24809434 0.039400671 0.48006704
0.24879906 0.039375152 0.47975615
0.2495072 0.039350357 0.47945401
0.25023547 0.039328888 0.47919244
0.25096291 0.039307445 0.47893116
0.25170723 0.039288778 0.47870371
0.25245774 0.039271202 0.47848958
0.25321388 0.039254624 0.47828758
0.25398809 0.039240945 0.47812089
0.2547619 0.039227299 0.47795466
0.25555584 0.039216831 0.4778271
0.25635493 0.039207224 0.47771004
0.25716224 0.039198935 0.47760907
0.25798732 0.039193399 0.4775416
0.25881281 0.039187964 0.47747537
0.25966007 0.039185844 0.47744957
0.26051384 0.039184727 0.47743595
0.26137629 0.039184913 0.47743821
0.26225838 0.039188031 0.47747621
0.26314989 0.039192539 0.47753111
0.26405278 0.0391987 0.47760618
0.26497936 0.039208326 0.47772348
0.26590917 0.03921837 0.47784585
0.26687571 0.039233748 0.47803321
0.26784506 0.039249435 0.47822437
0.26885656 0.03927118 0.47848931
0.26987875 0.039294347 0.47877157
0.27094483 0.039323732 0.47912961
0.27204141 0.039357342 0.47953913
0.27317262 0.039395731 0.48000687
0.27437529 0.039444156 0.48059687
0.27563551 0.03950052 0.48128363
0.27697808 0.039568298 0.48210946
0.27844614 0.039653521 0.48314783
0.23288159 0.041891661 0.49944112
0.2331991 0.041787125 0.49819481
0.23353788 0.041687183 0.49700332
0.2339171 0.041595202 0.49590668
0.23431359 0.04150698 0.49485487
0.23473352 0.041423563 0.49386036
0.23517498 0.041344564 0.49291852
0.23562953 0.041268449 0.49201107
0.23610833 0.04119714 0.4911609
0.23659515 0.041127756 0.49033371
0.23710409 0.04106272 0.48955831
0.2376198 0.040999334 0.48880264
0.23815417 0.040939625 0.48809078
0.23869753 0.040881898 0.48740253
0.23925449 0.040826913 0.486747
0.23982301 0.040774297 0.48611969
0.24039871 0.040723279 0.48551142
0.24099158 0.040675532 0.48494217
0.2415846 0.04062815 0.48437729
0.24220097 0.040585026 0.48386317
0.24281619 0.040542021 0.48335046
0.24344906 0.040502258 0.48287639
0.24408683 0.040463593 0.48241541
0.24473371 0.040426705 0.48197562
0.24539436 0.040392347 0.48156598
0.24605501 0.04035823 0.48115924
0.24673827 0.040328048 0.48079941
0.2474207 0.040297944 0.4804405
0.24811751 0.040270381 0.4801119
0.24882212 0.040244274 0.47980064
0.24953111 0.040219054 0.47949994
0.25025856 0.04019697 0.47923669
0.25098521 0.040174913 0.47897369
0.25173011 0.040155917 0.47874725
0.25247988 0.040137824 0.47853154
0.2532374 0.040121086 0.47833195
0.25401109 0.040107016 0.4781642
0.25478426 0.040092956 0.47799659
0.25557989 0.040082514 0.4778721
0.25637802 0.040072534 0.4777531
0.25718755 0.040064394 0.47765607
0.25801161 0.040058564 0.47758657
0.2588357 0.040052775 0.47751758
0.25968629 0.040051118 0.47749779
0.26053679 0.040049456 0.47747797
0.26140025 0.040049791 0.47748199
0.26228315 0.040053088 0.4775213
0.26317838 0.040058248 0.47758281
0.26408011 0.040064357 0.47765562
0.26500872 0.04007449 0.47777644
0.26593935 0.040084865 0.47790012
0.26690713 0.040100746 0.47808948
0.26787746 0.040116914 0.47828224
0.2688911 0.040139444 0.47855082
0.2699163 0.040163547 0.47883818
0.27098376 0.040193763 0.47919843
0.27208403 0.040228639 0.47961423
0.27321625 0.040268004 0.48008355
0.27442479 0.040318333 0.48068359
0.27569374 0.040377192 0.48138532
0.27704972 0.040448386 0.48223412
0.27853888 0.040538523 0.48330873
0.2329845 0.042811465 0.4996618
0.23328647 0.042701762 0.49838144
0.23361379 0.042597521 0.49716485
0.2339876 0.042502526 0.49605614
0.23437543 0.042410795 0.49498549
0.23479111 0.042324774 0.49398154
0.23522697 0.04224303 0.49302748
0.23567809 0.042164631 0.49211246
0.23615275 0.042091016 0.49125329
0.23663953 0.042020105 0.49042568
0.23714724 0.041953422 0.48964742
0.23766302 0.041888658 0.48889154
0.23819625 0.04182744 0.48817703
0.23873916 0.041768361 0.48748752
0.23929501 0.041711971 0.4868294
0.23986411 0.041658301 0.48620299
0.240439 0.04160602 0.48559281
0.24103206 0.041557252 0.48502362
0.24162418 0.041508675 0.48445666
0.2422404 0.041464571 0.48394194
0.24285543 0.041420583 0.48342854
0.24348751 0.041379809 0.48295265
0.24412556 0.041340336 0.48249194
0.24477151 0.041302476 0.48205006
0.24543203 0.041267332 0.48163992
0.24609183 0.041232318 0.48123124
0.24677469 0.041201398 0.48087037
0.24745657 0.04117053 0.48051012
0.24815245 0.041142207 0.48017952
0.24885698 0.0411155 0.47986785
0.24956514 0.041089579 0.47956532
0.25029242 0.041066978 0.47930151
0.25101888 0.041044395 0.47903797
0.25176334 0.041024901 0.47881046
0.25251341 0.04100645 0.47859511
0.25327095 0.040989339 0.47839537
0.25404546 0.040975075 0.4782289
0.25481942 0.040960819 0.47806254
0.25561461 0.040950064 0.47793698
0.2564134 0.040939953 0.477819
0.25722238 0.040931534 0.47772074
0.2580477 0.040925764 0.47765338
0.25887361 0.04092012 0.47758752
0.2597225 0.040918138 0.47756439
0.26057756 0.040917136 0.47755268
0.26144227 0.040917654 0.47755873
0.26232526 0.040921018 0.47759798
0.26321688 0.040925704 0.47765267
0.26412395 0.040932748 0.47773489
0.26505059 0.040942773 0.4778519
0.26598611 0.040954102 0.47798413
0.26695251 0.040970098 0.47817081
0.26792762 0.040987317 0.47837177
0.26894072 0.041010223 0.47863913
0.2699714 0.041035652 0.47893593
0.27103871 0.041066475 0.47929564
0.27214596 0.041103125 0.47972339
0.27328455 0.041144267 0.4802036
0.27449495 0.041195925 0.4808065
0.27577445 0.041257594 0.48152626
0.27714473 0.041332416 0.48239952
0.27865568 0.041427683 0.48351139
0.23308912 0.04373239 0.49988618
0.23338413 0.043618999 0.49859008
0.23370914 0.043512065 0.49736777
0.23407887 0.043414243 0.49624962
0.23446137 0.043319527 0.49516696
0.23487698 0.043231625 0.49416217
0.23530826 0.043147262 0.49319786
0.23575944 0.043067168 0.49228233
0.23622939 0.042991091 0.49141273
0.2367136 0.042918168 0.49057919
0.23721613 0.042849097 0.48978966
0.23773028 0.042782627 0.48902988
0.23825899 0.042719264 0.4883056
0.23880064 0.042658679 0.48761308
0.23935245 0.042600345 0.48694628
0.23992068 0.042545348 0.48631763
0.24049287 0.042491455 0.48570159
0.24108547 0.042441543 0.48513108
0.24167676 0.042391766 0.4845621
0.24229163 0.042346463 0.48404428
0.24290648 0.042301487 0.48353016
0.24353653 0.04225947 0.4830499
0.24417479 0.042219169 0.48258924
0.24481912 0.042180203 0.48214382
0.24548009 0.042144369 0.48173422
0.24613991 0.042108592 0.48132527
0.24682137 0.042076755 0.48096135
0.24750373 0.042045292 0.4806017
0.24819805 0.042016074 0.48026773
0.24890339 0.04198892 0.47995734
0.2496099 0.04196215 0.47965136
0.25033796 0.041939177 0.47938874
0.25106522 0.041916225 0.47912642
0.2518082 0.041896045 0.47889575
0.25256011 0.041877486 0.47868359
0.25331551 0.04185963 0.4784795
0.25409126 0.041845251 0.47831511
0.25486648 0.041830875 0.47815081
0.25565982 0.041819565 0.47802153
0.25646117 0.041809637 0.47790805
0.25726631 0.041800391 0.47780234
0.25809491 0.041795 0.47774073
0.2589258 0.04179002 0.47768381
0.25976655 0.041786656 0.47764537
0.26062703 0.041786484 0.4776434
0.2614958 0.041787632 0.47765651
0.26237527 0.041790478 0.47768906
0.26326457 0.041794866 0.47773919
0.26418146 0.041803591 0.47783893
0.26510367 0.041813102 0.47794762
0.26604837 0.041826081 0.47809601
0.26701117 0.041841812 0.47827584
0.26799554 0.041860815 0.47849303
0.26900461 0.041883543 0.47875285
0.27004424 0.041910868 0.47906515
0.27110976 0.041942019 0.47942126
0.27222699 0.041980952 0.47986627
0.27337703 0.042024679 0.48036611
0.27458447 0.042076923 0.48096329
0.27587697 0.042141836 0.48170525
0.27726784 0.042221319 0.4826138
0.27880728 0.042322859 0.48377445
0.23349947 0.044540361 0.49883649
0.23381735 0.044429787 0.49759808
0.23417486 0.044327553 0.49645314
0.23454791 0.044229034 0.49534974
0.23496293 0.044139147 0.49434301
0.23538956 0.044052113 0.49336827
0.2358408 0.043970317 0.4924522
0.23630655 0.043891836 0.49157321
0.23679049 0.043817308 0.49073854
0.23728903 0.043746021 0.48994017
0.23780371 0.043678232 0.48918095
0.23832901 0.043612886 0.4884491
0.2388707 0.043551009 0.4877561
0.23941906 0.043490801 0.4870818
0.23998711 0.043434594 0.48645228
0.24055597 0.043378945 0.48582906
0.24114861 0.043327969 0.48525813
0.24173984 0.043277115 0.48468855
0.24235177 0.043230318 0.48416445
0.24296708 0.043184455 0.4836508
0.2435943 0.043141034 0.48316449
0.24423271 0.043099891 0.48270372
0.24487481 0.043059692 0.48225349
0.24553719 0.043023329 0.48184627
0.24619848 0.042987034 0.48143977
0.24687822 0.042954206 0.48107213
0.24756199 0.042922307 0.48071486
0.24825406 0.042892061 0.48037612
0.24896091 0.042864576 0.48006827
0.24966688 0.042837128 0.47976086
0.25039446 0.042813562 0.47949693
0.25112319 0.042790353 0.47923702
0.25186369 0.042769305 0.47900128
0.25261778 0.042750701 0.47879291
0.25337121 0.042732108 0.47858471
0.25414735 0.042717468 0.4784207
0.25492659 0.042703439 0.47826362
0.25571439 0.042690933 0.47812355
0.25651991 0.042681467 0.47801751
0.25732729 0.042672362 0.47791556
0.2581512 0.042666059 0.47784495
0.2589879 0.042661902 0.4777984
0.25983098 0.042658817 0.47776386
0.26068401 0.042657383 0.4777478
0.26155207 0.042658411 0.4777593
0.26243749 0.042662252 0.47780234
0.26333779 0.04266848 0.47787207
0.26424834 0.042676326 0.47795993
0.26516974 0.042685863 0.47806674
0.26612338 0.04270051 0.4782308
0.26708171 0.042715818 0.47840223
0.26807743 0.042736981 0.47863927
0.2690832 0.042759608 0.47889268
0.27013403 0.042789228 0.47922441
0.2712025 0.042821448 0.47958526
0.27232587 0.042862102 0.48004058
0.27348974 0.042908847 0.48056412
0.27470702 0.042963658 0.48117796
0.27601251 0.043031871 0.48194194
0.27742833 0.043116804 0.48289317
0.27900243 0.043225728 0.48411304
0.23364462 0.045468412 0.49914658
0.23396337 0.045355663 0.49790883
0.23430987 0.045249134 0.49673936
0.23467751 0.045147482 0.49562344
0.23508561 0.045054357 0.49460113
0.23550197 0.044963516 0.49360389
0.23595144 0.044879653 0.49268323
0.23640884 0.044797923 0.49178603
0.23689164 0.0447216 0.49094814
0.23738299 0.044647451 0.49013418
0.23789701 0.044578105 0.48937288
0.23841707 0.044510394 0.48862958
0.23895881 0.044447217 0.48793602
0.23950228 0.044384826 0.4872511
0.24007098 0.04432755 0.4866223
0.24063805 0.044270389 0.48599482
0.24122889 0.044218 0.48541969
0.24182099 0.044166222 0.48485127
0.24242899 0.044117708 0.4843187
0.24304526 0.044071045 0.48380643
0.24366909 0.044026081 0.48331282
0.24430901 0.043984331 0.48285452
0.24494757 0.043942634 0.48239678
0.24560948 0.043905411 0.48198813
0.24627088 0.043868355 0.48158136
0.24694596 0.043833993 0.48120412
0.24763092 0.043801617 0.4808487
0.24832027 0.043770239 0.48050424
0.24902949 0.043742571 0.4802005
0.24973783 0.043714941 0.47989717
0.25046188 0.043690242 0.47962603
0.25119308 0.043666955 0.47937039
0.25192952 0.043644737 0.47912648
0.25268647 0.043626212 0.47892311
0.25344276 0.043607701 0.47871989
0.2542147 0.043591999 0.47854751
0.25499704 0.043578178 0.47839579
0.25578216 0.043564923 0.47825029
0.25658891 0.043555427 0.47814605
0.25740182 0.043547042 0.47805399
0.25821915 0.043539457 0.47797072
0.25905678 0.043535333 0.47792548
0.2599059 0.043533161 0.47790164
0.26076451 0.043532591 0.47789535
0.26163533 0.043534052 0.47791141
0.26251933 0.043537691 0.47795135
0.26341528 0.043543279 0.47801271
0.264323 0.043550771 0.47809494
0.26526144 0.043563262 0.47823206
0.2662082 0.04357703 0.47838321
0.2671769 0.043594293 0.47857273
0.26817206 0.043615744 0.47880819
0.26918826 0.043640472 0.47907966
0.27023897 0.043670621 0.47941062
0.27132452 0.043706182 0.47980103
0.27244157 0.043746579 0.48024449
0.27362689 0.043797649 0.48080516
0.27486783 0.043857265 0.48145962
0.2761865 0.043928873 0.48224571
0.27762166 0.044018503 0.48322967
0.27925354 0.04413867 0.48454881
0.23379466 0.046398558 0.49946713
0.23410885 0.046282556 0.49821842
0.23444544 0.046171855 0.49702677
0.2348125 0.046067975 0.49590853
0.23521134 0.045971096 0.49486566
0.23562171 0.045877192 0.49385482
0.2360691 0.045791183 0.49292892
0.23651953 0.045706403 0.49201629
0.23700243 0.045628507 0.49117777
0.23748711 0.045551531 0.49034914
0.23800083 0.04548068 0.48958644
0.23851462 0.045410361 0.48882949
0.23905645 0.045345884 0.48813543
0.23959677 0.045281593 0.48744333
0.24016303 0.045222655 0.4868089
0.24073045 0.045164365 0.48618141
0.24131593 0.045109876 0.48559484
0.24190806 0.045057017 0.48502585
0.24251181 0.045006696 0.48448417
0.24313031 0.044959467 0.48397574
0.24375066 0.044912912 0.48347461
0.24439302 0.04487073 0.48302054
0.24503428 0.04482865 0.48256755
0.24569269 0.044789992 0.48215142
0.24635658 0.044752605 0.48174894
0.24702768 0.044716787 0.48136336
0.24771427 0.044684008 0.48101053
0.24839984 0.044651281 0.4806582
0.24910887 0.04462298 0.48035356
0.24982068 0.044595372 0.48005638
0.25054014 0.044569314 0.47977588
0.25127456 0.04454609 0.47952586
0.25201076 0.044523343 0.47928101
0.25276574 0.044504054 0.47907338
0.25352612 0.044485848 0.47887737
0.25429103 0.044468548 0.47869116
0.25507861 0.044455323 0.47854879
0.25586867 0.04444262 0.47841203
0.2566655 0.044431169 0.47828877
0.25748459 0.04442364 0.47820774
0.25830933 0.044417128 0.47813764
0.25914118 0.044411883 0.47808117
0.25998357 0.04440847 0.47804442
0.26084602 0.044408493 0.47804469
0.26171869 0.044410259 0.47806367
0.26260179 0.044413764 0.47810143
0.26350728 0.044421028 0.47817963
0.26442793 0.044430792 0.47828472
0.26536039 0.044442471 0.47841042
0.26630804 0.044456609 0.47856262
0.26728892 0.044476185 0.47877336
0.2682783 0.044497047 0.47899792
0.26931295 0.044525255 0.47930157
0.27035791 0.044554986 0.47962162
0.27146247 0.04459431 0.48004496
0.27259111 0.044637337 0.48050812
0.27378261 0.044690348 0.48107877
0.27504817 0.044755075 0.48177552
0.27639377 0.044832375 0.48260763
0.27788308 0.044932432 0.48368472
0.27959347 0.045067489 0.4851386
0.23401001 0.047343068 0.49992719
0.23429863 0.047219492 0.4986223
0.23461609 0.047102656 0.49738854
0.23497954 0.046995908 0.49626133
0.23536365 0.046894085 0.49518609
0.23577166 0.046797778 0.49416912
0.23620744 0.046707686 0.4932178
0.2366547 0.046620533 0.49229747
0.23713151 0.046539828 0.49144527
0.23761289 0.046460621 0.49060884
0.23812227 0.046387456 0.48983625
0.23863518 0.046315514 0.48907658
0.2391724 0.046248809 0.48837218
0.23971413 0.046183456 0.4876821
0.24027428 0.046122123 0.48703441
0.24084347 0.046062961 0.48640969
0.24142367 0.046006326 0.48581165
0.24201795 0.045952775 0.48524618
0.24261552 0.045900233 0.48469135
0.2432345 0.045852106 0.48418313
0.24385203 0.04580405 0.48367569
0.2444901 0.045760181 0.48321244
0.24513124 0.045717195 0.48275852
0.24578483 0.045676827 0.48233226
0.24645248 0.045639347 0.48193648
0.24711934 0.045601986 0.48154196
0.24780974 0.045569219 0.48119593
0.24849914 0.045536492 0.48085037
0.24920008 0.045506101 0.48052943
0.24991533 0.045478527 0.48023826
0.25063047 0.04545112 0.47994885
0.25136736 0.045427836 0.47970301
0.25210741 0.04540528 0.4794648
0.25285497 0.045384228 0.4792425
0.25362039 0.045366507 0.47905537
0.25438893 0.045349471 0.47887549
0.2551693 0.045334648 0.47871897
0.25596535 0.045322701 0.47859278
0.25676587 0.045311626 0.47847584
0.25757426 0.045302004 0.47837424
0.25840473 0.045296319 0.47831422
0.2592434 0.045292109 0.47826976
0.26009211 0.045289673 0.47824404
0.26095286 0.045289338 0.47824049
0.26182765 0.045291439 0.47826269
0.26271707 0.045296047 0.47831133
0.26362047 0.045303028 0.47838506
0.26453668 0.045312155 0.47848144
0.26547271 0.045324609 0.47861296
0.26643604 0.04534163 0.47879267
0.2674101 0.045360353 0.47899041
0.26841781 0.045384653 0.47924697
0.26944947 0.045412835 0.47954458
0.27051651 0.045446772 0.47990295
0.27161428 0.045485646 0.48031345
0.27277264 0.045534384 0.48082811
0.27397379 0.045589931 0.48141468
0.27524686 0.045657065 0.48212355
0.27664039 0.045743689 0.48303828
0.27817684 0.045853324 0.48419601
0.27997616 0.046005473 0.48580265
0.23449636 0.048159521 0.49904311
0.23480666 0.048038837 0.49779254
0.23516101 0.047928054 0.49664456
0.23553143 0.047821373 0.4955391
0.23593986 0.047723185 0.49452165
0.23636362 0.047628827 0.49354389
0.23681056 0.04753983 0.49262169
0.23727688 0.047455378 0.49174654
0.23775864 0.047374625 0.49090979
0.23825824 0.047298018 0.49011597
0.23877083 0.047224544 0.48935461
0.23929912 0.047154706 0.48863092
0.23984148 0.047088142 0.48794118
0.24039337 0.04702393 0.48727578
0.24096248 0.046963543 0.48665002
0.24153475 0.046904206 0.48603517
0.24213237 0.046850204 0.48547557
0.24272874 0.046796352 0.48491755
0.24334763 0.046747211 0.48440832
0.24396898 0.046698894 0.48390764
0.24460195 0.046653137 0.48343349
0.24524654 0.046609912 0.48298559
0.24589239 0.046567231 0.48254332
0.2465606 0.046529073 0.48214793
0.24722935 0.046491284 0.48175633
0.24791515 0.046456955 0.48140061
0.24860898 0.046424363 0.48106289
0.24930353 0.046392135 0.48072892
0.25002021 0.046364233 0.48043981
0.25074098 0.04633728 0.4801605
0.25147069 0.046312153 0.47990015
0.25221476 0.046289843 0.47966895
0.25296199 0.046268262 0.47944534
0.25372443 0.046249595 0.47925189
0.25449881 0.046233229 0.47908232
0.25527689 0.046217643 0.47892079
0.25606975 0.046204831 0.47878802
0.25687706 0.046194702 0.47868305
0.25769091 0.046185806 0.47859088
0.25851262 0.046178378 0.47851393
0.25934881 0.04617358 0.47846422
0.26020196 0.046171825 0.47844601
0.26106694 0.046172168 0.47844958
0.26194373 0.046174597 0.47847474
0.26283321 0.046179235 0.47852278
0.26373708 0.046186361 0.47859666
0.26466799 0.046198163 0.47871894
0.26561221 0.046212208 0.47886446
0.26657024 0.04622855 0.47903383
0.26755846 0.046250008 0.47925615
0.26857153 0.046275608 0.47952145
0.26960728 0.046304941 0.47982541
0.27068982 0.046342093 0.48021039
0.2718026 0.046384178 0.48064646
0.2729677 0.046434883 0.48117191
0.27420068 0.046496786 0.48181337
0.27551547 0.046572126 0.48259404
0.27693519 0.046664666 0.48355299
0.27855104 0.046789575 0.48484734
0.28053552 0.04697543 0.48677319
0.23472579 0.049107697 0.49953136
0.23503017 0.048983343 0.4982664
0.2353625 0.048865739 0.4970701
0.23572154 0.048754551 0.49593908
0.23612246 0.048652835 0.4949044
0.23653261 0.048553776 0.49389678
0.2369798 0.048463035 0.49297374
0.23743469 0.048374545 0.4920736
0.23791796 0.048292473 0.49123874
0.23840877 0.048212536 0.49042562
0.23892373 0.048138052 0.48966795
0.23944327 0.04806504 0.48892528
0.23998836 0.047997668 0.48823997
0.24053292 0.047930691 0.48755866
0.24110509 0.047869682 0.48693806
0.24167588 0.047808841 0.48631918
0.24226822 0.047752686 0.48574796
0.24286497 0.047697801 0.48518968
0.24347384 0.047645688 0.48465955
0.2440953 0.047596399 0.48415819
0.24472092 0.047548272 0.48366863
0.24537052 0.047505129 0.48322976
0.24601895 0.047462065 0.48279169
0.24668336 0.047422372 0.48238796
0.2473553 0.047384407 0.48200175
0.24803016 0.047347263 0.48162392
0.24872917 0.047314972 0.48129547
0.24942808 0.047282889 0.4809691
0.25013888 0.04725327 0.48066783
0.25086251 0.047226273 0.4803932
0.25158864 0.047199935 0.48012528
0.25233206 0.047177006 0.47989205
0.25308624 0.047156241 0.47968081
0.25384068 0.047135662 0.4794715
0.25461787 0.047119439 0.47930646
0.25540262 0.047104716 0.4791567
0.25619224 0.047090985 0.47901702
0.25699419 0.047079604 0.47890127
0.25781491 0.047071733 0.47882119
0.25864393 0.047065422 0.47875699
0.25948295 0.047060966 0.47871166
0.260335 0.047058895 0.47869062
0.26119974 0.04705913 0.47869298
0.26208064 0.047062255 0.47872478
0.2629768 0.047068097 0.4787842
0.26388848 0.047076669 0.47887141
0.26481479 0.047087785 0.47898448
0.26575586 0.047101442 0.47912341
0.26673338 0.047121454 0.47932696
0.26772711 0.047144189 0.47955823
0.26874033 0.047170199 0.47982281
0.2697998 0.047204137 0.48016804
0.27087674 0.047240905 0.48054203
0.2720215 0.047289226 0.48103356
0.27320203 0.047343437 0.481585
0.27445033 0.047409009 0.48225203
0.27580285 0.047492117 0.4830974
0.27729547 0.047598753 0.48418212
0.27900118 0.047741175 0.48563087
0.28129926 0.047983754 0.48809841
0.23528388 0.049935967 0.49880427
0.2355943 0.049811367 0.49755967
0.23595293 0.049697865 0.4964259
0.23633522 0.049590189 0.49535033
0.23674119 0.049488273 0.49433228
0.23717625 0.049393181 0.49338242
0.23762155 0.04930092 0.49246085
0.2380995 0.049216099 0.4916136
0.23858112 0.04913266 0.49078014
0.23909275 0.049055997 0.49001437
0.2396065 0.048980333 0.48925856
0.24014558 0.048910383 0.48855984
0.24068917 0.04884186 0.48787537
0.2412513 0.048777588 0.48723334
0.24182528 0.048716165 0.4866198
0.24241133 0.048657607 0.4860349
0.24301314 0.048602626 0.4854857
0.24361546 0.048548143 0.48494148
0.24424163 0.048498783 0.48444843
0.24486668 0.048449557 0.48395669
0.2455079 0.048403867 0.4835003
0.24615669 0.048359986 0.483062
0.24681507 0.048318297 0.48264554
0.24749316 0.048280742 0.48227042
0.24817023 0.048243251 0.48189592
0.24886093 0.048208661 0.48155043
0.24956504 0.048176903 0.48123318
0.25026986 0.048145503 0.48091954
0.25099483 0.048118182 0.48064664
0.25172728 0.048092477 0.48038986
0.25246066 0.048067126 0.48013663
0.25321987 0.048046846 0.47993407
0.25398105 0.048027083 0.47973666
0.25474888 0.048008703 0.47955307
0.2555359 0.047994051 0.47940671
0.25633264 0.047981318 0.47927952
0.25713688 0.047970075 0.47916722
0.25795022 0.047960591 0.47907248
0.25877866 0.047953978 0.47900641
0.25962403 0.047950529 0.47897196
0.26047975 0.047949009 0.47895679
0.26134971 0.047950111 0.47896782
0.26223227 0.047953513 0.47900179
0.263129 0.047959469 0.47906128
0.26404014 0.047968011 0.4791466
0.26497933 0.047981579 0.47928211
0.26593721 0.047998421 0.47945037
0.26691052 0.048017941 0.47964534
0.2679083 0.048041712 0.47988281
0.26894683 0.048072625 0.48019156
0.27000034 0.048106 0.48052496
0.2711159 0.048150182 0.48096627
0.27225396 0.04819807 0.48144463
0.2734772 0.048260681 0.48207006
0.27476236 0.04833379 0.48280033
0.27616736 0.048427455 0.48373592
0.27772605 0.048547387 0.48493391
0.27962437 0.048725754 0.48671561
0.23555309 0.05089388 0.49937499
0.23585041 0.050763991 0.49810052
0.23619203 0.050644591 0.49692896
0.23655319 0.050530266 0.49580717
0.23695974 0.050426461 0.49478865
0.23737977 0.050326295 0.4938058
0.23782647 0.050232504 0.49288553
0.23829128 0.050143231 0.49200955
0.23877586 0.050058763 0.49118075
0.23927639 0.049978249 0.49039075
0.23979421 0.049901925 0.48964185
0.24032353 0.049828548 0.48892188
0.24087143 0.049759544 0.4882448
0.24142435 0.049692079 0.48758283
0.24200013 0.049629793 0.48697165
0.24257441 0.049567644 0.48636186
0.24317493 0.049511291 0.48580891
0.24377564 0.049455378 0.48526031
0.24439469 0.049403578 0.48475203
0.24502599 0.049354609 0.48427156
0.24565987 0.049306512 0.48379961
0.24631535 0.049263068 0.48337334
0.24696966 0.049219701 0.48294783
0.24763998 0.049179818 0.48255649
0.24832423 0.049142975 0.48219496
0.24900746 0.049106184 0.48183396
0.24971265 0.049073964 0.48151782
0.25042406 0.049043186 0.48121583
0.25113955 0.049013417 0.48092374
0.25187558 0.048987847 0.48067284
0.25261718 0.048963536 0.4804343
0.25336197 0.048940003 0.48020339
0.25413153 0.048921403 0.48002088
0.25490591 0.048903849 0.47984865
0.25568527 0.048887368 0.47968695
0.25647908 0.048873752 0.47955334
0.25729114 0.048863694 0.47945464
0.25811166 0.048855308 0.47937235
0.25894263 0.048848946 0.47930992
0.25978598 0.048844952 0.47927076
0.26064333 0.048843607 0.47925755
0.26151541 0.048845027 0.47927147
0.26240286 0.0488493 0.4793134
0.26330784 0.048856791 0.47938693
0.26423085 0.048867572 0.47949269
0.26516992 0.048881244 0.47962683
0.26612496 0.048897758 0.4797889
0.26711521 0.048920617 0.48001316
0.26813048 0.048947889 0.48028079
0.26916128 0.048977818 0.48057443
0.27025133 0.049018301 0.48097166
0.27136108 0.049062081 0.48140123
0.27255097 0.049120035 0.48196986
0.27378288 0.049185161 0.48260888
0.2751095 0.049266834 0.4834103
0.27656907 0.049371731 0.48443952
0.27825749 0.049516689 0.48586187
0.28048128 0.049755704 0.48820713
0.23616505 0.051731389 0.49876502
0.23647796 0.051603351 0.49753052
0.23683308 0.051485453 0.49639383
0.23722024 0.051375382 0.4953326
0.23762481 0.051269896 0.49431553
0.23806645 0.051173162 0.4933829
0.23851199 0.051077988 0.49246529
0.23899706 0.050991952 0.49163577
0.23948096 0.050906301 0.49080998
0.23999855 0.050828423 0.49005911
0.24051467 0.050750803 0.48931074
0.24106038 0.050679971 0.48862782
0.24160689 0.050609823 0.48795149
0.24218082 0.050545909 0.48733526
0.24276146 0.050483849 0.48673692
0.24335335 0.050424568 0.48616537
0.24396047 0.050368857 0.48562825
0.24456736 0.050313499 0.48509452
0.24519904 0.050263617 0.48461357
0.24582969 0.050213877 0.48413402
0.24648136 0.050168775 0.48369914
0.24714336 0.050126076 0.48328748
0.24780424 0.050083458 0.48287657
0.24848753 0.05004565 0.48251206
0.24917871 0.05000969 0.48216534
0.24987465 0.04997493 0.48183021
0.25058803 0.049943887 0.4815309
0.25130922 0.049914613 0.48124868
0.25203562 0.049886566 0.48097825
0.25278351 0.049862958 0.48075065
0.25353399 0.049840014 0.48052943
0.25429195 0.049818698 0.48032391
0.25507027 0.049801495 0.48015806
0.255858 0.049786244 0.48001102
0.25665453 0.049772803 0.47988141
0.25745976 0.049761131 0.47976887
0.25827879 0.049752194 0.47968271
0.2591162 0.049746852 0.47963122
0.25996515 0.049743749 0.47960129
0.26082736 0.049743194 0.47959596
0.26170301 0.049745198 0.47961527
0.26259357 0.049750015 0.4796617
0.26350018 0.049757831 0.47973707
0.26442304 0.049768656 0.47984144
0.26537734 0.049785309 0.48000199
0.26635173 0.049805611 0.48019773
0.26734379 0.04982907 0.4804239
0.26836258 0.049857344 0.48069653
0.26942685 0.04989386 0.48104858
0.27051419 0.049934398 0.48143944
0.27167192 0.049987629 0.48195267
0.27286077 0.050046232 0.48251766
0.27415228 0.05012323 0.48326004
0.27554524 0.050218232 0.48417598
0.27711099 0.05034402 0.48538876
0.27897185 0.050522462 0.48710921
0.23648039 0.052701343 0.49943101
0.2367754 0.052566834 0.49815631
0.23711939 0.052444175 0.49699393
0.23748221 0.05232659 0.49587959
0.23788607 0.052218895 0.49485901
0.23830923 0.052116226 0.49388605
0.23875788 0.052019875 0.49297297
0.23922735 0.051928759 0.49210951
0.23971544 0.051842343 0.49129057
0.24022073 0.051760264 0.49051276
0.24074215 0.05168226 0.48977351
0.24127556 0.051607385 0.48906398
0.24182807 0.05153713 0.48839819
0.24238464 0.051468246 0.4877454
0.24296556 0.051405009 0.48714614
0.24354506 0.051341932 0.48654836
0.24415025 0.051284701 0.48600602
0.24476412 0.0512297 0.48548478
0.24538825 0.05117723 0.48498756
0.24602689 0.051128145 0.4845224
0.2466642 0.051079135 0.48405793
0.24732509 0.051035337 0.48364288
0.24799533 0.050993767 0.48324895
0.24866901 0.050953198 0.48286447
0.24936138 0.050916724 0.48251882
0.25006008 0.050881792 0.48218778
0.25076789 0.050848946 0.48187652
0.25149131 0.05081949 0.48159736
0.25222272 0.050791837 0.48133534
0.25295693 0.050764941 0.48108044
0.25371838 0.050743673 0.48087889
0.25448203 0.050722994 0.48068294
0.25525355 0.050704017 0.48050308
0.2560387 0.050687861 0.48034999
0.25684196 0.050675392 0.48023182
0.25765395 0.050664727 0.48013076
0.25847709 0.050656311 0.48005101
0.25931263 0.050650381 0.4799948
0.26016235 0.050647248 0.47996509
0.26102674 0.050646979 0.47996256
0.26190782 0.050649941 0.47999063
0.26280683 0.050656345 0.48005131
0.26372382 0.050666153 0.48014426
0.26465997 0.050679568 0.4802714
0.26561338 0.050696194 0.48042893
0.26658508 0.050716188 0.48061842
0.26759949 0.050744146 0.48088339
0.26864156 0.05077716 0.48119622
0.26970896 0.050814733 0.4815523
0.27083912 0.050863851 0.48201776
0.27199513 0.050917491 0.48252609
0.2732504 0.050989307 0.48320669
0.27458751 0.051075894 0.48402724
0.27605644 0.051186375 0.48507422
0.27777901 0.051343039 0.48655885
0.28010464 0.051609829 0.48908713
0.23715304 0.053550687 0.49895084
0.23746014 0.05341731 0.49770811
0.23781334 0.053295266 0.496571
0.23819813 0.053181197 0.49550816
0.23860224 0.05307227 0.49449328
0.23904426 0.052972566 0.49356428
0.2394914 0.052874725 0.49265265
0.23997708 0.052786086 0.49182677
0.24046327 0.052698214 0.49100804
0.24098293 0.052618291 0.49026337
0.24150288 0.052539017 0.48952475
0.24205083 0.052466389 0.48884806
0.24260986 0.052396685 0.48819858
0.24318533 0.052331019 0.48758677
0.24377288 0.052268419 0.48700351
0.24436508 0.052207261 0.48643366
0.24497916 0.052151199 0.48591131
0.24559194 0.052095257 0.4853901
0.24623041 0.052045148 0.48492321
0.24687757 0.051997222 0.48447666
0.24752626 0.051949956 0.48403627
0.24819697 0.051907625 0.48364186
0.24887376 0.051866859 0.48326203
0.24956015 0.051828373 0.48290342
0.25026178 0.051793311 0.48257673
0.2509703 0.05175991 0.48226553
0.25168762 0.051728543 0.48197329
0.25242332 0.051701158 0.48171812
0.25316623 0.051675439 0.48147848
0.25391293 0.051650666 0.48124766
0.25468194 0.051630586 0.48106056
0.25546253 0.051612969 0.48089644
0.2562491 0.051596686 0.48074472
0.25704643 0.051582675 0.48061419
0.25785607 0.051571216 0.4805074
0.25868607 0.051563893 0.48043916
0.25952888 0.051559158 0.48039505
0.26038462 0.051557019 0.48037514
0.26125449 0.051557682 0.48038131
0.26214081 0.051561579 0.48041761
0.26304224 0.051568415 0.4804813
0.26396137 0.051578663 0.48057678
0.26490462 0.051593535 0.48071536
0.26587585 0.051613744 0.48090366
0.26687026 0.051638313 0.48113257
0.26788715 0.05166705 0.48140031
0.26894817 0.051704086 0.48174542
0.2700482 0.051748369 0.48215801
0.27118373 0.051799137 0.48263103
0.27240059 0.051865071 0.48324537
0.27369621 0.051945537 0.48399508
0.2750845 0.052043013 0.48490331
0.27669713 0.052182186 0.48620003
0.27870482 0.052394744 0.48818052
0.23753463 0.05453831 0.49975365
0.2378245 0.054398421 0.4984718
0.23815724 0.054269355 0.49728912
0.23851129 0.054146092 0.49615961
0.23891523 0.054035034 0.49514195
0.23933239 0.053927783 0.49415919
0.2397854 0.053829379 0.49325746
0.24025239 0.053734824 0.49239102
0.24074472 0.053646617 0.49158275
0.24124797 0.053561475 0.49080259
0.2417756 0.053482354 0.49007756
0.24230723 0.053404689 0.48936591
0.24286644 0.053333648 0.4887149
0.24342419 0.053262796 0.48806569
0.24400842 0.053198233 0.48747405
0.24460065 0.053135868 0.48690259
0.24520975 0.053077605 0.48636869
0.24583282 0.053022765 0.48586619
0.24645451 0.052968018 0.48536453
0.24710013 0.052918788 0.48491341
0.24775504 0.052871887 0.48448363
0.24841681 0.052826773 0.48407024
0.24909733 0.052785948 0.48369616
0.24978116 0.05274611 0.48333108
0.2504783 0.052709345 0.4829942
0.25119075 0.052676052 0.48268914
0.25191161 0.052644741 0.48240224
0.25263619 0.052614424 0.48212442
0.25338623 0.052589595 0.48189691
0.25414184 0.052566089 0.4816815
0.25490624 0.052544557 0.4814842
0.25567529 0.052524127 0.48129699
0.25647396 0.052509893 0.48116657
0.25728026 0.05249732 0.48105136
0.25809604 0.052486759 0.48095459
0.25892493 0.052478921 0.48088276
0.25976968 0.052474342 0.4808408
0.2606287 0.052472666 0.48082542
0.26150474 0.052474417 0.48084149
0.26239792 0.052479584 0.48088881
0.2633101 0.052488502 0.48097056
0.26424226 0.052501336 0.48108816
0.26519379 0.052517917 0.48124009
0.26616544 0.052538365 0.48142746
0.26717442 0.052566022 0.4816809
0.26822242 0.052601155 0.48200282
0.26929522 0.052640904 0.48236707
0.27042058 0.052690644 0.48282284
0.27159834 0.052750237 0.48336893
0.27286527 0.052826717 0.48406973
0.27420786 0.052917309 0.48489985
0.27572063 0.053040054 0.48602462
0.27757373 0.053227291 0.48774034
0.23826902 0.055400923 0.49940348
0.23855563 0.055258647 0.49812096
0.23890752 0.055132505 0.49698386
0.23928 0.055012036 0.49589792
0.23968597 0.05490014 0.49488923
0.2401199 0.054795451 0.49394554
0.24057193 0.054695655 0.49304593
0.2410509 0.05460269 0.49220791
0.24154179 0.054513101 0.49140033
0.24205586 0.054429378 0.49064565
0.24258402 0.054349426 0.48992491
0.2431342 0.054274965 0.4892537
0.24370167 0.054204892 0.48862204
0.24427164 0.054135874 0.48799989
0.24486786 0.054073155 0.48743451
0.2454627 0.054010577 0.48687041
0.24607809 0.053952951 0.48635095
0.24671166 0.053899705 0.48587096
0.24734493 0.053846773 0.48539382
0.24800265 0.053799517 0.48496783
0.2486615 0.053752836 0.48454705
0.24933515 0.053709675 0.48415798
0.250027 0.053670719 0.48380682
0.25072029 0.053632341 0.48346084
0.25142643 0.05359697 0.48314202
0.25215176 0.053565919 0.48286211
0.25288659 0.053537093 0.48260227
0.25362429 0.053509071 0.48234966
0.25438035 0.053485096 0.48213354
0.25515038 0.053464219 0.48194534
0.25593436 0.053446393 0.48178467
0.25672442 0.053429954 0.48163646
0.25752616 0.053416047 0.48151112
0.25834316 0.053405393 0.48141506
0.25918064 0.053399026 0.48135766
0.26003066 0.053395279 0.4813239
0.2608954 0.053394567 0.48131749
0.26177892 0.053397693 0.48134565
0.26267871 0.0534041 0.48140341
0.26359594 0.053414006 0.4814927
0.2645382 0.053428899 0.48162696
0.26550886 0.053449415 0.48181188
0.26650369 0.053474642 0.4820393
0.26752782 0.053505562 0.48231804
0.2685861 0.053543095 0.48265636
0.26969972 0.053591382 0.48309165
0.27083796 0.053644232 0.48356804
0.2720882 0.053718857 0.48424074
0.27340436 0.053805981 0.48502609
0.2748397 0.053915922 0.48601717
0.27657881 0.054084565 0.48753738
0.27904671 0.054394208 0.49032858
0.23900945 0.056263994 0.49906859
0.23931551 0.05612465 0.49783257
0.23966515 0.05599653 0.49669614
0.24005386 0.05587846 0.49564883
0.24046409 0.055766255 0.49465355
0.24091919 0.055665247 0.49375761
0.24137771 0.055565771 0.49287525
0.24187547 0.055476025 0.4920792
0.24237345 0.055386987 0.49128941
0.24290404 0.055306021 0.49057123
0.24343823 0.05522646 0.48986551
0.24399397 0.055152345 0.4892081
0.24456047 0.055081185 0.48857692
0.24514495 0.055014577 0.48798609
0.24575207 0.054953501 0.48744434
0.24635781 0.054892562 0.48690379
0.24698424 0.054836642 0.48640779
0.24761905 0.054782975 0.48593175
0.24826452 0.054732036 0.48547992
0.24893454 0.054686852 0.48507911
0.24960345 0.054641739 0.48467895
0.25028342 0.054599348 0.48430297
0.25098911 0.054562852 0.48397923
0.25169459 0.05452656 0.4836573
0.25241435 0.054493599 0.48336494
0.25314587 0.054463401 0.48309708
0.25389662 0.054437529 0.4828676
0.25465038 0.054412473 0.48264536
0.25541839 0.054390624 0.48245156
0.25619513 0.054370787 0.48227558
0.25699863 0.054356731 0.48215091
0.25781086 0.054344617 0.48204345
0.25863269 0.0543346 0.4819546
0.25947428 0.054328784 0.48190302
0.26032954 0.054325867 0.48187715
0.26120037 0.054326199 0.4818801
0.26208839 0.054330096 0.48191467
0.26300022 0.054338891 0.48199266
0.26393285 0.054351903 0.48210809
0.26488602 0.054369055 0.48226023
0.26586086 0.054390516 0.4824506
0.26687035 0.05441891 0.48270246
0.26792845 0.054457001 0.48304033
0.26901454 0.054500513 0.48342627
0.27015308 0.054554336 0.48390371
0.27135748 0.054621071 0.48449564
0.27266166 0.054707393 0.48526132
0.27406797 0.054813594 0.48620334
0.27570033 0.054964181 0.48753908
0.2779642 0.055239312 0.48997951
0.23981993 0.057142835 0.49888188
0.24013929 0.057005025 0.49767876
0.24049021 0.056875713 0.49654979
0.2408931 0.056759596 0.49553606
0.24130619 0.056646742 0.49455076
0.24176452 0.056545291 0.49366507
0.24222766 0.056445714 0.49279571
0.24272595 0.056355018 0.49200392
0.24322735 0.056265704 0.49122417
0.24377343 0.056187343 0.49054003
0.24431802 0.056109201 0.48985782
0.24488857 0.056037564 0.48923239
0.24546605 0.055968024 0.48862526
0.24605271 0.055901065 0.48804069
0.24666454 0.055840276 0.48751
0.24728361 0.055781562 0.48699737
0.24792174 0.055727541 0.48652574
0.2485671 0.055675521 0.48607162
0.24921875 0.055625275 0.48563293
0.24989952 0.055581853 0.48525384
0.25058299 0.055539332 0.48488262
0.25127304 0.055498566 0.48452669
0.25198603 0.055463128 0.48421732
0.2527065 0.055429578 0.48392439
0.25344285 0.055399731 0.48366383
0.2541793 0.055370104 0.48340517
0.25494421 0.055346861 0.48320225
0.2557162 0.055325311 0.48301411
0.25650629 0.055307809 0.48286131
0.25730193 0.055291619 0.48271996
0.25811407 0.055279069 0.4826104
0.25894067 0.055269685 0.48252848
0.25977951 0.055262983 0.48246995
0.26064351 0.055261645 0.48245829
0.26152509 0.055264037 0.48247916
0.26242253 0.055269755 0.48252907
0.2633433 0.055280332 0.48262143
0.26429436 0.055297174 0.48276845
0.26527095 0.055319231 0.48296103
0.26627138 0.055346098 0.48319557
0.26729637 0.055377878 0.48347303
0.26837605 0.055420749 0.48384732
0.26951131 0.055474777 0.484319
0.27067712 0.055534724 0.48484239
0.27196887 0.055620041 0.48558724
0.27336949 0.055727009 0.4865211
0.27496284 0.055872448 0.48779085
0.27704662 0.056116298 0.48991978
0.24063972 0.058023408 0.49871588
0.24097505 0.05788786 0.49755085
0.24133384 0.057758935 0.49644271
0.2417496 0.057644546 0.49545953
0.24217628 0.057533588 0.49450585
0.24264289 0.057432905 0.49364045
0.24311914 0.057335224 0.49280089
0.24362755 0.057245817 0.49203244
0.24413806 0.05715755 0.49127376
0.24468274 0.057077892 0.49058908
0.24522592 0.056998458 0.48990634
0.24581087 0.056929268 0.48931167
0.2464018 0.056861952 0.48873308
0.24699949 0.056796674 0.48817199
0.24761912 0.056736887 0.48765811
0.24824385 0.056678686 0.48715788
0.24889256 0.05662635 0.48670805
0.24955337 0.056577127 0.48628497
0.25021303 0.056527991 0.48586264
0.25090039 0.056485429 0.48549682
0.25160059 0.056446049 0.48515835
0.25230396 0.056407645 0.48482826
0.25302237 0.056372862 0.48452932
0.25375813 0.05634217 0.48426551
0.25451279 0.056315862 0.4840394
0.25526956 0.056290213 0.48381892
0.25604409 0.056268632 0.48363346
0.25682271 0.056248095 0.48345691
0.2576353 0.056235116 0.48334536
0.25845495 0.056223761 0.48324776
0.25929189 0.056216221 0.48318297
0.26014674 0.056212608 0.48315191
0.26101476 0.056211859 0.48314548
0.26190457 0.056215793 0.48317927
0.26281762 0.056224667 0.48325557
0.26374903 0.0562374 0.483365
0.26470253 0.056254741 0.48351404
0.26569417 0.056280047 0.48373154
0.26672891 0.05631429 0.48402587
0.26779228 0.056354333 0.48437005
0.26889631 0.056402642 0.48478526
0.2700893 0.056469236 0.48535764
0.27133209 0.056545783 0.48601556
0.27272239 0.056652475 0.48693261
0.27431825 0.056801047 0.48820961
0.27636328 0.057041384 0.49027529
0.24155144 0.058925956 0.49874094
0.2418887 0.058789276 0.4975841
0.24224839 0.058659036 0.49648178
0.24266295 0.058542997 0.49549961
0.24309024 0.058430865 0.49455056
0.24355456 0.058328424 0.49368352
0.24403566 0.058230732 0.49285665
0.24455675 0.058143258 0.4921163
0.2450787 0.058056619 0.49138299
0.24563721 0.057979234 0.49072802
0.24619401 0.057902001 0.49007434
0.24677335 0.057830606 0.48947003
0.24737264 0.057764377 0.48890951
0.24797958 0.057700399 0.488368
0.24861556 0.057643607 0.48788732
0.24925029 0.057586927 0.48740759
0.24989979 0.057534046 0.48696002
0.25057793 0.057488106 0.48657119
0.25125501 0.057442244 0.48618302
0.25194353 0.05739931 0.48581961
0.25265923 0.057362843 0.48551098
0.25337881 0.057327505 0.48521188
0.25411919 0.057297096 0.48495451
0.25485876 0.05726672 0.4846974
0.25562644 0.057242844 0.48449531
0.25640586 0.057221752 0.4843168
0.25720435 0.057205044 0.48417538
0.25800747 0.057189472 0.48404357
0.25883782 0.057180025 0.48396361
0.25967708 0.0571726 0.48390079
0.26053709 0.057169776 0.48387688
0.2614198 0.057171945 0.48389524
0.26231867 0.057177611 0.48394319
0.2632477 0.057189796 0.48404634
0.26420489 0.057207998 0.48420039
0.2651827 0.057230536 0.48439115
0.26619342 0.057259995 0.48464048
0.26725003 0.057299107 0.48497152
0.26836565 0.057350572 0.48540711
0.26952472 0.057410955 0.48591819
0.27079272 0.057494078 0.48662174
0.27214688 0.057594899 0.48747507
0.27371854 0.057740949 0.48871121
0.27585903 0.058005672 0.49095178
0.24249431 0.059836261 0.4988299
0.24283482 0.059698764 0.49768364
0.24319935 0.059568167 0.49659491
0.24362284 0.05945291 0.49563408
0.24405646 0.059340969 0.49470085
0.24453339 0.05924033 0.49386188
0.24501483 0.059141509 0.49303806
0.24553405 0.059052493 0.49229595
0.24605466 0.05896445 0.49156198
0.24662638 0.05888924 0.490935
0.24720007 0.058815043 0.49031645
0.24778636 0.05874436 0.48972717
0.24839249 0.058678865 0.48918119
0.24900801 0.058616046 0.48865747
0.24965177 0.058560289 0.48819268
0.25030524 0.0585072 0.48775008
0.25095877 0.058454491 0.48731068
0.25164542 0.058409847 0.48693848
0.25234434 0.058368344 0.4865925
0.25304803 0.05832823 0.48625809
0.2537688 0.058292314 0.48595867
0.25450218 0.058259532 0.48568538
0.25526348 0.058233351 0.48546711
0.25602895 0.05820829 0.48525819
0.25681284 0.058187578 0.48508552
0.25760478 0.058168825 0.48492917
0.25841969 0.058155362 0.48481694
0.25924486 0.058144294 0.48472467
0.26010451 0.058141008 0.48469728
0.26097423 0.058139987 0.48468879
0.26186824 0.058144368 0.4847253
0.262786 0.058153972 0.48480538
0.26372698 0.058168638 0.48492762
0.26471302 0.058193106 0.48513162
0.26573002 0.058224205 0.48539087
0.26677373 0.058260925 0.485697
0.26787093 0.05830906 0.48609826
0.26905456 0.058375623 0.48665318
0.27029145 0.058453269 0.48730049
0.27169853 0.058567107 0.48824951
0.27332267 0.05872684 0.48958114
0.27562234 0.059030227 0.49211034
0.2435188 0.06076717 0.49908546
0.2438453 0.060624521 0.49791387
0.24420165 0.060490314 0.49681163
0.24462056 0.060372531 0.49584427
0.24505785 0.060260128 0.49492109
0.24554969 0.060161904 0.49411437
0.24604024 0.060064074 0.49331087
0.24657199 0.059976973 0.49259549
0.24710634 0.059891123 0.49189043
0.24766269 0.059811205 0.49123403
0.24825087 0.059739515 0.49064526
0.24884313 0.059669312 0.49006867
0.24946718 0.0596072 0.48955855
0.25009206 0.059545729 0.48905367
0.25073385 0.059488699 0.48858526
0.25140864 0.059439871 0.48818424
0.25208327 0.05939135 0.48778573
0.25277287 0.059346672 0.4874188
0.25348154 0.059306771 0.48709109
0.25420365 0.059270278 0.48679137
0.2549521 0.059240162 0.48654404
0.25570071 0.059210286 0.48629865
0.25646895 0.05918514 0.48609212
0.25725326 0.059163868 0.48591742
