# .PCD v0.7 - Point Cloud Data file format
VERSION 0.7
FIELDS x y z
SIZE 4 4 4
TYPE F F F
COUNT 1 1 1
WIDTH 1361
HEIGHT 1
VIEWPOINT 0 0 0 1 0 0 0
POINTS 1361
DATA ascii
0.08428245 -0.0030568764 0.48419413
0.084957771 -0.0030497662 0.4830679
0.085656665 -0.0030436378 0.48209721
0.086366661 -0.0030380234 0.48120788
0.087080143 -0.003032642 0.4803555
0.087794363 -0.0030273919 0.47952393
0.088517115 -0.0030225357 0.47875473
0.089253366 -0.00301823 0.4780727
0.090004824 -0.0030145156 0.47748438
0.0907702 -0.0030113338 0.47698039
0.091549128 -0.0030086567 0.47655636
0.092337206 -0.0030063277 0.47618744
0.093133174 -0.003004296 0.47586563
0.093934834 -0.0030024832 0.47557852
0.094742589 -0.0030008964 0.47532716
0.095556289 -0.0029995248 0.47510991
0.096375525 -0.0029983495 0.47492376
0.097200476 -0.0029973716 0.47476885
0.09803097 -0.0029965797 0.47464344
0.098867223 -0.0029959765 0.47454786
0.099710323 -0.002995589 0.4744865
0.10055916 -0.0029953793 0.47445327
0.10141507 -0.0029953818 0.47445369
0.1022782 -0.0029955956 0.47448754
0.10314867 -0.0029960196 0.47455469
0.10402703 -0.0029966636 0.4746567
0.10491438 -0.0029975537 0.4747977
0.10581014 -0.002998668 0.47497422
0.10671627 -0.0030000557 0.47519401
0.10763224 -0.003001696 0.47545382
0.10856131 -0.0030036725 0.4757669
0.10950542 -0.0030060313 0.4761405
0.11046723 -0.003008835 0.47658461
0.11145656 -0.0030123394 0.47713968
0.11248951 -0.0030169601 0.47787157
0.11358677 -0.0030232219 0.47886342
0.11476675 -0.0030315747 0.48018646
0.11599147 -0.0030409747 0.48167539
0.11730523 -0.0030525522 0.48350921
0.081408031 -0.002224263 0.4932372
0.081702165 -0.0022081668 0.48966777
0.082110681 -0.0021954728 0.48685285
0.082679793 -0.002187296 0.48503965
0.083321296 -0.0021811856 0.48368466
0.084002689 -0.0021762354 0.48258692
0.084699735 -0.0021717881 0.4816007
0.085402846 -0.0021675851 0.48066866
0.086106218 -0.0021634728 0.47975677
0.086814821 -0.0021595727 0.47889188
0.087537885 -0.0021561056 0.47812307
0.088277444 -0.0021531084 0.47745842
0.089033924 -0.0021505777 0.47689727
0.089803696 -0.0021484138 0.47641739
0.090582617 -0.0021465074 0.47599465
0.091368556 -0.0021448017 0.4756164
0.092160441 -0.0021432659 0.47527584
0.092957921 -0.0021418876 0.47497016
0.093760185 -0.0021406435 0.47469431
0.094567649 -0.0021395395 0.47444949
0.095380187 -0.0021385693 0.47423431
0.096197188 -0.0021377152 0.47404495
0.097019024 -0.002136983 0.47388256
0.097847447 -0.0021364072 0.47375488
0.098680541 -0.0021359425 0.47365183
0.099519663 -0.0021356151 0.47357923
0.10036606 -0.0021354479 0.47354218
0.10121863 -0.0021354142 0.47353467
0.10207824 -0.002135528 0.47355992
0.10294566 -0.0021358021 0.47362071
0.10382025 -0.0021362191 0.47371319
0.10470425 -0.0021368214 0.47384673
0.1055956 -0.0021375627 0.47401112
0.10649621 -0.0021384782 0.47421414
0.10740688 -0.0021395793 0.47445831
0.10832717 -0.0021408533 0.4747408
0.10925942 -0.0021423416 0.47507083
0.11020395 -0.0021440457 0.47544876
0.11116428 -0.0021460287 0.47588846
0.1121458 -0.002148387 0.47641143
0.1131563 -0.0021512606 0.47704867
0.11422106 -0.0021551142 0.47790325
0.11537253 -0.0021605343 0.47910514
0.11663152 -0.0021678722 0.48073232
0.11793935 -0.0021760026 0.4825353
0.11970252 -0.0021923538 0.48616123
0.080517024 -0.0013494473 0.49874017
0.080417238 -0.0013328824 0.49261799
0.080714606 -0.0013231903 0.48903587
0.081155986 -0.001316043 0.48639432
0.0817421 -0.0013113706 0.48466748
0.082391173 -0.0013077963 0.48334646
0.083071277 -0.0013047844 0.48223329
0.083763845 -0.0013020287 0.48121479
0.084458753 -0.0012993654 0.48023048
0.085154757 -0.001296773 0.47927234
0.085862584 -0.0012944108 0.47839931
0.086588137 -0.0012923602 0.47764146
0.087332152 -0.001290623 0.47699937
0.088091329 -0.0012891414 0.47645178
0.08886075 -0.0012878369 0.4759697
0.089637585 -0.0012866639 0.47553617
0.09042047 -0.0012855991 0.4751426
0.091208167 -0.0012846221 0.47478151
0.092000201 -0.0012837237 0.47444952
0.092796378 -0.0012828993 0.47414479
0.093596928 -0.0012821497 0.47386774
0.094401523 -0.0012814687 0.47361603
0.095210373 -0.001280857 0.47338998
0.096024409 -0.0012803255 0.47319353
0.096843585 -0.0012798711 0.47302562
0.097667947 -0.0012794927 0.47288579
0.098498404 -0.0012792001 0.47277761
0.099334612 -0.0012789863 0.47269863
0.10017692 -0.0012788542 0.47264978
0.10102694 -0.0012788221 0.47263789
0.10188277 -0.0012788633 0.47265312
0.10274727 -0.0012790116 0.47270796
0.1036186 -0.0012792419 0.47279307
0.10449892 -0.0012795787 0.47291753
0.10538731 -0.0012800078 0.47307613
0.10628486 -0.0012805404 0.47327298
0.10719261 -0.0012811866 0.47351179
0.10810927 -0.0012819282 0.47378588
0.10903689 -0.0012827868 0.47410324
0.10997478 -0.0012837523 0.47446004
0.11092487 -0.001284844 0.47486356
0.11188872 -0.0012860772 0.47531933
0.11287015 -0.0012874922 0.47584227
0.11387593 -0.0012891614 0.47645921
0.11491881 -0.0012912226 0.47722101
0.1160406 -0.0012941331 0.4782967
0.11729029 -0.0012984165 0.47987977
0.11863572 -0.0013036892 0.48182851
0.12016512 -0.0013108922 0.48449063
0.079485871 -0.00044907269 0.49791628
0.079487793 -0.0004440659 0.49236491
0.079782717 -0.00044078851 0.48873106
0.080240503 -0.00043847269 0.48616335
0.080831863 -0.00043692897 0.48445174
0.081483357 -0.00043573984 0.48313329
0.082161225 -0.00043471548 0.48199749
0.082847983 -0.00043375907 0.48093706
0.08353442 -0.00043282085 0.47989678
0.084225938 -0.00043192788 0.47890669
0.084934585 -0.00043114004 0.47803316
0.085662737 -0.00043046603 0.47728583
0.086409539 -0.00042989821 0.47665626
0.087168835 -0.00042940312 0.47610733
0.087936401 -0.00042895807 0.47561386
0.088709965 -0.00042855056 0.47516203
0.089488395 -0.00042817413 0.47474468
0.0902711 -0.00042782511 0.47435769
0.091057427 -0.00042749968 0.47399685
0.091847077 -0.00042719569 0.47365981
0.092640482 -0.00042691466 0.4733482
0.093437776 -0.00042665651 0.47306198
0.094239138 -0.00042642144 0.47280136
0.095045634 -0.00042621361 0.4725709
0.095856629 -0.00042602947 0.47236675
0.096672699 -0.00042587091 0.47219095
0.097494997 -0.00042574236 0.4720484
0.09832263 -0.0004256391 0.4719339
0.099156462 -0.00042556421 0.47185087
0.099996276 -0.00042551607 0.4717975
0.10084213 -0.00042549425 0.4717733
0.1016958 -0.00042550545 0.47178572
0.10255625 -0.0004255446 0.47182915
0.10342456 -0.00042561546 0.47190771
0.10430063 -0.00042571686 0.47202015
0.10518596 -0.00042585406 0.47217226
0.10607964 -0.00042602266 0.47235918
0.10698302 -0.00042622717 0.47258595
0.10789654 -0.00042646856 0.4728536
0.10882109 -0.00042674938 0.47316495
0.1097556 -0.00042706457 0.47351444
0.11070263 -0.00042742331 0.47391218
0.11166003 -0.00042781618 0.4743478
0.11263089 -0.00042825434 0.47483361
0.11361783 -0.00042874651 0.47537932
0.11462451 -0.00042930528 0.47599885
0.11566415 -0.00042997824 0.47674501
0.11676075 -0.00043085148 0.47771323
0.11799135 -0.00043220277 0.47921148
0.11937347 -0.00043408535 0.48129883
0.12088522 -0.00043640874 0.48387492
0.078624673 0.00044928386 0.49815041
0.078611754 0.00044413423 0.49244067
0.07889615 0.0004407606 0.48870012
0.079356037 0.00043843113 0.48611727
0.079945184 0.00043685891 0.48437408
0.080593675 0.00043564147 0.48302421
0.081269056 0.00043459388 0.48186266
0.081950612 0.00043360112 0.48076192
0.082630113 0.0004326184 0.47967231
0.083318546 0.0004317023 0.47865659
0.084027313 0.00043090931 0.47777733
0.084757537 0.00043024131 0.47703668
0.085504107 0.00042966887 0.47640198
0.086261995 0.00042916415 0.47584239
0.087026991 0.0004287044 0.47533262
0.087796941 0.00042827777 0.47485957
0.088571012 0.00042787928 0.47441775
0.089348234 0.00042750352 0.47400111
0.090128154 0.00042714766 0.47360656
0.090911582 0.00042681495 0.47323766
0.091698512 0.00042650473 0.47289369
0.092488855 0.00042621593 0.47257349
0.093283713 0.00042595304 0.47228199
0.094083622 0.00042571776 0.47202113
0.094887674 0.00042550525 0.47178552
0.095696732 0.00042531884 0.47157881
0.096511386 0.00042516028 0.47140303
0.097331315 0.00042502757 0.47125587
0.098157056 0.00042492233 0.47113919
0.098988451 0.00042484314 0.47105137
0.099825911 0.0004247911 0.4709937
0.10066973 0.00042476683 0.47096676
0.10152033 0.00042477125 0.47097167
0.10237734 0.00042480225 0.47100604
0.10324197 0.00042486406 0.47107458
0.10411443 0.00042495684 0.47117746
0.10499536 0.0004250824 0.47131667
0.10588449 0.00042523892 0.4714902
0.10678374 0.00042543322 0.47170565
0.10769254 0.00042566221 0.47195953
0.10861227 0.00042593048 0.47225699
0.10954325 0.00042623832 0.47259831
0.11048629 0.000426588 0.47298601
0.11144131 0.00042697822 0.47341868
0.112409 0.00042741065 0.47389814
0.11338919 0.00042788376 0.47442272
0.11438408 0.00042840478 0.47500041
0.11539658 0.00042898356 0.47564214
0.11643746 0.00042965854 0.47639054
0.11752812 0.00043050593 0.47733009
0.11873853 0.00043177648 0.47873884
0.12015682 0.00043377912 0.4809593
0.1217022 0.00043620859 0.48365301
0.077939406 0.0013515503 0.49951744
0.077778399 0.001333344 0.49278858
0.078054599 0.0013229593 0.48895052
0.078497075 0.0013155934 0.48622817
0.07908041 0.0013107251 0.48442888
0.07972414 0.0013069531 0.48303482
0.080393754 0.0013036826 0.48182604
0.081069961 0.0013005877 0.48068219
0.081744812 0.0012975368 0.47955462
0.082430147 0.0012947144 0.47851151
0.083137713 0.0012922961 0.47761774
0.083867453 0.0012902685 0.47686836
0.08461374 0.001288534 0.47622734
0.085368603 0.0012869638 0.475647
0.086130768 0.0012855339 0.47511849
0.08689674 0.0012841884 0.47462121
0.087666124 0.0012829188 0.47415203
0.088437535 0.0012817035 0.47370282
0.089212075 0.0012805561 0.47327879
0.089989446 0.0012794707 0.47287765
0.090770528 0.0012784582 0.47250339
0.091555141 0.0012775136 0.47215429
0.092343867 0.0012766434 0.47183266
0.093137741 0.0012758594 0.47154295
0.093935899 0.0012751479 0.47127998
0.094738699 0.0012745117 0.47104481
0.095547378 0.0012739651 0.47084281
0.096360616 0.0012734884 0.47066662
0.097179271 0.0012730908 0.47051972
0.098003104 0.0012727677 0.47040024
0.098832481 0.0012725212 0.47030917
0.099667735 0.0012723542 0.47024742
0.10050949 0.0012722721 0.47021711
0.1013566 0.0012722586 0.4702121
0.10221159 0.0012723434 0.47024345
0.10307267 0.0012725021 0.4703021
0.10394157 0.0012727539 0.47039518
0.1048185 0.0012730992 0.47052279
0.10570319 0.0012735324 0.47068289
0.10659791 0.0012740786 0.47088477
0.10750105 0.001274716 0.47112036
0.10841554 0.0012754769 0.47140157
0.10934091 0.001276353 0.47172537
0.1102784 0.0012773559 0.47209603
0.11122879 0.0012784918 0.47251582
0.11219268 0.0012797645 0.47298619
0.11317053 0.0012811758 0.47350779
0.11416176 0.0012827164 0.47407719
0.11516663 0.0012843863 0.47469437
0.11618912 0.0012862264 0.47537446
0.11723576 0.001288305 0.4761427
0.11833017 0.0012908747 0.47709239
0.11953667 0.0012946209 0.47847697
0.12098296 0.001300892 0.4807947
0.12259177 0.0013088089 0.48372069
0.076990135 0.0022251483 0.49343351
0.0772539 0.0022072543 0.48946545
0.077664688 0.0021939178 0.48650801
0.078234211 0.0021853133 0.48459995
0.078871138 0.0021787609 0.48314694
0.079535626 0.0021731046 0.48189265
0.080206275 0.0021677371 0.4807024
0.08087606 0.0021624614 0.47953251
0.081558451 0.0021576309 0.47846133
0.082263932 0.002153506 0.47754663
0.0829923 0.0021500597 0.47678235
0.083735593 0.0021470664 0.47611862
0.084488168 0.0021443698 0.47552061
0.085246287 0.0021418666 0.47496551
0.086008452 0.0021395136 0.47444376
0.086773112 0.0021372689 0.47394595
0.087539382 0.0021351068 0.47346655
0.088308513 0.0021330558 0.4730117
0.089080796 0.0021311194 0.47258231
0.089856356 0.0021292975 0.47217828
0.09063603 0.0021276064 0.47180328
0.091419592 0.0021260371 0.47145528
0.092207782 0.0021246034 0.47113734
0.093001276 0.0021233167 0.47085205
0.09379866 0.0021221417 0.47059146
0.094600901 0.0021210965 0.47035968
0.095407583 0.0021201684 0.4701539
0.096219487 0.0021193719 0.46997726
0.097035937 0.0021186885 0.46982574
0.097858049 0.0021181395 0.46970397
0.098685183 0.0021177076 0.46960822
0.099518247 0.0021174094 0.46954209
0.1003572 0.0021172403 0.46950459
0.10120224 0.0021172017 0.46949601
0.10205421 0.0021173072 0.46951941
0.1029131 0.0021175535 0.46957403
0.10377944 0.0021179477 0.46966144
0.10465292 0.0021184802 0.46977952
0.10553436 0.002119164 0.46993113
0.10642511 0.0021200222 0.47012144
0.10732435 0.0021210345 0.47034597
0.10823288 0.0021222134 0.47060734
0.10915277 0.0021235947 0.47091368
0.11008328 0.0021251598 0.47126076
0.11102805 0.0021269741 0.47166306
0.11198588 0.002129009 0.47211432
0.11295849 0.0021312924 0.47262064
0.1139458 0.0021338165 0.47318041
0.11494873 0.0021365935 0.47379619
0.11596557 0.002139586 0.47445983
0.11699946 0.0021428473 0.47518301
0.1180575 0.0021464999 0.47599298
0.11915787 0.0021508639 0.47696072
0.12037531 0.0021572635 0.47837985
0.12186364 0.0021683923 0.48084766
0.12357847 0.0021833652 0.48416796
0.076258123 0.0031216776 0.49445832
0.076495342 0.0030951872 0.49026236
0.076861173 0.0030744469 0.48697719
0.077407911 0.0030613297 0.48489952
0.078033738 0.0030515988 0.48335817
0.078692988 0.0030433752 0.4820556
0.079359733 0.003035618 0.48082691
0.080023646 0.0030279218 0.47960785
0.080701336 0.0030209057 0.47849652
0.081403591 0.0030149478 0.47755283
0.082129225 0.0030099715 0.47676462
0.082869887 0.0030056436 0.47607911
0.083619088 0.0030017109 0.47545618
0.084373415 0.0029980401 0.47487473
0.08513163 0.00299458 0.47432667
0.085891396 0.0029912426 0.47379807
0.086653456 0.0029880502 0.47329241
0.087417573 0.0029849904 0.47280774
0.088184878 0.0029820974 0.47234949
0.088955753 0.0029793794 0.47191897
0.089730412 0.0029768383 0.47151649
0.090509616 0.0029744946 0.47114524
0.091293044 0.0029723318 0.47080266
0.092081241 0.0029703625 0.47049075
0.092873208 0.00296855 0.47020367
0.093669616 0.0029669108 0.46994403
0.094470493 0.0029654414 0.46971127
0.095275097 0.0029641143 0.46950105
0.096084803 0.0029629676 0.46931943
0.09689939 0.0029619902 0.46916461
0.097718835 0.0029611767 0.46903577
0.098543644 0.0029605387 0.46893471
0.09937378 0.00296007 0.46886048
0.10021037 0.0029598 0.46881768
0.10105353 0.0029597266 0.46880609
0.10190293 0.0029598363 0.46882343
0.10275931 0.0029601448 0.46887231
0.10362305 0.0029606589 0.46895373
0.10449448 0.002961382 0.46906829
0.10537357 0.0029623092 0.46921512
0.1062615 0.002963468 0.46939871
0.10715757 0.002964834 0.46961507
0.10806289 0.0029664321 0.46986821
0.10897847 0.0029682852 0.47016171
0.10990442 0.0029703896 0.47049505
0.11084138 0.0029727572 0.47087008
0.11179242 0.0029754636 0.47129875
0.11275748 0.0029784995 0.47177961
0.11373924 0.0029819277 0.47232261
0.11473739 0.0029857312 0.4729251
0.11575226 0.002989911 0.47358713
0.11678226 0.0029944167 0.47430083
0.11782774 0.0029992517 0.47506666
0.11889945 0.0030046792 0.47592634
0.12001479 0.003011124 0.47694716
0.12125421 0.0030205676 0.478443
0.1228122 0.0030377577 0.48116583
0.07562349 0.0040272861 0.4961462
0.07578095 0.0039884709 0.4913643
0.076089762 0.0039584269 0.48766297
0.076603107 0.0039395886 0.48534217
0.077212706 0.0039260699 0.48367673
0.077864446 0.0039149723 0.48230952
0.078527719 0.0039046933 0.48104322
0.079187393 0.0038944618 0.47978273
0.079858147 0.0038849909 0.47861597
0.080555856 0.00387702 0.47763395
0.081277192 0.0038703424 0.47681132
0.082014576 0.003864561 0.47609907
0.082760498 0.0038592978 0.47545066
0.083511695 0.0038543858 0.47484553
0.084265612 0.0038496978 0.47426799
0.085021451 0.0038451913 0.4737128
0.085778885 0.0038408455 0.4731774
0.086538635 0.0038366881 0.47266525
0.087301344 0.0038327419 0.47217909
0.0880678 0.003829035 0.47172239
0.088838369 0.0038255756 0.47129622
0.089613035 0.0038223569 0.4708997
0.090391964 0.0038193788 0.4705328
0.091175161 0.0038166346 0.47019473
0.091962017 0.0038140928 0.46988159
0.092752002 0.0038117261 0.46959001
0.093546763 0.0038095969 0.46932769
0.094345279 0.0038076572 0.46908873
0.09514793 0.0038059172 0.46887439
0.095954448 0.0038043614 0.46868271
0.096766576 0.0038030532 0.46852154
0.097583033 0.0038019365 0.46838397
0.098405316 0.0038010636 0.46827644
0.099233277 0.0038004234 0.46819755
0.10006711 0.0038000168 0.46814749
0.1009073 0.0037998566 0.46812773
0.10175426 0.0037999519 0.46813947
0.10260879 0.0038003256 0.46818551
0.10347022 0.0038009468 0.46826205
0.10433934 0.0038018383 0.46837187
0.10521679 0.0038030164 0.46851701
0.10610261 0.003804476 0.46869683
0.10699724 0.0038062257 0.46891239
0.10790051 0.0038082532 0.46916217
0.10881297 0.003810571 0.4694477
0.1097363 0.0038132304 0.46977535
0.11066935 0.0038161844 0.47013927
0.11161415 0.0038194954 0.47054717
0.11257242 0.0038232144 0.47100532
0.11354567 0.0038273821 0.47151878
0.11453626 0.0038320683 0.47209609
0.11554475 0.0038372795 0.47273809
0.11657258 0.0038430521 0.47344926
0.11761707 0.0038492859 0.47421724
0.11867703 0.0038559325 0.47503608
0.11976235 0.0038633014 0.47594389
0.12089825 0.0038721859 0.47703844
0.12218043 0.0038855968 0.47869059
0.12383316 0.0039105206 0.48176113
0.075245373 0.0049562822 0.49957767
0.075103424 0.0048883883 0.49273419
0.075365283 0.0048480588 0.4886691
0.075821221 0.0048210025 0.48594189
0.076408975 0.0048028501 0.48411217
0.077051535 0.0047885133 0.48266709
0.077709273 0.0047754305 0.48134837
0.078366645 0.0047626137 0.48005649
0.079030566 0.0047504711 0.47883254
0.079719625 0.0047400855 0.47778574
0.080436356 0.0047315503 0.4769254
0.081169449 0.0047241477 0.47617924
0.081911795 0.0047174334 0.47550246
0.082659908 0.0047111865 0.4748728
0.083410047 0.0047051823 0.47426757
0.084161758 0.0046993876 0.47368348
0.08491496 0.0046937917 0.47311947
0.085670747 0.0046884487 0.47258091
0.086429313 0.0046833619 0.47206816
0.087192036 0.0046785972 0.4715879
0.087958254 0.0046741101 0.47113562
0.088729106 0.0046699531 0.4707166
0.089503564 0.0046660625 0.47032443
0.090281181 0.0046624085 0.46995613
0.091063157 0.004659045 0.4696171
0.091847941 0.0046558864 0.46929872
0.092636198 0.0046529598 0.46900371
0.093428172 0.004650271 0.46873268
0.09422341 0.0046477914 0.46848276
0.095023528 0.0046455944 0.46826133
0.095828004 0.0046436479 0.46806511
0.096637517 0.0046419767 0.46789667
0.097453155 0.0046406263 0.46776056
0.098273776 0.0046395347 0.4676505
0.099100389 0.0046387417 0.46757057
0.099932939 0.0046382379 0.46751979
0.10077157 0.0046380218 0.46749803
0.1016165 0.0046380977 0.46750566
0.10246757 0.0046384498 0.46754116
0.10332581 0.0046391184 0.46760854
0.10419152 0.004640108 0.46770832
0.10506561 0.0046414528 0.46784383
0.10594814 0.0046431459 0.46801451
0.10684022 0.004645227 0.46822429
0.10774226 0.0046477057 0.46847412
0.1086539 0.004650556 0.46876141
0.10957436 0.0046537369 0.46908206
0.1105057 0.0046573286 0.46944407
0.11144764 0.0046613081 0.46984521
0.11240128 0.0046657133 0.47028923
0.11336774 0.0046705813 0.4707799
0.11434943 0.0046759993 0.47132602
0.11535078 0.0046821348 0.47194448
0.11637124 0.0046889507 0.47263151
0.11741159 0.0046964637 0.47338876
0.11847108 0.0047046277 0.47421169
0.11954683 0.004713316 0.47508743
0.12064923 0.0047229235 0.47605583
0.12181113 0.004734708 0.47724369
0.12316966 0.0047539165 0.47917986
0.12495343 0.0047891559 0.48273185
0.07447423 0.0057973955 0.49445781
0.074697539 0.0057459646 0.4900713
0.075072467 0.0057072635 0.48677048
0.075625584 0.0056828475 0.48468804
0.076253287 0.0056645302 0.48312578
0.07690531 0.0056484127 0.48175114
0.077560082 0.005632855 0.48042423
0.078216217 0.0056177392 0.47913501
0.07889697 0.005604703 0.47802314
0.079605542 0.0055939029 0.47710201
0.080334343 0.0055847401 0.47632053
0.081073187 0.005576463 0.47561455
0.08181747 0.0055687288 0.4749549
0.082564689 0.0055613518 0.47432575
0.083312675 0.0055541783 0.4737139
0.084061831 0.0055472273 0.47312108
0.084814079 0.0055406182 0.4725574
0.085568614 0.0055342885 0.47201753
0.08632724 0.0055283452 0.47151062
0.087089777 0.0055227662 0.4710348
0.08785677 0.005517575 0.47059202
0.088626795 0.0055126715 0.47017381
0.089400031 0.0055080587 0.46978039
0.090176135 0.005503708 0.46940932
0.090955935 0.0054996614 0.46906418
0.091738097 0.0054958304 0.46873745
0.092523448 0.0054922593 0.46843287
0.093312994 0.0054889997 0.46815485
0.094106853 0.0054860497 0.46790326
0.094906054 0.0054834611 0.46768245
0.095710807 0.0054812357 0.46749267
0.096520938 0.0054793544 0.46733221
0.097336173 0.005477793 0.46719906
0.098157279 0.0054765865 0.46709612
0.09898378 0.0054756985 0.46702039
0.099815458 0.0054751094 0.46697018
0.10065258 0.0054748263 0.46694601
0.1014956 0.0054748664 0.46694943
0.10234439 0.0054752142 0.46697909
0.1031993 0.0054758815 0.46703601
0.10406114 0.0054769022 0.46712306
0.10493013 0.0054782801 0.46724057
0.10580749 0.0054800692 0.46739319
0.10669427 0.0054823146 0.46758467
0.107591 0.0054850313 0.46781638
0.10849862 0.0054882569 0.46809152
0.10941771 0.0054920088 0.46841148
0.11034761 0.0054962407 0.46877244
0.11128824 0.0055009397 0.46917322
0.11223983 0.0055061053 0.46961376
0.11320265 0.0055117393 0.47009429
0.1141791 0.0055179494 0.47062394
0.11517148 0.0055248309 0.4712109
0.11618304 0.0055325255 0.47186714
0.11721561 0.0055411016 0.47259861
0.11827087 0.0055506187 0.47341031
0.11934591 0.0055609206 0.47428897
0.12043764 0.0055718478 0.47522095
0.12156158 0.0055841007 0.476266
0.12276141 0.0055996431 0.4775916
0.1242617 0.0056285788 0.4800595
0.12627277 0.0056800898 0.48445287
0.074025661 0.0067296056 0.49743694
0.074083455 0.0066542025 0.49186331
0.074366018 0.0066005345 0.48789629
0.074866123 0.0065672039 0.48543257
0.075469658 0.0065436121 0.48368871
0.076114736 0.0065241205 0.48224795
0.076766975 0.0065056761 0.48088458
0.077417374 0.0064874892 0.47954026
0.07808692 0.0064712921 0.47834298
0.078786626 0.0064579197 0.47735456
0.079509027 0.0064466782 0.47652358
0.080243632 0.0064366548 0.47578269
0.08098463 0.0064273519 0.47509503
0.081728667 0.0064184815 0.47443935
0.082473502 0.0064098579 0.47380191
0.083219297 0.0064014844 0.47318298
0.083967678 0.0063934783 0.47259116
0.08471857 0.0063858218 0.47202525
0.085473217 0.006378598 0.47149128
0.086231954 0.0063718194 0.47099021
0.08699476 0.0063654701 0.47052088
0.087760806 0.0063594785 0.47007799
0.088529803 0.0063538137 0.46965927
0.089301303 0.0063484339 0.46926162
0.090075389 0.0063433372 0.46888486
0.090851717 0.006338492 0.46852672
0.091631643 0.0063339844 0.46819353
0.092416175 0.006329875 0.46788976
0.093205675 0.0063261772 0.46761644
0.09400095 0.0063229338 0.46737671
0.094801418 0.0063200947 0.46716684
0.095607966 0.0063177072 0.46699035
0.096419938 0.0063157161 0.46684319
0.097236775 0.0063140765 0.46672198
0.098059371 0.006312835 0.46663022
0.098886125 0.0063118804 0.46655965
0.099717736 0.006311249 0.46651298
0.10055421 0.0063109337 0.46648967
0.10139587 0.0063109463 0.4664906
0.10224226 0.0063112504 0.4665131
0.10309434 0.0063118981 0.46656096
0.10395249 0.0063129044 0.46663535
0.10481651 0.0063142474 0.46673462
0.10568828 0.0063160327 0.46686658
0.10656777 0.0063182474 0.46703029
0.10745702 0.0063210013 0.46723384
0.10835719 0.0063243494 0.46748134
0.10926943 0.0063283453 0.46777669
0.11019479 0.006333034 0.46812329
0.11113355 0.0063384152 0.46852103
0.11208396 0.0063443747 0.46896157
0.11304603 0.0063509005 0.46944392
0.11401956 0.0063579679 0.46996632
0.11500662 0.0063656797 0.47053638
0.11600961 0.0063741542 0.4711628
0.117034 0.0063836733 0.4718664
0.11808088 0.0063942717 0.47264981
0.11915234 0.0064060395 0.47351968
0.12024381 0.0064187087 0.47445616
0.12135412 0.0064321971 0.47545317
0.12250257 0.0064475033 0.47658458
0.12376371 0.0064684865 0.47813562
0.12549058 0.006513352 0.48145196
0.073509857 0.0075737429 0.49397084
0.073732264 0.00750568 0.48953167
0.074137926 0.0074576614 0.48639983
0.074706353 0.0074269478 0.48439664
0.075337127 0.0074030701 0.48283932
0.075986765 0.0073815719 0.48143715
0.07663361 0.0073602903 0.48004913
0.077290997 0.0073404857 0.47875747
0.077978924 0.0073239878 0.47768143
0.078693338 0.0073103099 0.47678936
0.079423137 0.0072983424 0.4760088
0.080160901 0.0072873547 0.47529218
0.080901824 0.0072768833 0.47460923
0.081643648 0.0072667124 0.47394586
0.08238636 0.0072568296 0.47330129
0.083131269 0.0072473413 0.47268245
0.083878502 0.0072382465 0.47208926
0.084629789 0.0072296807 0.47153059
0.085384995 0.0072216168 0.47100464
0.086143702 0.0072140046 0.47050816
0.086905546 0.0072068013 0.47003835
0.087670237 0.0071999715 0.4695929
0.088437334 0.0071934671 0.46916869
0.089206144 0.0071872249 0.46876156
0.089977436 0.0071812975 0.46837497
0.090752766 0.0071757999 0.46801642
0.091533095 0.0071707955 0.46768999
0.092319109 0.0071663237 0.46739835
0.093111068 0.0071623898 0.46714178
0.093909293 0.0071590045 0.46692097
0.094712645 0.0071560661 0.46672934
0.095521688 0.0071536065 0.46656892
0.096336238 0.0071515986 0.46643797
0.097154595 0.0071499054 0.46632752
0.097977914 0.007148603 0.46624258
0.098805107 0.0071476037 0.4661774
0.099636473 0.0071469201 0.46613282
0.10047254 0.0071465825 0.4661108
0.10131282 0.0071465475 0.46610853
0.10215794 0.0071468521 0.46612838
0.1030078 0.0071474798 0.46616933
0.10386325 0.0071484824 0.46623471
0.1047238 0.0071498174 0.4663218
0.10559069 0.0071515604 0.46643546
0.1064642 0.0071537206 0.46657637
0.10734631 0.007156421 0.46675247
0.1082378 0.0071596983 0.46696624
0.10914052 0.0071636639 0.46722487
0.11005595 0.0071683954 0.46753347
0.11098689 0.0071740574 0.46790275
0.11193324 0.0071806228 0.46833095
0.11289479 0.0071880575 0.46881586
0.1138677 0.0071961 0.46934041
0.11485239 0.0072047622 0.46990538
0.11585086 0.007214156 0.47051805
0.11686713 0.0072245132 0.47119355
0.11790442 0.0072360118 0.4719435
0.11896791 0.0072489409 0.47278675
0.12005641 0.007263199 0.47371671
0.1211654 0.0072784871 0.4747138
0.12229664 0.0072948872 0.47578347
0.1234794 0.0073141111 0.47703725
0.1248628 0.0073448704 0.47904342
0.12685633 0.0074108508 0.48334679
0.073109232 0.008521935 0.49730667
0.073175117 0.0084262257 0.49172145
0.073460676 0.0083578015 0.48772848
0.073968902 0.0083160307 0.48529091
0.07457529 0.0082861437 0.48354682
0.07521759 0.0082608908 0.48207319
0.075864114 0.0082366755 0.48066005
0.076510243 0.0082129641 0.47927633
0.077183992 0.0081927143 0.47809467
0.077888802 0.0081761722 0.47712934
0.078612126 0.0081619145 0.47629732
0.079345852 0.0081490334 0.47554561
0.080083981 0.008136875 0.47483608
0.080823287 0.0081250928 0.47414851
0.081562884 0.0081135854 0.47347698
0.082304366 0.0081025027 0.47283024
0.083048381 0.008091894 0.47221115
0.083795831 0.008081831 0.47162396
0.08454743 0.0080723679 0.47107169
0.085302591 0.008063429 0.47055009
0.086060837 0.0080549549 0.47005558
0.086821228 0.0080468459 0.46958232
0.087583892 0.008039101 0.4691304
0.088348217 0.008031656 0.46869594
0.089115284 0.0080245994 0.4682841
0.089886203 0.0080180177 0.46790007
0.090662457 0.0080120312 0.46755069
0.091445714 0.0080067674 0.46724352
0.092235111 0.0080021331 0.46697307
0.093030818 0.0079981247 0.46673915
0.093832299 0.0079946807 0.46653816
0.094638713 0.0079917135 0.46636504
0.095449917 0.0079891998 0.46621835
0.096265361 0.007987082 0.46609476
0.097084492 0.0079853041 0.46599102
0.097907923 0.0079839081 0.46590951
0.098735124 0.0079828398 0.46584719
0.099566258 0.007982105 0.46580434
0.10040147 0.0079817073 0.46578109
0.10124091 0.0079816487 0.46577767
0.10208481 0.0079819402 0.46579468
0.10293337 0.0079825884 0.4658325
0.10378674 0.0079835951 0.4658913
0.10464495 0.0079849567 0.46597072
0.10550902 0.0079867383 0.46607471
0.10637851 0.0079888999 0.46620086
0.10725563 0.0079915961 0.46635818
0.10814001 0.0079947868 0.46654439
0.10903373 0.0079986127 0.46676767
0.10993952 0.00800326 0.46703884
0.11085881 0.0080088116 0.46736282
0.11179515 0.0080155013 0.4677532
0.11274917 0.0080233486 0.46821114
0.11372063 0.0080323126 0.46873423
0.11470587 0.0080421092 0.4693059
0.11570255 0.0080525577 0.46991569
0.11671409 0.0080638826 0.47057652
0.11774334 0.008076258 0.47129869
0.11879668 0.0080900965 0.47210628
0.11987823 0.008105645 0.47301364
0.12098591 0.0081227291 0.47401059
0.12211366 0.0081409104 0.47507158
0.12326873 0.0081606479 0.47622338
0.12450954 0.0081857489 0.47768816
0.12617946 0.0082385214 0.48076776
0.072663903 0.009361607 0.49427745
0.072868966 0.0092742322 0.48966417
0.073267557 0.0092132855 0.48644632
0.073832706 0.0091744782 0.48439735
0.074461445 0.0091443881 0.48280862
0.075105719 0.0091168787 0.4813562
0.075747281 0.0090896739 0.47991979
0.076404542 0.0090649454 0.47861421
0.077095255 0.0090446947 0.47754499
0.0778111 0.009027807 0.47665337
0.078539357 0.0090127131 0.47585642
0.079274535 0.0089987312 0.47511819
0.080011472 0.0089852456 0.47440615
0.080748253 0.0089720283 0.47370833
0.081487015 0.0089593055 0.47303659
0.082227588 0.0089470427 0.47238913
0.082971662 0.0089354096 0.47177491
0.08371944 0.008924407 0.471194
0.084471188 0.0089140451 0.47064692
0.085225672 0.0089041749 0.47012576
0.085982449 0.0088947369 0.46962744
0.086741358 0.0088857003 0.46915033
0.087501198 0.0088769328 0.46868744
0.08826381 0.0088686123 0.46824813
0.089030899 0.0088608954 0.46784067
0.089804217 0.0088539375 0.4674733
0.090583973 0.0088477368 0.46714595
0.091370828 0.0088423379 0.46686089
0.092164434 0.0088376859 0.46661526
0.092963509 0.0088336365 0.46640149
0.093767323 0.0088301068 0.4662151
0.094575584 0.0088270539 0.46605393
0.095387645 0.0088244071 0.46591419
0.096203141 0.0088221217 0.46579352
0.09702269 0.008820245 0.4656944
0.097845465 0.0088186897 0.46561232
0.098672278 0.0088175228 0.46555069
0.099502712 0.0088166958 0.46550703
0.10033737 0.0088162543 0.46548373
0.1011759 0.0088161565 0.46547857
0.10201888 0.0088164462 0.46549386
0.10286631 0.0088171121 0.46552902
0.10371829 0.0088181542 0.46558401
0.10457518 0.0088195931 0.46566001
0.10543754 0.0088214669 0.46575895
0.10630506 0.0088237403 0.46587896
0.10717864 0.0088264756 0.46602339
0.1080591 0.0088297324 0.46619532
0.10894698 0.0088335387 0.4663963
0.10984419 0.008838038 0.46663386
0.11075281 0.00884338 0.46691591
0.11167672 0.0088498536 0.46725768
0.11261893 0.0088576684 0.46767032
0.11358193 0.0088669909 0.46816254
0.11456433 0.0088776788 0.46872681
0.11556201 0.0088893855 0.46934491
0.11657172 0.008901841 0.47000253
0.11759625 0.008915239 0.47070995
0.11864068 0.0089299437 0.4714863
0.1197128 0.0089465082 0.47236091
0.12081403 0.0089649986 0.47333717
0.12194143 0.0089851581 0.47440156
0.12308948 0.0090065477 0.47553089
0.12428211 0.0090308795 0.47681558
0.12563857 0.0090667009 0.4787069
0.12770574 0.0091529712 0.48326182
0.072451063 0.010350152 0.49895176
0.072371878 0.010211983 0.492291
0.072629422 0.010124101 0.48805451
0.073120855 0.010070537 0.48547232
0.073721051 0.010033042 0.48366481
0.074358493 0.010001435 0.48214111
0.074999131 0.0099709826 0.48067307
0.075642772 0.0099416217 0.47925767
0.076315507 0.0099167041 0.47805646
0.0770199 0.0098964116 0.47707823
0.077741802 0.0098787928 0.47622886
0.078473121 0.0098627424 0.47545511
0.079208001 0.0098474817 0.47471943
0.079942875 0.0098325461 0.47399944
0.080678463 0.0098180147 0.47329891
0.081416056 0.0098040272 0.47262463
0.082156308 0.0097906478 0.47197965
0.082900524 0.0097780107 0.47137043
0.083648793 0.0097661028 0.47079641
0.084399968 0.0097547704 0.4702501
0.085153498 0.0097439326 0.46972764
0.085908428 0.0097334674 0.46922311
0.086664587 0.0097233439 0.46873513
0.087423354 0.0097137066 0.46827051
0.088186517 0.009704737 0.46783811
0.088955738 0.0096965972 0.46744573
0.089733012 0.0096894801 0.46710262
0.090517581 0.0096832756 0.46680355
0.091308519 0.0096778618 0.46654254
0.092104793 0.0096731056 0.46631327
0.092905894 0.0096689388 0.46611241
0.093711041 0.0096652647 0.46593526
0.094519705 0.0096620144 0.46577859
0.09533143 0.009659132 0.46563962
0.09614706 0.0096566919 0.46552199
0.09696573 0.0096545964 0.46542099
0.097788125 0.0096529052 0.46533945
0.09861397 0.0096515799 0.46527559
0.099443503 0.0096506355 0.46523005
0.10027719 0.0096501056 0.46520451
0.10111505 0.0096499836 0.46519864
0.10195705 0.0096502556 0.46521172
0.10280374 0.0096509634 0.46524584
0.10365506 0.0096520912 0.4653002
0.10451133 0.0096536567 0.46537569
0.10537228 0.0096556274 0.46547067
0.10623886 0.0096580787 0.46558887
0.10711078 0.0096609723 0.46572834
0.10798842 0.0096643325 0.46589035
0.10887309 0.0096682673 0.46608001
0.10976537 0.0096728113 0.46629906
0.1106665 0.0096780593 0.46655205
0.11157998 0.0096843001 0.46685293
0.11250928 0.0096918102 0.46721497
0.11345925 0.0097009763 0.46765685
0.11443161 0.0097119082 0.46818382
0.11542606 0.0097245397 0.46879274
0.11643665 0.0097383382 0.46945792
0.11745991 0.0097529888 0.47016421
0.11849952 0.0097687785 0.47092536
0.11956135 0.0097861607 0.47176331
0.12065433 0.0098058283 0.47271147
0.12177781 0.0098276827 0.47376502
0.12292597 0.0098512098 0.47489917
0.12409925 0.0098764114 0.47611406
0.12535045 0.0099074244 0.4776091
0.12706068 0.0099740466 0.48082078
0.071951829 0.011172644 0.49551365
0.072106205 0.011059234 0.49048385
0.072455898 0.010978166 0.48688844
0.073003009 0.010928595 0.48468989
0.07362362 0.010891069 0.48302561
0.074262545 0.010857097 0.48151895
0.074898906 0.010823541 0.48003075
0.075552516 0.010793217 0.47868583
0.076240525 0.010768436 0.47758678
0.07695394 0.010747758 0.47666967
0.077680156 0.010729303 0.47585121
0.078411877 0.010712005 0.47508404
0.079145357 0.010695318 0.47434396
0.079878449 0.010678938 0.47361746
0.080613181 0.010663119 0.47291592
0.081350356 0.010647953 0.47224325
0.082090788 0.010633522 0.47160324
0.08283519 0.010619896 0.47099894
0.0835834 0.01060703 0.47042835
0.084333777 0.010594696 0.4698813
0.085085429 0.010582765 0.46935216
0.085838035 0.010571187 0.46883866
0.086592607 0.010560074 0.46834579
0.087352097 0.01054977 0.4678888
0.088117734 0.010540399 0.46747318
0.088891611 0.010532182 0.46710876
0.089673005 0.010525 0.46679026
0.09046118 0.010518742 0.46651268
0.091255046 0.010513254 0.46626931
0.092053175 0.010508354 0.46605197
0.092855074 0.010503967 0.46585745
0.093660347 0.010500039 0.46568322
0.094468817 0.010496535 0.4655278
0.095280357 0.010493431 0.46539015
0.096094787 0.010490698 0.46526891
0.096912682 0.010488385 0.46516636
0.097733743 0.010486454 0.46508068
0.098558746 0.010484973 0.46501502
0.099387489 0.010483912 0.46496797
0.10022017 0.010483282 0.46494001
0.10105713 0.010483105 0.46493217
0.10189845 0.010483379 0.46494433
0.10274453 0.010484136 0.46497789
0.10359529 0.010485353 0.46503186
0.1044508 0.010487027 0.46510616
0.1053116 0.010489203 0.46520263
0.10617731 0.010491828 0.46531907
0.10704862 0.010494962 0.46545807
0.10792539 0.010498579 0.46561846
0.10880813 0.010502715 0.46580189
0.10969739 0.010507413 0.46601024
0.11059444 0.010512779 0.46624827
0.11150115 0.010518976 0.46652308
0.11241972 0.010526191 0.46684307
0.11335634 0.010534976 0.46723267
0.11431532 0.010545693 0.46770802
0.11529971 0.010558581 0.4682796
0.11630753 0.010573412 0.46893737
0.11733195 0.010589526 0.46965203
0.11836922 0.010606561 0.47040752
0.11942559 0.010625052 0.47122762
0.12050831 0.01064561 0.47213939
0.12162501 0.01066886 0.47317052
0.12277109 0.010694345 0.47430083
0.12394 0.010721453 0.47550306
0.12515242 0.010751927 0.47685459
0.12655109 0.010797874 0.47889239
0.12888967 0.010922854 0.48443529
0.071679838 0.012020842 0.49364054
0.071880452 0.011906578 0.48894823
0.072323628 0.011834776 0.48599964
0.072905287 0.011787082 0.48404106
0.07353574 0.011748314 0.48244905
0.074172087 0.011711381 0.48093241
0.074810095 0.011675565 0.47946155
0.075476207 0.0116449 0.47820231
0.076177098 0.011620236 0.47718945
0.076895945 0.011598829 0.4763104
0.077624023 0.011579274 0.47550735
0.078355543 0.011560653 0.47474271
0.079086915 0.011542414 0.47399372
0.079818882 0.011524651 0.47326425
0.080552854 0.011507551 0.47256202
0.081289731 0.011491219 0.47189131
0.08203084 0.011475817 0.47125888
0.082775578 0.011461234 0.47066
0.083522707 0.011447275 0.47008675
0.084271833 0.011433867 0.46953616
0.085021421 0.011420787 0.46899906
0.085772306 0.011408139 0.46847963
0.08652731 0.01139628 0.46799263
0.087289169 0.011385544 0.46755177
0.088059075 0.011376053 0.46716201
0.088837057 0.011367775 0.46682206
0.089622647 0.011360617 0.46652815
0.090413265 0.011354224 0.46626559
0.09120854 0.011348529 0.4660317
0.092007332 0.011343369 0.46581984
0.0928092 0.011338681 0.46562731
0.093614012 0.011334432 0.46545282
0.094421551 0.011330586 0.4652949
0.095232122 0.011327169 0.46515456
0.096045621 0.011324156 0.46503085
0.096862301 0.011321568 0.46492454
0.097682595 0.011319443 0.46483728
0.098506555 0.011317775 0.46476877
0.099334411 0.011316579 0.46471968
0.10016622 0.011315849 0.4646897
0.10100249 0.011315632 0.46468079
0.10184303 0.011315892 0.46469149
0.10268836 0.011316677 0.46472368
0.10353864 0.011317989 0.46477759
0.10439375 0.011319804 0.46485212
0.10525361 0.011322101 0.46494645
0.10611948 0.011325004 0.46506563
0.10699037 0.011328392 0.46520478
0.10786685 0.011332314 0.46536589
0.10874892 0.01133676 0.46554843
0.10963696 0.011341754 0.46575353
0.1105317 0.011347361 0.46598375
0.11143405 0.011353658 0.46624234
0.11234683 0.011360915 0.46654037
0.11327245 0.011369354 0.46688691
0.11421774 0.011379628 0.46730879
0.11518767 0.011392187 0.46782458
0.11618696 0.011407447 0.46845123
0.11721021 0.011424822 0.46916473
0.11824854 0.011443407 0.46992794
0.11930162 0.011463145 0.47073847
0.12037726 0.011484756 0.47162595
0.12148362 0.011508974 0.47262046
0.12262598 0.011536242 0.47374022
0.12379523 0.011565644 0.47494766
0.1249929 0.011597279 0.47624674
0.1262818 0.011636889 0.47787333
0.12821369 0.011734813 0.48189461
0.071538553 0.013047911 0.49886459
0.071454011 0.012870599 0.49208534
0.071710691 0.012758344 0.48779348
0.072218157 0.012692888 0.48529088
0.072821572 0.012645663 0.48348528
0.07345552 0.012604794 0.48192272
0.074087851 0.012564606 0.48038623
0.074733138 0.01252752 0.47896832
0.075412944 0.012497002 0.4778015
0.076121867 0.012471944 0.47684345
0.076844178 0.012449616 0.47598976
0.077573083 0.012428837 0.47519532
0.078302771 0.012408637 0.47442299
0.079032905 0.012388943 0.47367004
0.07976418 0.012369847 0.47293994
0.080497332 0.012351443 0.47223631
0.081235111 0.012334127 0.47157425
0.081976667 0.012317738 0.47094762
0.082720496 0.012302022 0.47034681
0.083466522 0.01228695 0.46977052
0.084213458 0.012272313 0.46921092
0.084961116 0.012258071 0.4686664
0.085712329 0.012244618 0.46815205
0.086469628 0.012232289 0.46768066
0.087235153 0.012221349 0.46726242
0.08800941 0.012211832 0.46689853
0.088791348 0.01220355 0.46658188
0.08957909 0.012196214 0.46630138
0.090371348 0.012189624 0.46604943
0.09116704 0.012183613 0.46581963
0.09196569 0.012178104 0.46560901
0.092767149 0.012173065 0.46541634
0.093571097 0.012168439 0.46523947
0.094377533 0.012164216 0.465078
0.095186785 0.012160427 0.46493313
0.095999494 0.012157141 0.46480751
0.09681531 0.012154303 0.464699
0.097634912 0.012151984 0.46461037
0.098457932 0.012150128 0.46453938
0.099285118 0.012148812 0.46448907
0.10011645 0.012148021 0.46445882
0.10095204 0.012147755 0.46444866
0.10179187 0.012148001 0.46445808
0.10263646 0.012148805 0.4644888
0.10348566 0.012150139 0.46453977
0.1043404 0.012152094 0.46461457
0.10519998 0.012154579 0.46470955
0.10606504 0.012157653 0.46482709
0.10693553 0.012161296 0.46496636
0.10781194 0.012165548 0.46512896
0.10869413 0.012170386 0.46531388
0.10958185 0.012175761 0.46551943
0.11047564 0.012181723 0.46574739
0.1113762 0.01218834 0.46600032
0.11228479 0.012195726 0.46628273
0.11320433 0.012204184 0.46660611
0.11413832 0.012214064 0.46698385
0.11509424 0.012226129 0.46744514
0.1160799 0.012241153 0.46801955
0.11709522 0.012259066 0.46870443
0.11813513 0.012279279 0.46947724
0.11918794 0.012300535 0.47028995
0.12025913 0.012323374 0.47116312
0.12135706 0.012348614 0.47212812
0.12249134 0.012377175 0.47322011
0.12366 0.012408789 0.47442883
0.1248523 0.012442325 0.47571105
0.12610026 0.012480913 0.47718635
0.12765154 0.012548796 0.47978175
0.071141325 0.013870321 0.49609461
0.071249671 0.013718881 0.49067807
0.071585596 0.013614438 0.48694253
0.07213112 0.013551908 0.48470601
0.072748095 0.013504136 0.48299742
0.073381945 0.013460593 0.48144001
0.074012488 0.013417468 0.47989759
0.074667804 0.013379781 0.4785496
0.075359359 0.013349372 0.47746199
0.076073721 0.013323646 0.47654188
0.076798059 0.013300222 0.47570407
0.077526703 0.013278054 0.47491121
0.078254707 0.013256262 0.47413176
0.078983612 0.013235091 0.47337458
0.079713963 0.013214614 0.47264218
0.080447599 0.01319511 0.47194454
0.081185631 0.013176725 0.47128701
0.081926525 0.013159183 0.47065958
0.082669973 0.013142406 0.47005951
0.083414838 0.013126194 0.46947965
0.084159665 0.0131103 0.4689112
0.084906615 0.013095051 0.46836579
0.085659087 0.013080944 0.46786126
0.086419798 0.013068359 0.46741113
0.087189786 0.013057407 0.46701941
0.087967642 0.013047831 0.46667692
0.088752344 0.013039445 0.46637693
0.089541495 0.013031861 0.4661057
0.090334043 0.013024909 0.46585706
0.091129787 0.01301854 0.46562928
0.091927804 0.013012611 0.46541721
0.092728034 0.0130071 0.46522006
0.093530945 0.013002059 0.46503982
0.094336599 0.012997487 0.46487626
0.095145106 0.012993385 0.46472955
0.095956743 0.012989778 0.46460053
0.096772186 0.012986744 0.46449202
0.09759102 0.012984212 0.46440148
0.098413564 0.012982216 0.46433005
0.099240184 0.012980783 0.46427885
0.10007086 0.012979903 0.46424735
0.10090566 0.012979566 0.46423531
0.10174504 0.012979819 0.46424437
0.10258889 0.012980635 0.46427354
0.10343758 0.012982044 0.46432394
0.10429113 0.012984036 0.4643952
0.10515044 0.012986708 0.46449071
0.10601451 0.012989921 0.46460563
0.10688487 0.012993847 0.46474609
0.10776085 0.012998391 0.4649086
0.10864257 0.01300355 0.46509314
0.10953055 0.013009375 0.46530145
0.11042434 0.013015796 0.46553114
0.11132431 0.013022845 0.46578321
0.11223106 0.013030573 0.46605963
0.11314658 0.013039197 0.46636808
0.11407435 0.013049096 0.46672213
0.11501901 0.013060767 0.46713957
0.11598949 0.013075178 0.46765503
0.11699323 0.013093106 0.46829623
0.1180286 0.013114289 0.46905389
0.11908286 0.013137255 0.46987531
0.12015138 0.013161459 0.47074097
0.12124362 0.013187902 0.47168678
0.12236906 0.013217564 0.47274768
0.12353411 0.013251064 0.47394586
0.12472814 0.01328719 0.47523797
0.12595539 0.013326338 0.47663817
0.12733221 0.013380673 0.47858152
0.12978825 0.013546921 0.48452768
0.070916861 0.014718593 0.49452931
0.071075931 0.014568359 0.4894816
0.071487486 0.014472927 0.4862752
0.072059572 0.014411915 0.48422524
0.072683871 0.014362681 0.48257104
0.073313847 0.014315723 0.48099327
0.073947415 0.014270554 0.47947568
0.074613333 0.014232601 0.4782005
0.075313799 0.014202031 0.47717336
0.076031394 0.014175344 0.47627673
0.076756947 0.014150721 0.47544941
0.077483863 0.014126892 0.47464877
0.078211159 0.014103652 0.47386792
0.078938827 0.01408098 0.47310618
0.079668961 0.014059228 0.47237533
0.080403291 0.01403867 0.4716846
0.081140839 0.014019097 0.47102699
0.081881709 0.0140005 0.47040212
0.082624093 0.013982539 0.46979865
0.083366789 0.013964995 0.46920919
0.084110305 0.01394794 0.46863616
0.084858209 0.013931945 0.46809876
0.085613318 0.013917436 0.46761125
0.086377531 0.013904676 0.46718255
0.087151743 0.013893756 0.46681565
0.087932378 0.013884059 0.46648985
0.088718608 0.013875422 0.46619964
0.08950828 0.01386748 0.46593279
0.090300806 0.013860124 0.46568564
0.091095872 0.013853289 0.46545601
0.091892853 0.013846869 0.46524027
0.092692152 0.013840909 0.46504006
0.09349411 0.013835451 0.46485665
0.094299138 0.013830541 0.46469167
0.09510693 0.013826117 0.46454304
0.095918 0.013822244 0.46441293
0.096733049 0.013819007 0.46430415
0.097550996 0.013816236 0.46421105
0.09837354 0.013814157 0.46414119
0.09919963 0.013812607 0.46408913
0.10002957 0.013811614 0.46405578
0.1008639 0.013811238 0.46404314
0.10170259 0.013811463 0.46405071
0.10254606 0.013812327 0.46407971
0.10339415 0.013813794 0.464129
0.10424703 0.013815872 0.46419883
0.10510541 0.01381864 0.46429184
0.10596912 0.013822059 0.4644067
0.10683872 0.013826187 0.4645454
0.10771402 0.013830983 0.46470654
0.10859545 0.013836485 0.4648914
0.10948326 0.013842712 0.46510062
0.11037716 0.013849606 0.46533224
0.11127746 0.013857193 0.46558717
0.1121838 0.013865414 0.46586338
0.11309721 0.013874379 0.46616459
0.11402078 0.013884448 0.46650293
0.11495731 0.013895938 0.46688896
0.11591573 0.013909888 0.46735767
0.11690553 0.013927372 0.46794513
0.11793069 0.013948791 0.46866477
0.11898585 0.013973428 0.46949252
0.12005538 0.013999391 0.47036487
0.12114407 0.014027208 0.4712995
0.12226175 0.014057972 0.4723331
0.12342037 0.014092983 0.47350946
0.12461443 0.014131533 0.4748047
0.12583525 0.014172572 0.47618356
0.12714101 0.014222554 0.47786292
0.12919308 0.014354788 0.48230582
0.070755154 0.015575034 0.49340168
0.070943959 0.0154226 0.48857275
0.071409099 0.015333242 0.48574194
0.07199949 0.01527262 0.48382151
0.072625987 0.015221015 0.4821867
0.073251933 0.015170518 0.48058704
0.073892146 0.015124124 0.4791173
0.074568465 0.015086106 0.47791293
0.075274535 0.015054908 0.4769246
0.075994596 0.01502718 0.47604623
0.076719984 0.015001114 0.47522047
0.077445902 0.014975727 0.47441623
0.078171879 0.014950906 0.47362992
0.078898825 0.014926804 0.47286642
0.079629146 0.014903851 0.47213927
0.080363318 0.014882096 0.47145009
0.081101358 0.014861505 0.47079781
0.081841163 0.014841662 0.47016919
0.082582086 0.014822425 0.46955979
0.083323181 0.014803611 0.46896377
0.084066629 0.014785588 0.46839282
0.084816188 0.014768987 0.46786693
0.085574687 0.014754257 0.46740028
0.086343072 0.0147415 0.46699616
0.087119937 0.014730424 0.46664527
0.087902404 0.014720498 0.46633083
0.08868926 0.014711488 0.46604541
0.089479044 0.014703129 0.46578062
0.090271071 0.01469529 0.46553227
0.091065019 0.014687906 0.46529835
0.091861174 0.01468101 0.46507987
0.092659667 0.014674609 0.4648771
0.093461029 0.014668771 0.46469218
0.094265349 0.014663499 0.46452516
0.095072813 0.014658804 0.46437642
0.095883444 0.014654675 0.46424562
0.096698061 0.014651221 0.46413621
0.09751597 0.014648322 0.46404436
0.09833812 0.014646104 0.46397409
0.099163778 0.01464444 0.4639214
0.099993318 0.014643373 0.4638876
0.10082747 0.014642993 0.46387556
0.10166552 0.014643181 0.46388152
0.10250822 0.01464403 0.46390843
0.10335582 0.014645562 0.46395692
0.10420809 0.014647723 0.46402541
0.10506532 0.014650543 0.46411473
0.10592852 0.014654143 0.46422878
0.10679721 0.014658441 0.46436492
0.10767184 0.01466348 0.46452457
0.10855283 0.014669302 0.46470898
0.10944041 0.014675917 0.46491855
0.11033434 0.014683276 0.4651517
0.11123461 0.014691364 0.46540791
0.11214131 0.014700172 0.46568692
0.11305418 0.014709651 0.46598724
0.11397523 0.014720048 0.46631658
0.11490748 0.014731728 0.46668661
0.11585662 0.014745387 0.46711931
0.11683267 0.014762252 0.46765354
0.11784609 0.014783559 0.46832857
0.11889637 0.014809156 0.46913943
0.1199675 0.01483697 0.47002053
0.121055 0.014866404 0.47095299
0.12216742 0.014898465 0.47196865
0.12331968 0.014934909 0.47312316
0.12451065 0.014975508 0.47440928
0.12573028 0.015018974 0.47578627
0.12700807 0.015068753 0.4773632
0.12870178 0.015166877 0.48047167
0.070613109 0.016431982 0.49241117
0.070843615 0.01628083 0.48788166
0.071346462 0.01619521 0.48531589
0.07194747 0.016133675 0.48347193
0.072575383 0.016079575 0.48185074
0.073198877 0.016025791 0.48023897
0.073846005 0.015978375 0.47881809
0.074531287 0.015940217 0.47767463
0.075241469 0.015908197 0.47671509
0.075962618 0.015879191 0.4758459
0.076687187 0.01585154 0.47501731
0.077412248 0.015824603 0.47421008
0.078136697 0.015798131 0.47341678
0.078863814 0.015772764 0.47265661
0.079593882 0.015748521 0.47193018
0.080328606 0.015725706 0.47124645
0.081065938 0.015703874 0.4705922
0.081805281 0.015682878 0.46996304
0.082544565 0.015662301 0.46934646
0.083284236 0.015642216 0.46874458
0.08402846 0.015623381 0.46818015
0.084780857 0.015606427 0.46767205
0.085542895 0.015591562 0.46722662
0.08631435 0.015578687 0.4668408
0.087093271 0.015567397 0.46650246
0.087876707 0.015557121 0.46619454
0.088663936 0.015547705 0.46591237
0.08945325 0.015538828 0.46564636
0.090244435 0.015530438 0.46539494
0.09103746 0.015522516 0.46515754
0.091832817 0.015515134 0.46493632
0.092630886 0.015508338 0.46473268
0.093431689 0.015502119 0.46454629
