# .PCD v0.7 - Point Cloud Data file format
VERSION 0.7
FIELDS x y z
SIZE 4 4 4
TYPE F F F
COUNT 1 1 1
WIDTH 59
HEIGHT 1
VIEWPOINT 0 0 0 1 0 0 0
POINTS 59
DATA ascii
-0.21608759 -0.050677203 0.44951305
-0.22719379 -0.038223531 0.47619021
-0.26325345 -0.038434178 0.4582203
-0.21022588 -0.060353864 0.44911596
-0.22040106 -0.042700011 0.4782252
-0.21696714 -0.060687333 0.43979096
-0.22136556 -0.040209807 0.46929729
-0.23971675 -0.037721924 0.44972867
-0.24929787 -0.037698701 0.4494518
-0.22264491 -0.040217049 0.45970386
-0.24775697 -0.056220282 0.42989728
-0.25624347 -0.036014833 0.45898852
-0.20819424 -0.065339714 0.44997773
-0.21921988 -0.043499425 0.47753128
-0.23987718 -0.040446736 0.44401923
-0.25840294 -0.03934864 0.44977745
-0.21902241 -0.041940462 0.46971852
-0.21926545 -0.042692516 0.45957267
-0.25840634 -0.040034786 0.44837561
-0.21055646 -0.051262237 0.46973386
-0.21312554 -0.050579492 0.479323
-0.22956225 -0.047974151 0.43960395
-0.22927302 -0.040173505 0.44992921
-0.21240541 -0.052558396 0.48161101
-0.23997653 -0.044028752 0.43979782
-0.20857622 -0.055150371 0.45976561
-0.24948546 -0.044026844 0.43977877
-0.21027449 -0.052672308 0.45985225
-0.25352916 -0.044833794 0.43991292
-0.26068747 -0.037003484 0.46099085
-0.25014299 -0.050498351 0.43403742
-0.21928103 -0.047423068 0.44941077
-0.208955 -0.058646418 0.48166755
-0.20907465 -0.056705546 0.47994769
-0.20452926 -0.067623265 0.45998979
-0.25855425 -0.036222573 0.46163607
-0.24929696 -0.05048557 0.43392757
-0.20629264 -0.064439423 0.47951815
-0.22878689 -0.036791977 0.46889278
-0.21939535 -0.055939864 0.43988785
-0.23876669 -0.034474336 0.47190061
-0.22021846 -0.050140817 0.44475523
-0.24943036 -0.040437344 0.44391614
-0.20812233 -0.0546798 0.46997729
-0.24912989 -0.034029547 0.46581215
-0.23995204 -0.050495617 0.4340139
-0.23680845 -0.035251696 0.45983365
-0.24681324 -0.060641125 0.42825976
-0.2038573 -0.06823498 0.4699167
-0.23316041 -0.060132883 0.43015009
-0.20631701 -0.068193197 0.48159403
-0.24988033 -0.035107154 0.45794821
-0.23993033 -0.056978609 0.42976812
-0.23861136 -0.034329522 0.46991834
-0.2256811 -0.050371703 0.43976694
-0.22833012 -0.037709694 0.45946378
-0.2399933 -0.060674634 0.42849642
-0.22029513 -0.060295448 0.43695104
-0.22989567 -0.06474296 0.42984885
