# .PCD v0.7 - Point Cloud Data file format
VERSION 0.7
FIELDS x y z
SIZE 4 4 4
TYPE F F F
COUNT 1 1 1
WIDTH 392
HEIGHT 1
VIEWPOINT 0 0 0 1 0 0 0
POINTS 392
DATA ascii
-0.03422251 -0.77438241 -0.059365615
-0.034008414 -0.76953793 -0.068710923
0.019228278 -0.7896167 -0.12605208
-0.029582031 -0.79998869 -0.18831493
0.00068421225 -0.75863093 -0.0034210945
0.019277424 -0.79163492 -0.12923017
-0.029612146 -0.80080307 -0.18995112
-0.035748418 -0.77718848 -0.067992128
-0.037453365 -0.78352833 -0.078440115
0.013715163 -0.80036312 -0.088787675
-0.041107297 -0.79962027 -0.17236222
-0.010253476 -0.75791335 0.00068353198
0.013553698 -0.7909407 -0.089169115
-0.044032991 -0.80036497 -0.090231583
0.01963025 -0.80612385 -0.14904453
-0.029979728 -0.81074363 -0.20985815
-0.039065313 -0.78753221 -0.085943729
-0.043048497 -0.80899477 -0.18897566
-0.010315424 -0.76249242 -0.0034385081
0.019546667 -0.80269152 -0.096285485
-0.013021137 -0.75986254 -0.0020560026
0.018037684 -0.79998249 -0.094517507
-0.039442603 -0.82514334 -0.22995786
-0.04942086 -0.79414701 -0.10242299
-0.039350796 -0.7932874 -0.085140862
-0.049155377 -0.838489 -0.23972704
-0.051351171 -0.80192125 -0.11933728
-0.0075369356 -0.75969946 -0.085647032
-0.029781483 -0.76792282 -0.11981857
0.0047968561 -0.75979841 -0.069211818
-0.031246319 -0.76988536 -0.12290224
-0.047718577 -0.8398208 -0.2461673
-0.051322352 -0.80147117 -0.1293902
0.0095223729 -0.8121599 -0.18971501
-0.030690482 -0.82996458 -0.24776955
-0.049474888 -0.79501522 -0.12978199
-0.024693459 -0.73997986 -0.00066742318
-0.018711092 -0.76837832 -0.12959169
-0.024299053 -0.76977009 -0.12982641
-0.021518355 -0.76963902 -0.13119259
0.0093801869 -0.80003291 -0.16956496
-0.031796351 -0.81987667 -0.2270112
-0.049157616 -0.78991693 -0.1090017
0.021024592 -0.80383939 -0.13847235
-0.019195428 -0.73390448 -0.019195462
-0.0090263719 -0.76985615 -0.13261828
-0.024686884 -0.73978287 -0.011342656
-0.018745391 -0.76978678 -0.13260633
-0.051483832 -0.80399293 -0.1384988
0.010341875 -0.76444763 -0.043435913
0.0095839621 -0.81741285 -0.19831434
-0.04969595 -0.79856747 -0.13900465
0.0094503406 -0.80601633 -0.17955652
-0.049160823 -0.78996849 -0.11185874
0.02116622 -0.80925435 -0.14378437
-0.039649121 -0.82946372 -0.23864287
-0.04925574 -0.79149371 -0.11921322
0.021231011 -0.81173146 -0.1456887
-0.0006921608 -0.76744401 -0.10451633
0.010411297 -0.76957911 -0.071490943
-0.028688516 -0.77582532 -0.1392443
-0.029469937 -0.75988954 -0.059625261
-0.016387297 -0.78998566 -0.1731354
-0.00066741119 -0.74000251 -0.028698714
0.00070324255 -0.77973109 -0.14557125
0.0096600521 -0.82390249 -0.20880578
-0.04997272 -0.80301493 -0.14991821
0.0074347067 -0.74939513 -0.029062981
-0.0078336541 -0.78960776 -0.17020398
-0.019645978 -0.75113046 -0.058937974
0.008840492 -0.75400251 -0.029241662
0.010678557 -0.78933436 -0.14878793
-0.031240925 -0.76975244 -0.089557365
-0.041162435 -0.82980889 -0.23724537
-0.037282363 -0.77995092 -0.085116379
-0.027021881 -0.80975485 -0.20960221
0.018029967 -0.7996403 -0.14640339
0.0020020688 -0.7399416 -0.024692215
-0.015550083 -0.74962592 -0.05881992
-0.00071907206 -0.79728228 -0.17904899
-0.0020003892 -0.73932087 -0.02867228
-0.020961752 -0.74973124 -0.052066326
0.020646613 -0.78938806 -0.11889607
-0.010741591 -0.79399377 -0.17974268
-0.031401321 -0.80969077 -0.20666456
0.0092345728 -0.78761357 -0.14846356
0.0033819703 -0.74996239 0.0047347262
0.016170029 -0.77951181 -0.11740853
-0.023512231 -0.78998637 -0.17171058
-0.019400993 -0.74176389 -0.028767025
-0.0021102708 -0.77993184 -0.14842242
-0.019488549 -0.74511141 -0.039649151
-0.0063310899 -0.779966 -0.15124275
-0.054163337 -0.82266355 -0.15952219
-0.00065940415 -0.73112458 -0.0046158615
0.00069400447 -0.76948822 -0.12561485
-0.025019869 -0.74976128 -0.037191734
-0.018985566 -0.77964967 -0.15258774
-0.019268291 -0.73669022 -0.00066445605
-0.0034715787 -0.76983333 -0.12983708
-0.020397322 -0.7798568 -0.15262827
0.018737586 -0.83102363 -0.1836284
-0.051952675 -0.81131458 -0.15878499
0.0088652065 -0.75611043 -0.038870558
-0.024106205 -0.80994326 -0.21111195
0.013702173 -0.79960507 -0.15937795
-0.038664792 -0.77945799 -0.093498543
-0.038756028 -0.78129721 -0.090900548
-0.02867838 -0.81532305 -0.21986763
0.01825089 -0.80943829 -0.15987784
0.006085855 -0.74975401 -0.037191372
-0.019730236 -0.75435191 -0.068715684
-0.00072401081 -0.80275822 -0.18896687
-0.0033367234 -0.73992878 -0.031365238
-0.029550143 -0.76195765 -0.069408506
-0.010811629 -0.79917073 -0.18956393
0.0049860692 -0.78976882 -0.15884197
0.0020288497 -0.74983954 -0.049368713
-0.0184555 -0.7578823 -0.079973869
0.0089017525 -0.75922745 -0.049986806
-0.03402666 -0.76995081 -0.10624656
-0.00072904397 -0.80833882 -0.19902906
0.016793763 -0.80958027 -0.1657472
-0.025878124 -0.81979346 -0.22994566
-0.039946981 -0.77704972 -0.10021791
0.01080964 -0.79902375 -0.16502722
-0.02965687 -0.76470965 -0.079314925
-0.012261635 -0.79972219 -0.19113728
0.00071181857 -0.78923988 -0.1630065
-0.054181889 -0.82294536 -0.16996789
0.019960862 -0.81970054 -0.16338339
-0.00067462143 -0.74799699 -0.049247403
0.011474744 -0.74840003 -0.011474778
-0.023988362 -0.75992769 -0.07881894
0.0209099 -0.79945433 -0.13339078
-0.010882766 -0.80442905 -0.19951743
-0.044300236 -0.77965993 -0.10477363
0.0093686217 -0.79904652 -0.16791457
0.0086794123 -0.74026412 -0.010014741
0.010544681 -0.77943856 -0.13145706
-0.034021046 -0.76982373 -0.072902285
0.016382765 -0.78976721 -0.13604823
-0.023804707 -0.79981327 -0.19115905
-0.0049860114 -0.78975964 -0.16881214
0.0062492602 -0.76988488 -0.11873598
-0.024976181 -0.74845213 -0.02902641
-0.018947421 -0.77808321 -0.14947414
-0.0046087177 -0.72999823 -0.01250941
0.0077375495 -0.7799207 -0.13716568
-0.02945189 -0.75942415 -0.040410768
-0.012091927 -0.78865361 -0.1699983
-0.020657713 -0.73885673 0.00066634553
-0.019992778 -0.76438975 -0.1192673
0.0062460313 -0.76948714 -0.088138491
-0.030231612 -0.77952951 -0.14553362
0.017508352 -0.84402859 -0.20477165
-0.054368567 -0.82578069 -0.17949079
-0.00069126475 -0.76645052 -0.11958884
-0.026023617 -0.77984023 -0.14981167
-0.039869025 -0.77553332 -0.11960712
0.0089381495 -0.76233172 -0.059816889
-0.029017445 -0.82496262 -0.23883595
0.017005242 -0.8197751 -0.17966413
-0.034014042 -0.76966524 -0.11731378
0.0075374087 -0.75974715 -0.059614088
-0.019923106 -0.76172596 -0.088623509
-0.0007341801 -0.81403357 -0.20924138
0.012413651 -0.80963695 -0.17890266
-0.018253796 -0.74959928 0.0060845669
0.011991226 -0.78208578 -0.089581557
0.0098939929 -0.84385526 -0.23973912
0.0068108244 -0.83906746 -0.23989242
-0.049110163 -0.81271124 -0.17958197
0.010008197 -0.73978293 -0.0033360983
-0.000671338 -0.74435645 -0.039608981
0.010092515 -0.74601555 -0.0074012112
-0.028100908 -0.75993454 -0.067853443
-0.044863302 -0.78956956 -0.09471146
-0.037669942 -0.81896341 -0.21937206
-0.041476268 -0.77944839 -0.099121295
0.0093118083 -0.7942009 -0.15973337
-0.018627891 -0.76496166 -0.098658875
0.0089789331 -0.76581013 -0.069759443
-0.038608484 -0.77832282 -0.12986495
-0.00073942955 -0.81985396 -0.21961062
0.014042769 -0.81948096 -0.18994698
-0.026192652 -0.82975739 -0.24920443
0.01094766 -0.80922592 -0.18173121
-0.00067792088 -0.75165528 -0.058979154
-0.029791199 -0.76817334 -0.089373641
0.0050505879 -0.79998827 -0.17677063
-0.044301886 -0.77968895 -0.11462238
-0.016684467 -0.73996651 -0.028697319
0.00068070716 -0.75474465 0.00068067422
-0.032605495 -0.76918828 -0.052030083
0.019140121 -0.78599656 -0.11980303
-0.029402779 -0.79514116 -0.17856814
-0.0021125404 -0.78077066 -0.14999041
-0.0047343024 -0.74989021 -0.058840655
-0.022608593 -0.75962508 -0.080157772
-0.010955233 -0.80978566 -0.20961018
0.0019751338 -0.72998673 -0.0085589448
-0.012679501 -0.73992592 -0.032699801
0.0086789634 -0.74022585 -0.0086789969
0.011950511 -0.77943027 -0.12864378
-0.00070946192 -0.78662694 -0.15962897
-0.0074384171 -0.74976909 -0.060183592
-0.013880136 -0.80999035 -0.21112423
-0.041491088 -0.77972692 -0.12587978
0.00072076905 -0.79916388 -0.18091308
-0.051837221 -0.8095116 -0.1540515
-0.029209735 -0.83042938 -0.24940623
0.017153272 -0.82691121 -0.18868606
0.016050087 -0.84741831 -0.21935126
-0.054590609 -0.82915318 -0.18919763
-0.00068130554 -0.75540811 -0.068811893
-0.029844178 -0.76953942 -0.097861186
-0.011028997 -0.81523806 -0.21984471
-0.047710009 -0.78954047 -0.12603991
0.0080269789 -0.80909431 -0.18753946
-0.00065780483 -0.72935134 -0.0098671056
0.0091114538 -0.77711278 -0.12966304
-0.0034271127 -0.75997287 -0.0020563011
-0.031019209 -0.79983789 -0.18683667
-0.028020725 -0.75776619 -0.03075449
-0.010593787 -0.78306836 -0.15890685
-0.014201496 -0.74981564 -0.060187329
-0.0093745673 -0.79955363 -0.18965475
-0.017775683 -0.72996533 -0.00592526
-0.0020843917 -0.77036721 -0.12992713
0.011958832 -0.77997297 -0.096374162
-0.029052269 -0.78566229 -0.15943323
-0.01250816 -0.72992712 -0.011191544
-0.00069958245 -0.77567291 -0.13921694
0.016169345 -0.77947885 -0.10756135
-0.027778927 -0.78975171 -0.16881044
0.0048591718 -0.76966888 -0.107596
-0.027668864 -0.74825078 -0.010122788
-0.018816961 -0.77272588 -0.13868803
0.0090824878 -0.77464229 -0.10130472
-0.030618023 -0.7894932 -0.16590701
0.016099004 -0.85000104 -0.22155303
-0.054835647 -0.83287501 -0.19906096
-0.052236415 -0.81574559 -0.16995233
0.017331116 -0.8354845 -0.19817759
-0.0022311821 -0.82461929 -0.22981182
-0.050392512 -0.80976057 -0.16578411
-0.029275663 -0.8323037 -0.2529718
0.015702447 -0.82906348 -0.19814998
-0.048014969 -0.81903601 -0.19870815
0.00075653155 -0.83881611 -0.25041199
-0.031060228 -0.76530021 -0.044864811
0.019203801 -0.78861153 -0.10170906
-0.029226199 -0.79036587 -0.16894172
-0.040174663 -0.80989599 -0.19649066
-0.048846684 -0.80835104 -0.16986986
0.0037397875 -0.82930946 -0.22962299
-0.011274595 -0.83339214 -0.2533026
-0.042557258 -0.79976308 -0.16950777
-0.00066048035 -0.73231786 -0.019153964
-0.022318745 -0.74988651 -0.049371809
0.0091711646 -0.78220546 -0.13897845
-0.03869056 -0.80941057 -0.19783291
-0.035868235 -0.77979338 -0.13854989
0.0090266094 -0.76987642 -0.079850823
-0.038814493 -0.78247583 -0.13902649
0.011092874 -0.81995976 -0.19893226
-0.049653426 -0.82170159 -0.19935484
0.0022743854 -0.84058672 -0.25094059
-0.02649794 -0.75333339 -0.023780238
0.013016036 -0.84892541 -0.23658565
-0.051567975 -0.82864916 -0.20851403
0.014721874 -0.85911083 -0.23942421
-0.05509967 -0.83688509 -0.20907687
-0.047480471 -0.80991858 -0.1789649
0.0022449538 -0.82970911 -0.23272692
0.011955992 -0.77978778 -0.083691992
-0.027450264 -0.78040785 -0.14992072
0.00067631708 -0.74987704 -0.052076451
-0.014392372 -0.7598936 -0.08703962
-0.0080347946 -0.8098821 -0.20817427
-0.045085017 -0.81948709 -0.20768677
-0.0022447682 -0.82964051 -0.23869373
0.0090760542 -0.77409357 -0.088666119
-0.039066225 -0.78755063 -0.14987229
0.0020815418 -0.76931399 -0.099220216
-0.0082320524 -0.82976514 -0.24471654
0.0090975733 -0.77592891 -0.095874473
-0.037758093 -0.78990322 -0.15744416
-0.04936225 -0.84201783 -0.24681129
0.019859027 -0.81551868 -0.15960778
0.011491152 -0.84939945 -0.24284637
0.020924982 -0.80003101 -0.098852552
-0.050123725 -0.82948446 -0.21620537
0.011873067 -0.77437925 -0.069143198
0.0097256191 -0.82949471 -0.2177043
-0.048545379 -0.80336481 -0.15867822
0.0097389584 -0.83063239 -0.21950118
0.0060058073 -0.73989242 -0.00066734431
-0.040658969 -0.81965935 -0.21660148
-0.029536869 -0.7616154 -0.037779752
0.020826681 -0.79627264 -0.099824488
0.013091801 -0.85386688 -0.24258342
-0.055282816 -0.83966684 -0.21583022
-0.026254684 -0.74641764 -0.0074052005
0.014372017 -0.83869457 -0.21709314
-0.0007551295 -0.83726156 -0.24994792
-0.051010516 -0.8196913 -0.18851717
-0.039904688 -0.8348102 -0.24921611
-0.048570938 -0.8285197 -0.2189429
-0.049379062 -0.8171612 -0.18940929
0.0022713027 -0.83944744 -0.24908626
-0.042501766 -0.79872024 -0.088605426
-0.057910603 -0.85612369 -0.23859173
-0.029925305 -0.7716313 -0.12874845
0.010397787 -0.76858056 -0.068625443
-0.011247445 -0.83138525 -0.24969332
0.002217317 -0.8194949 -0.2150798
-0.046880253 -0.79968011 -0.15650797
-0.0089648636 -0.76461011 -0.004827268
-0.039977591 -0.80592316 -0.18825816
-0.00069237192 -0.76767814 -0.099009231
-0.040604159 -0.78983319 -0.15173137
-0.017211666 -0.82972622 -0.24919505
0.010357687 -0.76561642 -0.058693599
0.0066514369 -0.81943154 -0.20767269
-0.048293769 -0.79920101 -0.14920618
-0.039744601 -0.80122626 -0.17848943
-0.00068885583 -0.76377958 -0.088862441
-0.043457795 -0.7899099 -0.14462188
-0.011168306 -0.82553548 -0.2390018
-0.057664264 -0.85248196 -0.22988826
0.011363378 -0.83995473 -0.22954027
0.011922992 -0.7776354 -0.079252869
0.0098073697 -0.83646721 -0.22858721
0.019242238 -0.79019004 -0.10048728
0.022333957 -0.79881036 -0.10302443
-0.053745627 -0.83931404 -0.2248233
0.0086756889 -0.73994654 -0.012679887
-0.019565806 -0.74806523 -0.049251895
0.019441813 -0.79838562 -0.138973
-0.035617001 -0.77433145 -0.078916147
-0.029794533 -0.80573535 -0.19984142
-0.00071421772 -0.79189998 -0.16926964
-0.00068488636 -0.75937837 -0.078761965
-0.029826446 -0.76908219 -0.1005776
-0.040094055 -0.77991062 -0.13012987
-0.014051017 -0.81996226 -0.22999302
-0.044852067 -0.78937185 -0.13882788
0.00073003367 -0.80943614 -0.19929923
0.0006851395 -0.75965905 -0.077420801
-0.019995851 -0.76450723 -0.10825343
-0.0096080638 -0.8194685 -0.22689818
-0.00075611839 -0.83835799 -0.25178748
-0.039514471 -0.79658699 -0.16883461
-0.057431903 -0.84904683 -0.21977279
0.02003493 -0.82274222 -0.16547373
0.014532211 -0.84804285 -0.22869116
-0.053025328 -0.82806557 -0.19940515
-0.048858311 -0.83342171 -0.22925828
-0.039200433 -0.82007712 -0.2196704
-0.046753731 -0.79752189 -0.094226792
-0.055990692 -0.85041845 -0.24006972
-0.020938132 -0.74888641 0.0060787802
0.015871262 -0.83797657 -0.20934956
-0.00074940163 -0.83091068 -0.23905917
-0.05249064 -0.81971568 -0.17965111
-0.049933355 -0.82633406 -0.20942202
-0.051724542 -0.80775195 -0.14934555
0.018630467 -0.82627285 -0.17959777
0.022269838 -0.79651701 -0.11996982
-0.050716192 -0.83928901 -0.23692793
0.01270908 -0.82890528 -0.20857848
-0.04050475 -0.78789949 -0.088826254
-0.038962673 -0.81510317 -0.2095163
0.022497997 -0.80467749 -0.12700486
-0.054270457 -0.84751004 -0.24230619
-0.039288331 -0.79202813 -0.15929636
0.011215563 -0.82902861 -0.21309574
-0.055935845 -0.84958541 -0.23830207
-0.038391221 -0.83464438 -0.25067216
0.020630522 -0.78877282 -0.10457546
-0.038729113 -0.81021708 -0.19949152
0.01778744 -0.78888398 -0.09889821
0.0099402908 -0.84780395 -0.24544877
0.022353433 -0.79950696 -0.12330446
-0.02329977 -0.73811376 -0.020636972
0.0090531409 -0.77213931 -0.11908368
-0.0075220014 -0.75819415 0.00068378524
-0.038235754 -0.79989594 -0.17819308
-0.057465132 -0.84953809 -0.22143236
-0.045624763 -0.82929778 -0.22812387
