# .PCD v0.7 - Point Cloud Data file format
VERSION 0.7
FIELDS x y z
SIZE 4 4 4
TYPE F F F
COUNT 1 1 1
WIDTH 124
HEIGHT 1
VIEWPOINT 0 0 0 1 0 0 0
POINTS 124
DATA ascii
-0.020388 0.107228 0.030042
0.0072460002 0.119851 -0.029866001
0.010264 0.10915 -0.031830002
0.00021100001 0.129889 -0.021917
0.013063 0.10915 -0.02991
6.7000001e-05 0.13529199 -0.010137
0.020152999 0.10915 -0.022645
0.020199999 0.115357 -0.020164
0.00013499999 0.123844 -0.030026
0.010183 0.119851 -0.028031001
0.018204 0.119851 -0.019811001
0.01001 0.130658 -0.010844
0.020141 0.119851 -0.016487001
0.025868 0.10915 -0.0099609997
0.011847 0.129889 -0.0099919997
0.020013001 0.124744 1.9999999e-05
0.02015 0.121139 0.010044
0.010394 0.131386 9.9999997e-05
0.022642 0.119851 -0.0096310005
0.020141 0.119851 0.011724
0.018586 0.10915 0.019888001
0.010095 0.116166 -0.030013001
0.014302 0.119851 0.019802
0.010104 0.123844 0.020090001
0.00012899999 0.133147 0.010269
0.00021100001 0.129889 0.017154001
0.000111 0.10915 0.031272002
0.010183 0.119851 0.023267999
0.00025799999 0.114526 0.03011
0.000143 0.12821899 0.020044001
-0.0099539999 0.129889 0.018662
-0.0098940004 0.13434 0.010126
-0.009811 0.129077 0.020027
-0.0098050004 0.119851 0.028932
-0.0098850001 0.116952 0.030229
-0.0097960001 0.13997699 0.003271
-0.014393 0.12851 0.020072
0.000114 0.119851 0.027954999
-0.011815 0.134147 0.010035
-0.0086390004 0.142032 0.000117
-0.034072999 0.10915 0.020212
-0.030307001 0.119165 0.020044001
0.0038660001 0.129889 -0.019963
0.010006 0.13162 -0.0043649999
-0.025018999 0.129889 0.010005
-0.040153999 0.10915 0.010067
0.000111 0.10915 -0.036036
-0.039138 0.119851 0.00031
-0.030236 0.129077 9.6999996e-05
-0.041807 0.10915 -0.0091300001
-0.020292999 0.13184901 0.01003
-0.029790999 0.119851 0.020072
-0.038405001 0.119851 -0.0096310005
-0.036561999 0.119851 0.010332
0.010121 0.129889 -0.013474
-0.030048 0.124306 -0.020122999
-0.040004 0.117715 -0.0063439999
-0.020090001 0.133352 -0.010324
-0.030102 0.126983 0.010206
-0.025463 0.129889 -0.014129
0.023375001 0.119851 0.00031
-0.035409 0.10915 -0.023327
0.013105 0.129889 0.000207
-0.019887 0.119851 0.026603
-0.035904001 0.119851 -0.016487001
0.010177 0.126983 -0.020439999
-0.029825 0.10915 0.024357
0.022004001 0.10915 -0.019799
-0.029825 0.10915 -0.02912
-0.019843999 0.129889 0.015054
-0.019843999 0.129889 -0.019818
0.023015 0.10915 0.01317
-0.040022001 0.115357 -0.010853
-0.020158 0.121738 -0.030077999
-0.010149 0.141643 2.9000001e-05
-0.020315999 0.12962399 -0.020037999
2.2e-05 0.138016 0.000227
-0.020025 0.134533 -0.004489
0.026614999 0.10915 0.000163
-0.0095790001 0.10915 0.032166999
-0.019933 0.10915 0.030041
-0.013232 0.13997699 -0.0050249998
-0.030104 0.12821899 -0.010954
-0.022670001 0.119851 -0.03005
-0.0098649999 0.13162 -0.020269001
-0.019412 0.129889 -0.020106001
-0.040040001 0.110088 0.010023
-0.032848999 0.119851 -0.021377999
0.000114 0.119851 -0.032717999
-0.0095790001 0.10915 -0.036929999
-0.029790999 0.119851 -0.024836
-0.019933 0.10915 -0.034805
-0.040153999 0.10915 -0.014831
-0.028867001 0.129889 0.000207
0.010142 0.129353 0.010312
-0.027959 0.129889 -0.0090150004
-0.020306 0.13434 9.0000001e-05
-0.011881 0.116952 0.030045001
-0.013235 0.131386 -0.020031
-0.038778 0.10915 -0.017934
-0.0099409996 0.124744 -0.030304
-0.012329 0.124744 -0.030024
-0.013232 0.13997699 0.00026100001
-0.0098050004 0.119851 -0.033695001
0.0098430002 0.129889 0.009149
0.010264 0.10915 0.027067
-0.010011 0.142223 -0.003123
-0.040128 0.117715 0.00039500001
0.0045679999 0.10915 0.029890999
-0.028487001 0.10915 -0.030165
0.000139 0.130658 -0.020475
-0.019887 0.119851 -0.031366002
-0.039999001 0.10915 0.010462
-0.010607 0.138237 -0.010009
3.0000001e-06 0.13824899 -0.0041550002
-0.0087249996 0.138647 -0.01001
-0.020953 0.12664799 0.020045999
-0.0099539999 0.129889 -0.023425
-0.042378001 0.10915 0.000163
-0.0097960001 0.13997699 -0.0080340002
-0.030042 0.129077 -0.0062270002
0.020031 0.123358 -0.010849
0.020013001 0.124744 -0.0047840001
-0.0078809997 0.143301 -0.002382
