# .PCD v0.7 - Point Cloud Data file format
VERSION 0.7
FIELDS x y z
SIZE 4 4 4
TYPE F F F
COUNT 1 1 1
WIDTH 1327
HEIGHT 1
VIEWPOINT 0 0 0 1 0 0 0
POINTS 1327
DATA ascii
-0.088284381 -0.063159972 0.38690382
-0.087605275 -0.063173525 0.38698685
-0.086927935 -0.063188583 0.38707909
-0.086252533 -0.063205302 0.38718149
-0.085579924 -0.063224353 0.3872982
-0.084908962 -0.063244946 0.38742438
-0.084239639 -0.063267112 0.38756016
-0.083572634 -0.063291408 0.38770899
-0.082907468 -0.063317515 0.38786891
-0.082243726 -0.063345172 0.38803831
-0.081581734 -0.063374653 0.38821891
-0.080922134 -0.06340652 0.38841411
-0.080263779 -0.063439928 0.3886188
-0.07960669 -0.063474938 0.38883325
-0.078951791 -0.063512325 0.38906229
-0.078298382 -0.063551605 0.38930288
-0.077646181 -0.063592575 0.38955384
-0.076995261 -0.063635349 0.3898159
-0.076346539 -0.063680753 0.39009401
-0.075698912 -0.063727915 0.39038295
-0.075052433 -0.063776948 0.39068329
-0.074407302 -0.063828059 0.3909964
-0.07376419 -0.063881911 0.39132625
-0.073122136 -0.063937709 0.39166808
-0.072481178 -0.063995577 0.39202255
-0.071841314 -0.064055555 0.39238998
-0.071203649 -0.064118706 0.39277682
-0.070566863 -0.064183928 0.39317638
-0.069931284 -0.064251587 0.39359081
-0.069297016 -0.064321846 0.39402121
-0.068664074 -0.064394802 0.39446813
-0.068032697 -0.064470775 0.39493352
-0.067402788 -0.064549759 0.39541736
-0.066774063 -0.064631574 0.39591855
-0.066146694 -0.064716496 0.39643875
-0.065520525 -0.06480445 0.39697754
-0.064896151 -0.064896151 0.39753929
-0.064273618 -0.064991765 0.39812496
-0.063652523 -0.065090992 0.39873284
-0.063033164 -0.065194301 0.39936569
-0.062415373 -0.065301634 0.40002316
-0.061799582 -0.065413594 0.400709
-0.061186142 -0.065530717 0.40142649
-0.060575049 -0.065653197 0.40217677
-0.059966084 -0.065780975 0.40295953
-0.059360001 -0.065915093 0.40378109
-0.058756743 -0.066055715 0.40464252
-0.058157068 -0.066203959 0.4055506
-0.057560783 -0.066359885 0.40650576
-0.056968961 -0.06652505 0.40751752
-0.056383371 -0.066701896 0.40860087
-0.055803183 -0.066889904 0.40975258
-0.055229433 -0.067090787 0.41098312
-0.054667205 -0.067311317 0.41233405
-0.054115232 -0.067550741 0.41380069
-0.053579558 -0.067817479 0.41543469
-0.053065065 -0.068118982 0.41728163
-0.052584838 -0.068473786 0.41945505
-0.05216321 -0.068916358 0.42216617
-0.051888734 -0.069569342 0.42616618
0.036912821 -0.062441312 0.38250148
0.037358854 -0.062036261 0.38002023
0.037862308 -0.061739437 0.37820196
0.038393427 -0.061497435 0.3767195
0.038941111 -0.061289925 0.37544835
0.039500408 -0.061107468 0.37433064
0.040067807 -0.060943469 0.37332603
0.040641613 -0.060794476 0.37241334
0.041220628 -0.060657997 0.37157729
0.041804232 -0.060532525 0.37080869
0.04239117 -0.06041576 0.37009341
0.042981736 -0.060307708 0.3694315
0.043574717 -0.06020629 0.36881024
0.044170227 -0.060111362 0.36822873
0.044768266 -0.060022637 0.36768523
0.045368306 -0.05993915 0.36717379
0.04597066 -0.059861075 0.36669552
0.046574652 -0.059787322 0.36624372
0.047180798 -0.059718352 0.36582124
0.047788464 -0.059653185 0.36542204
0.048398066 -0.059592176 0.36504832
0.04900942 -0.059534933 0.36469766
0.049622457 -0.059481226 0.36436865
0.050237473 -0.059431259 0.36406258
0.050854106 -0.059384473 0.36377597
0.051472507 -0.059340917 0.36350915
0.052092873 -0.059300691 0.36326274
0.052715112 -0.059263572 0.36303535
0.053338885 -0.059229068 0.36282399
0.053965107 -0.059198089 0.36263421
0.054593075 -0.059169739 0.36246055
0.055222906 -0.059144061 0.36230326
0.055855103 -0.059121482 0.36216494
0.056489609 -0.059101846 0.36204466
0.057126317 -0.059084937 0.36194107
0.057765152 -0.05907058 0.36185312
0.058406983 -0.059059575 0.36178571
0.059051074 -0.059051074 0.36173365
0.059697572 -0.05904514 0.36169729
0.060347572 -0.059042759 0.36168271
0.06099999 -0.05904277 0.36168277
0.061655551 -0.059045792 0.36170128
0.062314797 -0.059052244 0.3617408
0.062977128 -0.059061453 0.36179721
0.063642867 -0.059073638 0.36187187
0.064312756 -0.059089381 0.36196831
0.064986214 -0.059108064 0.36208275
0.06566456 -0.059130773 0.36222187
0.06634707 -0.059156749 0.36238098
0.067034334 -0.05918641 0.36256269
0.067726925 -0.059220161 0.36276942
0.068424799 -0.059257839 0.36300024
0.069128975 -0.05930021 0.36325979
0.069839433 -0.059347123 0.36354718
0.070556358 -0.059398606 0.36386254
0.071281455 -0.059455961 0.36421388
0.07201498 -0.059519231 0.36460146
0.072757594 -0.059588801 0.36502764
0.073510431 -0.059665415 0.36549696
0.074274778 -0.059749931 0.36601469
0.075053141 -0.059844133 0.36659175
0.075846069 -0.059948202 0.36722925
0.076656856 -0.060064465 0.36794144
0.07748986 -0.060195986 0.36874712
0.078350879 -0.060346846 0.36967126
0.079246819 -0.060521834 0.37074319
0.080194943 -0.060733411 0.37203926
0.081223719 -0.061002046 0.37368485
0.0824349 -0.061402127 0.37613568
-0.12952091 -0.066051975 0.40914047
-0.12783298 -0.065564767 0.4061226
-0.12644388 -0.065226093 0.40402478
-0.12519851 -0.064958066 0.40236458
-0.12404217 -0.064733379 0.40097278
-0.12294787 -0.06453862 0.39976642
-0.12189765 -0.064364836 0.39868996
-0.12088816 -0.064210624 0.39773476
-0.11990727 -0.06406986 0.3968628
-0.11895142 -0.063940853 0.39606375
-0.11801818 -0.063822523 0.39533076
-0.1171051 -0.063713714 0.39465678
-0.11620827 -0.063612476 0.39402971
-0.11532702 -0.063518569 0.39344802
-0.11445965 -0.063431196 0.39290681
-0.11360437 -0.063349478 0.39240062
-0.11276009 -0.063272901 0.39192629
-0.11192702 -0.063201688 0.39148518
-0.11110365 -0.063135087 0.39107263
-0.1102891 -0.063072681 0.39068609
-0.10948283 -0.063014239 0.39032406
-0.10868429 -0.062959515 0.38998508
-0.10789297 -0.062908277 0.38966772
-0.10710936 -0.062860906 0.38937429
-0.10633236 -0.062816806 0.38910115
-0.10556145 -0.062775746 0.38884678
-0.10479606 -0.062737443 0.38860953
-0.10403603 -0.062701844 0.38838905
-0.10328107 -0.062668853 0.38818467
-0.10253192 -0.062638961 0.3879995
-0.10178757 -0.062611595 0.38783002
-0.10104749 -0.062586509 0.38767463
-0.10031151 -0.062563621 0.38753286
-0.099579602 -0.062542975 0.38740498
-0.098852642 -0.062525168 0.38729468
-0.098129228 -0.062509365 0.38719678
-0.097409129 -0.062495463 0.38711065
-0.096692279 -0.062483456 0.38703629
-0.095979854 -0.062474161 0.38697872
-0.095270433 -0.062466696 0.38693246
-0.094563939 -0.062461052 0.3868975
-0.093860097 -0.062457092 0.38687298
-0.093160182 -0.062455699 0.38686436
-0.092462793 -0.062455997 0.38686621
-0.09176781 -0.062457938 0.38687822
-0.091075659 -0.062461849 0.38690245
-0.090386577 -0.062467944 0.38694021
-0.089699537 -0.062475551 0.38698733
-0.089014433 -0.062484641 0.38704363
-0.088332683 -0.062496245 0.38711551
-0.087652922 -0.062509455 0.38719732
-0.086974941 -0.062524155 0.38728839
-0.086299181 -0.062540703 0.38739088
-0.0856262 -0.062559545 0.38750762
-0.084954739 -0.062579826 0.38763323
-0.08428479 -0.062601566 0.38776788
-0.083617553 -0.062625699 0.38791737
-0.08295206 -0.062651552 0.38807753
-0.082287997 -0.062678948 0.38824719
-0.08162564 -0.06270811 0.38842785
-0.080965593 -0.062739573 0.38862273
-0.080306865 -0.062772617 0.38882741
-0.079649471 -0.062807292 0.3890422
-0.078994215 -0.062844284 0.38927135
-0.078340597 -0.062883265 0.38951278
-0.07768818 -0.062923916 0.38976458
-0.077036902 -0.062966235 0.39002672
-0.076387949 -0.063011259 0.39030561
-0.075740241 -0.063058153 0.39059609
-0.075093612 -0.063106842 0.39089766
-0.074448153 -0.063157439 0.39121109
-0.073804945 -0.063210934 0.39154246
-0.073162846 -0.063266419 0.39188614
-0.072521731 -0.063323855 0.3922419
-0.071881801 -0.06338346 0.39261112
-0.071243629 -0.063445821 0.39299738
-0.070607036 -0.063510858 0.39340022
-0.069971576 -0.063578233 0.39381757
-0.069337219 -0.063648008 0.3942498
-0.068703927 -0.063720226 0.3946971
-0.068072744 -0.063795924 0.39516601
-0.067442581 -0.063874193 0.3956508
-0.066814087 -0.063955724 0.39615586
-0.066186741 -0.064040147 0.39667878
-0.065560818 -0.064127795 0.39722168
-0.064936444 -0.064218909 0.39778608
-0.064313494 -0.064313494 0.39837196
-0.063692875 -0.064412571 0.39898565
-0.063073449 -0.064515121 0.39962089
-0.062456112 -0.064622216 0.40028426
-0.061840657 -0.064733788 0.40097535
-0.061227202 -0.064850114 0.40169588
-0.060616203 -0.064971857 0.40245
-0.060007695 -0.065099254 0.40323913
-0.059401829 -0.065232687 0.40406561
-0.058798712 -0.065372482 0.40493155
-0.058198869 -0.065519482 0.4058421
-0.05760362 -0.065675467 0.40680829
-0.057013094 -0.06584093 0.40783322
-0.056427252 -0.066016197 0.40891886
-0.055847496 -0.066203319 0.41007796
-0.055275813 -0.06640517 0.41132826
-0.05471291 -0.066623203 0.41267881
-0.054162793 -0.066863038 0.41416436
-0.053627327 -0.067127913 0.41580507
-0.053115807 -0.067430705 0.41768065
-0.052639939 -0.067788124 0.41989458
-0.0522248 -0.068235323 0.42266461
-0.051981736 -0.068923928 0.42693001
0.037578989 -0.061712284 0.38225949
0.038032793 -0.061332159 0.3799049
0.038540184 -0.061050385 0.37815952
0.039073408 -0.060818609 0.37672386
0.039622873 -0.060619608 0.3754912
0.040183652 -0.060444318 0.37440541
0.04075218 -0.060286283 0.37342653
0.041327488 -0.060143255 0.37254056
0.04190759 -0.06001167 0.3717255
0.042491876 -0.059890125 0.37097263
0.043079674 -0.059777223 0.37027329
0.043671113 -0.059672743 0.3696261
0.044264946 -0.059574626 0.36901835
0.044861741 -0.059483346 0.36845294
0.045460798 -0.059397683 0.36792234
0.046061985 -0.059317235 0.36742401
0.046665233 -0.059241679 0.366956
0.047270801 -0.059171144 0.36651909
0.047878038 -0.059104614 0.36610699
0.048487142 -0.059042167 0.36572018
0.049097911 -0.058983397 0.36535615
0.049711071 -0.058929019 0.36501932
0.050325654 -0.058877725 0.3647016
0.050942309 -0.058830149 0.36440691
0.05156083 -0.058785915 0.36413291
0.052181005 -0.058744654 0.36387733
0.052803498 -0.058706995 0.36364406
0.053427789 -0.058672234 0.36342874
0.054054242 -0.058640663 0.36323318
0.054682683 -0.058611978 0.3630555
0.055313226 -0.058586199 0.36289582
0.055945963 -0.058563314 0.36275408
0.056581419 -0.058543783 0.36263308
0.057219006 -0.05852687 0.36252832
0.057858981 -0.058512755 0.36244088
0.058501787 -0.058501787 0.36237296
0.059147049 -0.058493488 0.36232156
0.059794936 -0.058487941 0.36228719
0.060446143 -0.058485728 0.36227348
0.061100047 -0.058486141 0.36227605
0.061757497 -0.058489904 0.36229935
0.062418085 -0.058496531 0.36234039
0.063082196 -0.058506284 0.3624008
0.063750431 -0.058519628 0.36248347
0.064422138 -0.058535848 0.36258394
0.065098427 -0.058555871 0.36270797
0.065778606 -0.058578957 0.36285096
0.066463821 -0.058606032 0.36301866
0.067153879 -0.058636803 0.36320928
0.067849845 -0.058672089 0.36342785
0.06855119 -0.058711305 0.36367077
0.069258995 -0.058755264 0.36394304
0.06997373 -0.058804214 0.36424625
0.070695527 -0.058858138 0.36458027
0.071425781 -0.05891804 0.36495131
0.072165035 -0.058984205 0.36536115
0.072914369 -0.05905734 0.36581418
0.073674634 -0.059137937 0.3663134
0.074448362 -0.059227806 0.36687008
0.075237215 -0.059328027 0.36749086
0.076043576 -0.059440177 0.36818555
0.07687182 -0.05956734 0.36897323
0.07772582 -0.059712112 0.36986998
0.078615323 -0.059881456 0.37091893
0.07955388 -0.060084999 0.37217972
0.080569915 -0.060343161 0.37377882
0.081748657 -0.060717884 0.37609994
-0.1298756 -0.065492824 0.41026089
-0.128069 -0.064951904 0.40687245
-0.12663907 -0.064596869 0.40464845
-0.12537362 -0.064322114 0.40292734
-0.12420041 -0.064091757 0.40148431
-0.12309333 -0.06389302 0.40023938
-0.12203702 -0.063718446 0.39914581
-0.12101724 -0.063560985 0.39815944
-0.12003036 -0.063419022 0.39727017
-0.11906987 -0.063289389 0.39645812
-0.11813132 -0.063169919 0.39570972
-0.11721252 -0.063059621 0.39501882
-0.11631139 -0.06295754 0.39437935
-0.11542664 -0.062863119 0.39378789
-0.11455604 -0.062775292 0.39323771
-0.11369775 -0.062693156 0.39272317
-0.11285105 -0.062616415 0.39224246
-0.11201515 -0.062544741 0.39179346
-0.11118884 -0.06247754 0.39137253
-0.11037169 -0.062414661 0.39097863
-0.10956319 -0.062355895 0.39061052
-0.10876272 -0.062300976 0.39026648
-0.10797039 -0.062250029 0.38994735
-0.10718488 -0.062202375 0.38964882
-0.10640571 -0.062157791 0.38936955
-0.10563269 -0.062116235 0.38910922
-0.10486566 -0.062077664 0.38886762
-0.10410398 -0.062041767 0.38864276
-0.10334803 -0.062008817 0.38843635
-0.10259756 -0.061978731 0.38824788
-0.10185179 -0.06195109 0.38807473
-0.10111032 -0.061925698 0.38791567
-0.10037295 -0.061902482 0.38777024
-0.099640593 -0.061882053 0.38764226
-0.098912314 -0.061863884 0.38752845
-0.098187551 -0.061847676 0.38742691
-0.09746629 -0.061833456 0.38733783
-0.096748903 -0.061821505 0.38726297
-0.096035518 -0.06181195 0.38720313
-0.095325112 -0.061804194 0.38715455
-0.094617516 -0.061798159 0.38711673
-0.093913414 -0.061794329 0.38709274
-0.093212657 -0.061792657 0.38708228
-0.092514396 -0.061792634 0.38708213
-0.091818571 -0.061794247 0.38709223
-0.091125861 -0.061797995 0.38711572
-0.090436012 -0.061803762 0.38715184
-0.089748323 -0.061811104 0.38719782
-0.089062735 -0.061820015 0.38725364
-0.088380434 -0.06183137 0.38732478
-0.087700039 -0.061844248 0.38740546
-0.087021612 -0.061858736 0.3874962
-0.086345501 -0.061875116 0.38759881
-0.08567185 -0.061893541 0.38771424
-0.084999911 -0.061913516 0.38783935
-0.084329598 -0.061935015 0.38797402
-0.083661981 -0.061958872 0.38812348
-0.082996115 -0.061984438 0.38828364
-0.08233165 -0.062011495 0.38845313
-0.08166898 -0.062040385 0.38863409
-0.081008688 -0.062071595 0.38882959
-0.080349699 -0.062104348 0.38903478
-0.079691999 -0.062138695 0.38924992
-0.079036422 -0.062175319 0.38947934
-0.078382596 -0.062213987 0.38972157
-0.07773 -0.062254347 0.38997439
-0.077078648 -0.062296439 0.39023808
-0.076429248 -0.062340904 0.39051661
-0.075781457 -0.062387522 0.39080864
-0.075134791 -0.062435951 0.391112
-0.074489191 -0.06248619 0.39142671
-0.073845595 -0.062539093 0.39175811
-0.07320337 -0.06259419 0.39210322
-0.0725623 -0.062651351 0.3924613
-0.071922466 -0.062710717 0.3928332
-0.071284093 -0.062772557 0.39322057
-0.070647351 -0.062837094 0.39362484
-0.070011862 -0.06290406 0.39404431
-0.069377631 -0.062973544 0.39447957
-0.06874454 -0.063045509 0.39493042
-0.068112835 -0.063120276 0.39539874
-0.067483284 -0.063198633 0.39588958
-0.066854745 -0.063279621 0.39639693
-0.066227697 -0.063363798 0.39692423
-0.065601915 -0.063451029 0.39747068
-0.064977519 -0.063541554 0.39803773
-0.064354964 -0.063635916 0.39862883
-0.063733988 -0.063733988 0.39924318
-0.063114949 -0.063836269 0.39988387
-0.062497772 -0.063942805 0.40055126
-0.061882745 -0.064054072 0.40124825
-0.061269786 -0.06417013 0.40197527
-0.060658962 -0.064291239 0.40273389
-0.060050867 -0.064418204 0.40352926
-0.059445366 -0.0645511 0.40436175
-0.058843266 -0.064691044 0.40523839
-0.058244422 -0.064838134 0.40615976
-0.057649892 -0.064993829 0.40713507
-0.057059836 -0.06515865 0.40816757
-0.056474831 -0.065333627 0.40926367
-0.05589686 -0.065521486 0.41044044
-0.055326138 -0.065722995 0.41170275
-0.054764818 -0.065941311 0.41307032
-0.054216452 -0.066181466 0.41457468
-0.053684201 -0.066448279 0.41624606
-0.053176228 -0.066753134 0.41815576
-0.052704055 -0.067112356 0.42040598
-0.052301586 -0.067572117 0.42328605
-0.052110203 -0.068322271 0.42798513
0.038257856 -0.061005767 0.38215303
0.038716964 -0.060645156 0.37989408
0.039226785 -0.060375139 0.37820265
0.039761655 -0.060152248 0.37680641
0.040312231 -0.059960205 0.37560341
0.040873282 -0.059789844 0.37453622
0.0414427 -0.059637055 0.37357911
0.042018551 -0.059498273 0.37270975
0.042599007 -0.059370268 0.37190792
0.043184135 -0.05925265 0.37117112
0.043772604 -0.059143137 0.37048513
0.044364512 -0.059041493 0.3698484
0.044959623 -0.05894706 0.36925685
0.04555678 -0.05885803 0.36869913
0.046156704 -0.058775086 0.36817956
0.04675895 -0.058697402 0.36769295
0.047363188 -0.058624364 0.36723542
0.047969736 -0.058556162 0.36680818
0.048577916 -0.058491778 0.36640486
0.049188662 -0.058432169 0.36603147
0.04980135 -0.058376417 0.36568221
0.050415549 -0.058323868 0.36535305
0.051032357 -0.058275662 0.36505106
0.051650949 -0.058230687 0.36476934
0.052271821 -0.058189388 0.36451063
0.05289438 -0.058150966 0.36426994
0.053519264 -0.058116011 0.36405098
0.05414651 -0.058084436 0.36385319
0.054775823 -0.058055814 0.3636739
0.055407416 -0.058030251 0.36351377
0.056041174 -0.058007531 0.36337143
0.056677442 -0.057987906 0.3632485
0.057316393 -0.05797144 0.36314535
0.057957884 -0.057957884 0.36306044
0.05860183 -0.057947062 0.36299264
0.05924869 -0.057939325 0.36294419
0.059898235 -0.057934359 0.36291307
0.060551256 -0.05793282 0.36290345
0.061206978 -0.057933878 0.36291006
0.061866164 -0.057938155 0.36293685
0.062528856 -0.05794559 0.36298344
0.063195445 -0.057956442 0.36305141
0.063865505 -0.05797023 0.36313778
0.064539671 -0.057987418 0.36324546
0.065218374 -0.058008306 0.36337629
0.065901585 -0.05803274 0.36352935
0.066589609 -0.058060892 0.36370569
0.06728287 -0.058093015 0.36390692
0.067981675 -0.058129255 0.36413395
0.06868688 -0.058170229 0.36439061
0.06939888 -0.058216121 0.36467808
0.070117816 -0.058266915 0.36499628
0.070844688 -0.058323301 0.3653495
0.071580432 -0.058385883 0.36574152
0.072325602 -0.058454938 0.3661741
0.073082231 -0.058531921 0.36665633
0.073851131 -0.058617264 0.36719093
0.074635103 -0.058712948 0.36779031
0.075435221 -0.058819536 0.368458
0.076258011 -0.058941782 0.36922377
0.077105194 -0.059080604 0.37009341
0.077987872 -0.059244003 0.37111697
0.078917518 -0.059440002 0.37234473
0.079923145 -0.05968944 0.37390727
0.081085488 -0.060050759 0.37617067
-0.25490078 -0.069808505 0.4422929
-0.25393969 -0.069763653 0.4420087
-0.25300345 -0.069725364 0.44176611
-0.25209078 -0.069693342 0.44156325
-0.25119811 -0.069666669 0.44139427
-0.25032488 -0.069645233 0.44125846
-0.24946848 -0.069628365 0.44115156
-0.24862851 -0.069615982 0.44107312
-0.24780339 -0.069607697 0.44102061
-0.24699193 -0.069603205 0.44099215
-0.24619377 -0.069602437 0.44098729
-0.24540807 -0.069605209 0.44100484
-0.24463411 -0.069611333 0.44104365
-0.24387111 -0.069620624 0.44110253
-0.24311897 -0.069633089 0.44118151
-0.24237698 -0.069648556 0.4412795
-0.24164487 -0.069666974 0.44139618
-0.24092199 -0.069688179 0.44153053
-0.24020863 -0.069712289 0.44168329
-0.23950371 -0.069739014 0.44185263
-0.2388075 -0.069768466 0.44203922
-0.23812005 -0.069800682 0.44224334
-0.23744053 -0.069835447 0.44246361
-0.23676895 -0.069872789 0.44270021
-0.23610535 -0.069912754 0.44295338
-0.23544945 -0.069955267 0.44322276
-0.13036282 -0.064995706 0.41179997
-0.12835062 -0.064359188 0.40776712
-0.12686692 -0.063981876 0.40537652
-0.12556954 -0.063694693 0.40355697
-0.12437682 -0.063457564 0.40205458
-0.1232549 -0.063253984 0.40076473
-0.12218422 -0.063074447 0.39962724
-0.1211578 -0.062915772 0.39862192
-0.12016126 -0.062770806 0.39770344
-0.11919327 -0.06263911 0.396869
-0.11824981 -0.062518783 0.39610666
-0.11732639 -0.06240765 0.39540255
-0.11642085 -0.062304739 0.39475051
-0.11553083 -0.062208906 0.39414334
-0.11465583 -0.062120032 0.39358026
-0.11379366 -0.06203704 0.39305443
-0.11294342 -0.061959554 0.39256349
-0.11210456 -0.061887372 0.39210618
-0.1112755 -0.061819725 0.39167756
-0.11045627 -0.061756697 0.39127824
-0.1096457 -0.06169774 0.39090469
-0.10884311 -0.061642535 0.39055493
-0.10804834 -0.061591074 0.39022887
-0.10726029 -0.061542794 0.38992298
-0.10647919 -0.061497882 0.38963842
-0.10570418 -0.061455917 0.38937256
-0.10493509 -0.061416857 0.38912508
-0.10417235 -0.061381016 0.38889799
-0.10341515 -0.061347965 0.38868859
-0.10266291 -0.06131744 0.38849518
-0.10191548 -0.061289378 0.38831738
-0.1011724 -0.061263565 0.38815385
-0.10043406 -0.061240278 0.3880063
-0.099700741 -0.061219756 0.38787627
-0.098971143 -0.061201237 0.38775894
-0.098245077 -0.061184656 0.38765389
-0.097522721 -0.061170168 0.3875621
-0.096804872 -0.061158314 0.38748699
-0.096090302 -0.061148375 0.38742402
-0.095378771 -0.061140236 0.38737246
-0.094670251 -0.061133925 0.38733247
-0.093965732 -0.061130125 0.38730839
-0.093264088 -0.061128147 0.38729587
-0.092565015 -0.061127838 0.38729391
-0.091868341 -0.061129123 0.38730204
-0.091175422 -0.061132945 0.38732627
-0.09048482 -0.061138395 0.38736078
-0.089796484 -0.061145462 0.38740557
-0.089110531 -0.061154287 0.38746148
-0.088427573 -0.061165318 0.38753137
-0.087746643 -0.061177939 0.38761133
-0.08706753 -0.061192039 0.38770068
-0.086391158 -0.061208311 0.38780376
-0.085716993 -0.061226424 0.38791853
-0.085044578 -0.061246097 0.38804317
-0.084373839 -0.061267309 0.38817757
-0.083705962 -0.061290976 0.38832751
-0.083039559 -0.061316133 0.38848689
-0.082374752 -0.061342899 0.3886565
-0.081711836 -0.06137155 0.38883802
-0.081051186 -0.061402414 0.38903356
-0.080391861 -0.061434828 0.38923892
-0.079733886 -0.061468855 0.38945451
-0.079077862 -0.061505001 0.38968354
-0.078423761 -0.061543312 0.38992625
-0.077770993 -0.061583363 0.39018002
-0.077119455 -0.061625134 0.39044467
-0.076469712 -0.061669122 0.39072338
-0.075821809 -0.061715428 0.39101675
-0.075175017 -0.06176351 0.39132139
-0.07452935 -0.06181344 0.39163774
-0.07388559 -0.061865926 0.39197028
-0.073243365 -0.061920721 0.39231744
-0.07260225 -0.061977532 0.3926774
-0.071962439 -0.062036585 0.39305153
-0.071323909 -0.062097929 0.39344022
-0.070687391 -0.062162276 0.39384791
-0.070051946 -0.062228888 0.39426994
-0.069417812 -0.062298041 0.39470807
-0.068784907 -0.062369734 0.39516231
-0.068153434 -0.062444244 0.39563438
-0.067523584 -0.062521838 0.396126
-0.066895388 -0.062602632 0.39663792
-0.066268504 -0.062686421 0.39716879
-0.065642953 -0.062773317 0.39771932
-0.065019108 -0.062863782 0.39829248
-0.064396903 -0.062957868 0.39888862
-0.063776299 -0.063055664 0.39950821
-0.063157469 -0.063157469 0.40015325
-0.062540688 -0.063263699 0.40082631
-0.06192581 -0.063374363 0.40152746
-0.06131345 -0.063490257 0.40226173
-0.060703225 -0.063611165 0.40302777
-0.060095675 -0.063737839 0.40383035
-0.059491184 -0.063870907 0.40467343
-0.058889847 -0.064010702 0.40555918
-0.058292184 -0.064158067 0.40649283
-0.057698142 -0.064313218 0.40747583
-0.057108808 -0.06447769 0.4085179
-0.056525711 -0.06465359 0.40963238
-0.055948883 -0.064841419 0.41082242
-0.055379637 -0.065043196 0.41210085
-0.054821569 -0.065263771 0.41349837
-0.054275669 -0.065505117 0.4150275
-0.05374673 -0.065773971 0.41673088
-0.05324408 -0.066083081 0.41868934
-0.052781217 -0.06645117 0.42102149
-0.052395437 -0.066928476 0.42404562
-0.052308831 -0.067807749 0.42961648
0.038951673 -0.060323384 0.38219705
0.039412074 -0.059974894 0.37998909
0.039922118 -0.05971257 0.37832704
0.040456876 -0.059495404 0.37695113
0.04100715 -0.059307866 0.37576291
0.04156857 -0.059142273 0.37471375
0.042137522 -0.058992531 0.37376502
0.042713299 -0.058856912 0.37290576
0.043294337 -0.058732629 0.37211832
0.043879673 -0.058617882 0.37139133
0.044468731 -0.058511488 0.37071723
0.045060989 -0.058412392 0.37008938
0.045656122 -0.058319863 0.36950314
0.046254482 -0.058234058 0.36895949
0.046855256 -0.058153685 0.36845025
0.047458589 -0.058078691 0.36797512
0.048064508 -0.058008887 0.36753285
0.048672367 -0.057943292 0.36711726
0.049282994 -0.057882711 0.36673343
0.049895462 -0.057825867 0.36637327
0.050510261 -0.057773177 0.36603943
0.051127549 -0.057724651 0.36573198
0.051746786 -0.057679538 0.36544615
0.052367959 -0.057637691 0.36518103
0.052991625 -0.057599593 0.36493963
0.053617623 -0.057564933 0.36472005
0.054245967 -0.057533603 0.36452153
0.054876592 -0.05750541 0.36434293
0.055509403 -0.057480153 0.36418289
0.056144621 -0.057457946 0.36404219
0.056782611 -0.057439055 0.36392251
0.057423174 -0.057423174 0.36382189
0.058066357 -0.05741024 0.36373994
0.05871217 -0.057400163 0.3636761
0.059360869 -0.057393104 0.36363137
0.060012475 -0.05738898 0.36360523
0.060667459 -0.057388138 0.3635999
0.061325748 -0.057390403 0.36361426
0.061987385 -0.05739573 0.363648
0.062652342 -0.057403978 0.36370027
0.063321404 -0.05741578 0.36377504
0.063994318 -0.0574308 0.3638702
0.064671203 -0.057449035 0.36398575
0.065352775 -0.057471033 0.3641251
0.066039227 -0.057496842 0.36428863
0.066730462 -0.057526261 0.36447501
0.067427367 -0.057559948 0.36468846
0.068130083 -0.057597898 0.3649289
0.068838991 -0.057640303 0.36519757
0.069555312 -0.057688054 0.36550012
0.070279337 -0.05774124 0.3658371
0.071011625 -0.057800163 0.3662104
0.071752898 -0.057865243 0.36662275
0.072504975 -0.057937767 0.36708224
0.073269404 -0.058018759 0.3675954
0.074048489 -0.058109801 0.36817223
0.07484331 -0.058211461 0.36881632
0.075657934 -0.058326602 0.36954582
0.076498382 -0.058459461 0.37038758
0.077371374 -0.058614679 0.37137103
0.078290552 -0.058801919 0.37255734
0.079284631 -0.059041746 0.37407684
0.08042869 -0.059388276 0.37627238
-0.25477478 -0.068976581 0.44207427
-0.25381801 -0.068933301 0.4417969
-0.25288579 -0.068896443 0.44156066
-0.25197574 -0.068865411 0.44136178
-0.2510865 -0.068839885 0.44119817
-0.25021523 -0.068819128 0.44106516
-0.24936147 -0.068803087 0.44096231
-0.24852341 -0.068791285 0.44088668
-0.24769981 -0.068783417 0.44083625
-0.24689008 -0.068779364 0.44081029
-0.24609354 -0.068778969 0.44080776
-0.2453092 -0.068781994 0.44082716
-0.24453638 -0.068788283 0.44086745
-0.24377443 -0.068797678 0.44092765
-0.24302326 -0.068810187 0.44100785
-0.24228217 -0.06882564 0.44110689
-0.24155082 -0.068843968 0.44122437
-0.24082869 -0.068865061 0.44135955
-0.24011602 -0.068889007 0.441513
-0.23941177 -0.068915538 0.44168302
-0.23871605 -0.0689447 0.44186994
-0.23802891 -0.068976551 0.44207409
-0.23734991 -0.06901098 0.44229475
-0.23667862 -0.069047891 0.44253132
-0.23601548 -0.069087446 0.44278479
-0.23535974 -0.06912943 0.4430539
-0.23471193 -0.069174044 0.44333982
-0.23407106 -0.069221012 0.44364086
-0.2334383 -0.069270715 0.44395939
-0.23281251 -0.069322824 0.44429338
-0.23219411 -0.069377519 0.44464388
-0.23158298 -0.069434762 0.44501075
-0.23097964 -0.069494747 0.4453952
-0.23038347 -0.069557317 0.44579622
-0.22979477 -0.069622584 0.44621453
-0.22921334 -0.069690526 0.44664997
-0.22863963 -0.069761299 0.44710356
-0.22807404 -0.069835059 0.44757631
-0.22751561 -0.069911547 0.4480665
-0.22696623 -0.069991365 0.44857809
-0.12868813 -0.063790962 0.4088394
-0.12712274 -0.063378192 0.40619394
-0.12578204 -0.063073315 0.40423992
-0.12456629 -0.062827893 0.40266705
-0.12342637 -0.062618069 0.40132228
-0.1223442 -0.062435236 0.40015048
-0.12130366 -0.062271614 0.39910179
-0.1202997 -0.062124923 0.39816165
-0.119324 -0.061991144 0.39730427
-0.11837152 -0.061867896 0.39651436
-0.11744214 -0.061755292 0.39579266
-0.11653181 -0.061651386 0.39512673
-0.1156376 -0.061554786 0.39450762
-0.11475825 -0.061464943 0.39393181
-0.1138924 -0.061381258 0.39339548
-0.11303859 -0.061303061 0.3928943
-0.11219605 -0.061230022 0.39242619
-0.11136407 -0.061161857 0.39198932
-0.11054154 -0.061098039 0.39158031
-0.10972795 -0.061038375 0.39119792
-0.1089227 -0.060982611 0.39084053
-0.10812519 -0.060930487 0.39050645
-0.10733477 -0.060881689 0.3901937
-0.10655152 -0.060836345 0.3899031
-0.10577451 -0.060793988 0.38963163
-0.10500439 -0.060755044 0.38938203
-0.10424 -0.060718924 0.38915053
-0.10348109 -0.060685523 0.38893646
-0.1027273 -0.060654685 0.38873884
-0.10197832 -0.060626283 0.38855681
-0.10123412 -0.060600352 0.3883906
-0.10049521 -0.060577255 0.38824257
-0.099760421 -0.060556326 0.38810843
-0.099029623 -0.060537543 0.38798806
-0.098302618 -0.060520831 0.38788095
-0.097579628 -0.060506366 0.38778824
-0.096860878 -0.060494341 0.38771117
-0.096145347 -0.060484163 0.38764596
-0.095432937 -0.060475819 0.38759246
-0.094723836 -0.060469463 0.38755172
-0.094018646 -0.060465522 0.38752648
-0.09331616 -0.060463283 0.38751212
-0.092616312 -0.060462724 0.38750854
-0.091919363 -0.060464069 0.38751715
-0.091225661 -0.060467582 0.38753968
-0.090534426 -0.060472801 0.38757312
-0.089845344 -0.060479552 0.3876164
-0.089159071 -0.060488313 0.38767254
-0.08847554 -0.060499083 0.38774157
-0.087794021 -0.060511414 0.3878206
-0.087114468 -0.060525313 0.38790968
-0.086437635 -0.060541343 0.38801241
-0.085763007 -0.060559183 0.38812676
-0.085090049 -0.060578514 0.38825065
-0.084418915 -0.060599472 0.38838497
-0.083750613 -0.06062283 0.38853467
-0.083083898 -0.060647741 0.38869432
-0.082418695 -0.060674191 0.38886383
-0.081755407 -0.060702514 0.38904536
-0.081094377 -0.060733017 0.38924086
-0.080434687 -0.060765069 0.38944629
-0.079776384 -0.060798742 0.38966209
-0.079120077 -0.060834546 0.38989156
-0.078465715 -0.060872503 0.39013484
-0.07781259 -0.060912117 0.39038873
-0.077160805 -0.060953513 0.39065403
-0.076510958 -0.060997214 0.39093411
-0.075862721 -0.061043024 0.39122772
-0.075215645 -0.061090641 0.3915329
-0.074569844 -0.061140202 0.39185053
-0.073925681 -0.061192073 0.39218298
-0.073283225 -0.061246365 0.39253095
-0.072642148 -0.061302882 0.39289317
-0.072002299 -0.061361562 0.39326924
-0.07136365 -0.061422445 0.39365944
-0.070726745 -0.061486065 0.3940672
-0.070091479 -0.061552413 0.39449242
-0.069457322 -0.061621107 0.39493269
-0.068824522 -0.061692446 0.39538988
-0.068193138 -0.061766557 0.39586487
-0.067563221 -0.061843581 0.39635852
-0.066934839 -0.061923679 0.39687186
-0.066308342 -0.062007263 0.39740756
-0.065683417 -0.062094156 0.39796448
-0.065059863 -0.062184289 0.39854214
-0.06443803 -0.062278096 0.39914334
-0.063818 -0.062375784 0.39976943
-0.063199751 -0.062477469 0.40042114
-0.062583469 -0.062583469 0.40110049
-0.061969277 -0.062694065 0.4018093
-0.061357379 -0.062809624 0.40254995
-0.060748119 -0.062930688 0.40332583
-0.060141582 -0.063057542 0.40413883
-0.059537679 -0.063190296 0.40498969
-0.058937307 -0.063330151 0.40588602
-0.058340386 -0.06347727 0.40682894
-0.057747684 -0.063632801 0.40782571
-0.057160608 -0.063798614 0.40888843
-0.056578916 -0.06397485 0.41001794
-0.056003563 -0.064163022 0.41122395
-0.055437893 -0.064367488 0.41253436
-0.054881457 -0.064588383 0.41395009
-0.054340385 -0.064833701 0.41552234
-0.05381735 -0.065107703 0.41727844
-0.053321309 -0.065422602 0.41929662
-0.05286992 -0.065802127 0.42172906
-0.05250987 -0.066308081 0.42497173
0.039661933 -0.059665345 0.3823981
0.040117674 -0.059319295 0.38018024
0.0406252 -0.059060164 0.37851948
0.041158348 -0.058846232 0.37714836
0.041707482 -0.058661744 0.37596598
0.042267226 -0.058497842 0.37491551
0.042836368 -0.058351904 0.37398019
0.043411642 -0.058218714 0.37312657
0.043992098 -0.058096435 0.37234288
0.044577543 -0.057984322 0.37162435
0.045167346 -0.057881117 0.37096289
0.045760777 -0.057785507 0.37035012
0.046357647 -0.057696927 0.36978242
0.046957511 -0.057614535 0.36925435
0.047560364 -0.057538062 0.36876425
0.048165873 -0.057466868 0.36830795
0.048773967 -0.057400655 0.36788359
0.049384799 -0.057339396 0.36749098
0.049998015 -0.057282493 0.36712629
0.050613537 -0.057229687 0.36678785
0.051231813 -0.057181314 0.36647782
0.051852245 -0.057136551 0.36619094
0.052474935 -0.057095371 0.36592701
0.05309996 -0.05705772 0.3656857
0.053727746 -0.057023928 0.36546913
0.054357633 -0.056993153 0.3652719
0.054989859 -0.056965541 0.36509493
0.055624522 -0.056941077 0.36493814
0.056262277 -0.056920316 0.36480507
0.056902632 -0.056902632 0.36469173
0.057545099 -0.05688744 0.36459437
0.058190651 -0.056875609 0.36451855
0.058838926 -0.056866672 0.36446127
0.059490066 -0.05686067 0.3644228
0.060144372 -0.056857795 0.36440438
0.06080205 -0.056858134 0.36440656
0.061463162 -0.056861643 0.36442903
0.062127277 -0.056867827 0.36446866
0.062795721 -0.056877799 0.36453259
0.063467667 -0.056890704 0.36461529
0.064143598 -0.056906886 0.364719
0.064824045 -0.056926701 0.36484599
0.065509111 -0.05695013 0.36499617
0.066199102 -0.056977339 0.36517054
0.066894412 -0.057008535 0.36537048
0.067595489 -0.057043996 0.36559775
0.068302318 -0.057083584 0.36585146
0.069016099 -0.057128157 0.36613715
0.069736451 -0.057177279 0.36645198
0.070466012 -0.057232957 0.3668088
0.071205169 -0.057295322 0.36720851
0.071953803 -0.057364091 0.36764926
0.072713122 -0.057440046 0.36813605
0.073486641 -0.057525739 0.36868528
0.074276753 -0.057622772 0.36930716
0.075084582 -0.057731699 0.37000528
0.075918004 -0.057858214 0.37081611
0.076782338 -0.058005873 0.37176245
0.077690504 -0.058183797 0.37290278
0.078669712 -0.058411419 0.37436163
0.079793885 -0.058741879 0.37647957
-0.25465032 -0.068145864 0.44185835
-0.2536968 -0.068103857 0.44158596
-0.25276867 -0.068068415 0.44135615
-0.25186175 -0.068038478 0.44116208
-0.25097516 -0.068013869 0.44100249
-0.25010619 -0.067993887 0.44087294
-0.24925481 -0.067978583 0.4407737
-0.24841851 -0.067967303 0.44070056
-0.2475965 -0.067959875 0.4406524
-0.2467887 -0.067956306 0.44062927
-0.24599354 -0.067956209 0.44062865
-0.24521041 -0.06795945 0.44064963
-0.2444388 -0.06796591 0.44069153
-0.24367784 -0.067975387 0.44075295
-0.24292769 -0.067987949 0.4408344
-0.24218747 -0.068003379 0.44093448
-0.24145696 -0.068021648 0.44105291
-0.24073571 -0.068042658 0.44118914
-0.24002367 -0.068066411 0.44134319
-0.23932014 -0.068092756 0.44151399
-0.23862484 -0.068121612 0.44170111
-0.23793794 -0.068153083 0.44190514
-0.23725942 -0.068187162 0.44212613
-0.2365884 -0.06822364 0.44236264
-0.23592572 -0.068262771 0.44261637
-0.23527017 -0.068304241 0.44288528
-0.23462233 -0.068348244 0.44317058
-0.23398177 -0.068394668 0.44347161
-0.233349 -0.068443701 0.44378954
-0.23272341 -0.068495184 0.44412336
-0.23210502 -0.068549149 0.44447327
-0.23149374 -0.068605594 0.44483927
-0.23089002 -0.068664685 0.44522238
-0.23029384 -0.068726435 0.44562277
-0.22970468 -0.068790719 0.44603959
-0.22912315 -0.068857744 0.44647419
-0.22854906 -0.068927497 0.44692644
-0.22798277 -0.069000095 0.4473972
-0.22742419 -0.069075555 0.44788647
-0.22687392 -0.069154084 0.44839564
-0.22633077 -0.069235355 0.4489226
-0.22579695 -0.069320068 0.44947192
-0.22527206 -0.069408149 0.45004302
-0.22475596 -0.069499582 0.45063588
-0.22424881 -0.069594458 0.45125106
-0.2237521 -0.069693275 0.45189178
-0.22326465 -0.069795713 0.45255598
-0.22278863 -0.069902487 0.45324832
-0.12909926 -0.063254945 0.41014558
-0.12741363 -0.062788852 0.40712342
-0.1260214 -0.062462784 0.40500921
-0.12477271 -0.062204473 0.40333432
-0.12360951 -0.061986003 0.40191776
-0.12250995 -0.061797053 0.40069261
-0.12145746 -0.06162975 0.39960781
-0.12044176 -0.061479229 0.39863184
-0.11945659 -0.061342575 0.39774576
-0.11849829 -0.061218146 0.39693898
-0.11756141 -0.061103348 0.39619461
-0.11664338 -0.060996998 0.39550504
-0.11574411 -0.060899206 0.39487097
-0.1148604 -0.06080845 0.39428249
-0.11398994 -0.060723614 0.39373243
-0.11313237 -0.060644623 0.39322025
-0.11228625 -0.060570817 0.39274168
-0.11145093 -0.060501937 0.39229506
-0.11062531 -0.060437471 0.39187706
-0.10980931 -0.060377464 0.39148799
-0.10900144 -0.060321189 0.39112309
-0.10820146 -0.060268566 0.39078188
-0.10740892 -0.060219426 0.39046326
-0.10662407 -0.060173977 0.39016858
-0.10584603 -0.060131799 0.38989508
-0.10507429 -0.06009265 0.38964126
-0.10430845 -0.060056377 0.38940606
-0.10354806 -0.060022775 0.38918817
-0.10279278 -0.059991691 0.38898662
-0.10204249 -0.059963111 0.38880131
-0.10129768 -0.059937384 0.3886345
-0.10055748 -0.059914041 0.38848314
-0.099821515 -0.059892911 0.38834614
-0.09908957 -0.059873909 0.38822293
-0.098361619 -0.05985707 0.38811374
-0.09763848 -0.05984294 0.38802212
-0.096918724 -0.059830692 0.3879427
-0.096202344 -0.059820369 0.38787577
-0.095489189 -0.059811912 0.38782093
-0.094779745 -0.059805669 0.38778046
-0.09407369 -0.059801493 0.38775337
-0.093370505 -0.059799086 0.38773778
-0.092669919 -0.059798323 0.38773283
-0.09197256 -0.059799649 0.38774142
-0.09127824 -0.059802987 0.38776305
-0.090586267 -0.059807923 0.38779506
-0.089896522 -0.059814416 0.38783717
-0.089209914 -0.059823122 0.38789362
-0.08852575 -0.059833609 0.38796163
-0.087843604 -0.059845641 0.38803965
-0.0871635 -0.059859272 0.38812801
-0.086486362 -0.059875175 0.38823113
-0.08581119 -0.05989271 0.38834482
-0.085137822 -0.059911802 0.38846862
-0.084466293 -0.059932519 0.38860294
-0.083797507 -0.059955541 0.38875222
-0.08313033 -0.059980113 0.38891155
-0.082464784 -0.060006287 0.38908127
-0.08180096 -0.060034182 0.38926214
-0.08113955 -0.060064342 0.3894577
-0.080479659 -0.060096163 0.38966402
-0.079821073 -0.060129527 0.38988036
-0.079164319 -0.060164884 0.3901096
-0.078509621 -0.06020245 0.39035317
-0.077856228 -0.060241695 0.39060766
-0.077204138 -0.060282681 0.3908734
-0.076553747 -0.06032576 0.39115274
-0.075905249 -0.060371149 0.39144704
-0.075258099 -0.060418472 0.39175388
-0.074612111 -0.060467634 0.39207265
-0.07396742 -0.060518801 0.39240441
-0.073324874 -0.060572721 0.39275402
-0.072683506 -0.060628679 0.39311686
-0.072043382 -0.060686789 0.39349365
-0.071404658 -0.060747243 0.39388564
-0.070767306 -0.0608101 0.39429319
-0.070131801 -0.060875829 0.39471939
-0.069497705 -0.06094414 0.39516231
-0.068865016 -0.061015118 0.39562252
-0.068233654 -0.061088767 0.39610007
-0.067603603 -0.061165165 0.39659545
-0.066975176 -0.061244678 0.397111
-0.066348761 -0.061327774 0.39764979
-0.065723501 -0.061413765 0.39820737
-0.065100387 -0.061503682 0.39879039
-0.064478904 -0.061597165 0.39939654
-0.06385918 -0.061694466 0.40002742
-0.063241318 -0.061795805 0.40068451
-0.062625617 -0.061901618 0.40137061
-0.062012035 -0.062012035 0.40208656
-0.061400875 -0.062127512 0.40283531
-0.060792428 -0.062248532 0.40362
-0.060186651 -0.062375255 0.40444168
-0.059584092 -0.062508464 0.40530542
-0.058984466 -0.062648095 0.40621078
-0.058389083 -0.06279581 0.40716854
-0.057798527 -0.062952533 0.40818477
-0.057212975 -0.06311883 0.40926301
-0.056633018 -0.063295729 0.41041002
-0.056061197 -0.063486524 0.41164714
-0.055497624 -0.063691899 0.41297883
-0.054945908 -0.063916668 0.41443622
-0.054408789 -0.064164847 0.4160454
-0.053892229 -0.064444549 0.41785902
-0.053405985 -0.064768963 0.4199625
-0.052970186 -0.06516476 0.42252886
-0.052651685 -0.065718524 0.42611948
0.040385723 -0.059025284 0.38272044
0.04083078 -0.058672801 0.38043493
0.041332796 -0.058412462 0.3787469
0.04186286 -0.058199584 0.3773666
0.042410042 -0.058016941 0.37618232
0.042969208 -0.05785618 0.37513995
0.043538034 -0.057713207 0.37421292
0.044113878 -0.057583764 0.3733736
0.044695918 -0.057466179 0.37261119
0.045283269 -0.057358809 0.37191498
0.045874901 -0.057259914 0.37127376
0.046470903 -0.057169236 0.37068582
0.047070198 -0.057085134 0.37014049
0.047673136 -0.057007734 0.36963862
0.048279125 -0.056936074 0.36917397
0.048887797 -0.056869477 0.36874217
0.049499761 -0.056808453 0.36834648
0.050114132 -0.056751765 0.36797893
0.050731208 -0.056699585 0.36764058
0.051351052 -0.056651808 0.36733079
0.051973447 -0.056608021 0.36704689
0.052597933 -0.056567591 0.36678472
0.053225379 -0.056531303 0.36654943
0.053855035 -0.056498226 0.36633497
0.054487024 -0.056468371 0.36614138
0.055121604 -0.056441881 0.36596963
0.055759098 -0.05641897 0.36582106
0.056399081 -0.056399081 0.36569211
0.057041619 -0.056382179 0.36558253
0.057686657 -0.056368105 0.36549127
0.058334731 -0.056357283 0.36542109
0.058985841 -0.056349602 0.36537129
0.059640065 -0.056345034 0.36534166
0.060297262 -0.056343343 0.3653307
0.060957804 -0.056344781 0.36534002
0.061621647 -0.056349207 0.36536872
0.062288996 -0.056356713 0.36541739
0.062960833 -0.056368075 0.36549106
0.063635848 -0.056382019 0.36558148
0.064316139 -0.056400307 0.36570007
0.065000422 -0.056421686 0.36583868
0.065689705 -0.056446932 0.36600238
0.066383824 -0.056475792 0.36618951
0.067084044 -0.056509215 0.36640623
0.067790091 -0.056546856 0.36665028
0.068503007 -0.05658944 0.3669264
0.069222972 -0.056636974 0.36723462
0.069950491 -0.056689736 0.36757672
0.070686117 -0.05674801 0.36795458
0.071433417 -0.056814488 0.36838561
0.072191179 -0.056887977 0.36886212
0.072961688 -0.056970086 0.36939451
0.073746644 -0.057061881 0.36998972
0.074551813 -0.057167534 0.37067476
0.075376824 -0.057286382 0.37144539
0.076235227 -0.057428297 0.37236556
0.077134229 -0.057598047 0.37346622
0.078100145 -0.057814389 0.37486899
0.079213507 -0.058135234 0.37694934
-0.25452608 -0.067315973 0.44164276
-0.25357714 -0.067275569 0.44137767
-0.25265163 -0.067241147 0.44115183
-0.25174814 -0.06721238 0.44096312
-0.25086388 -0.067188583 0.44080696
-0.24999787 -0.06716954 0.44068202
-0.24914829 -0.067154802 0.44058535
-0.24831384 -0.067144066 0.44051489
-0.24749394 -0.067137197 0.44046986
-0.24668756 -0.067133978 0.4404487
-0.2458939 -0.067134194 0.44045016
-0.2451119 -0.067137621 0.4404726
-0.24434146 -0.067144245 0.44051605
-0.24358152 -0.067153797 0.44057873
-0.24283253 -0.067166448 0.44066173
-0.24209332 -0.067181893 0.44076306
-0.2413635 -0.06720005 0.44088221
-0.24064298 -0.067220934 0.44101921
-0.23993151 -0.067244485 0.44117373
-0.23922862 -0.067270607 0.44134513
-0.23853384 -0.067299195 0.44153267
-0.23784736 -0.067330323 0.44173691
-0.23716922 -0.06736403 0.44195804
-0.23649852 -0.067400083 0.44219458
-0.23583606 -0.067438737 0.44244817
-0.23518072 -0.0674797 0.4427169
-0.23453295 -0.067523114 0.44300175
-0.23389263 -0.067568988 0.44330269
-0.23325986 -0.067617349 0.44362
-0.23263441 -0.067668185 0.44395351
-0.23201603 -0.067721434 0.44430286
-0.23140465 -0.067777097 0.44466805
-0.2308007 -0.067835338 0.44505015
-0.23020396 -0.067896105 0.44544885
-0.22961457 -0.06795948 0.44586462
-0.22903298 -0.068025611 0.44629851
-0.22845864 -0.068094373 0.44674963
-0.22789167 -0.068165824 0.44721842
-0.2273328 -0.068240218 0.44770649
-0.22678171 -0.06831748 0.4482134
-0.22623813 -0.068397574 0.44873884
-0.22570354 -0.068480968 0.44928595
-0.22517718 -0.06856747 0.44985348
-0.22466016 -0.068657443 0.4504438
-0.22415218 -0.068750851 0.4510566
-0.22365423 -0.068848021 0.45169413
-0.22316578 -0.068948843 0.45235559
-0.22268805 -0.069053724 0.4530437
-0.22222251 -0.069163173 0.45376176
-0.22176771 -0.069276787 0.45450714
-0.22132678 -0.069395594 0.45528662
-0.22089928 -0.069519512 0.4560996
-0.22048672 -0.069649078 0.45694962
-0.22009091 -0.069784924 0.45784089
-0.21971296 -0.069927476 0.45877615
-0.12966458 -0.062788866 0.41194156
-0.12774926 -0.062217943 0.40819588
-0.12628227 -0.06186001 0.40584758
-0.12499352 -0.061585728 0.40404809
-0.12380497 -0.061357889 0.40255329
-0.12268382 -0.061160963 0.4012613
-0.12161533 -0.060988102 0.4001272
-0.12058783 -0.06083386 0.39911526
-0.11959252 -0.060694098 0.39819834
-0.11862424 -0.060566455 0.39736089
-0.11768128 -0.06045026 0.39659858
-0.11675744 -0.060342532 0.39589179
-0.11585189 -0.060242984 0.3952387
-0.11496173 -0.060150255 0.39463031
-0.11408687 -0.060064428 0.39406723
-0.11322572 -0.059984785 0.3935447
-0.11237622 -0.05991035 0.39305636
-0.1115381 -0.059841078 0.39260188
-0.11070997 -0.05977631 0.39217696
-0.10989143 -0.059715923 0.39178076
-0.10908159 -0.059659507 0.39141065
-0.10827995 -0.05960688 0.39106536
-0.1074865 -0.059558097 0.39074531
-0.10669992 -0.0595125 0.39044616
-0.10592036 -0.059470236 0.39016888
-0.10514693 -0.059430875 0.38991064
-0.10437962 -0.05939446 0.38967174
-0.10361785 -0.059360731 0.38945046
-0.10286103 -0.059329402 0.38924491
-0.10211042 -0.059301239 0.38906014
-0.10136454 -0.059275456 0.38889098
-0.10062312 -0.059251945 0.38873672
-0.099886179 -0.059230752 0.3885977
-0.099153444 -0.059211776 0.38847318
-0.09842521 -0.059195235 0.38836467
-0.097701125 -0.059180968 0.38827106
-0.096980505 -0.059168611 0.38819
-0.096263155 -0.059158087 0.38812095
-0.095549203 -0.059149504 0.38806465
-0.094839454 -0.059143424 0.38802475
-0.094132535 -0.059139024 0.3879959
-0.093428493 -0.059136387 0.38797858
-0.092727199 -0.059135459 0.3879725
-0.092029557 -0.059136864 0.38798171
-0.091334529 -0.059139986 0.38800219
-0.090641893 -0.059144709 0.38803318
-0.089951508 -0.05915099 0.3880744
-0.089264564 -0.059159651 0.38813123
-0.088579781 -0.059169892 0.38819841
-0.087897055 -0.059181679 0.38827574
-0.087216437 -0.05919509 0.38836372
-0.086538844 -0.059210788 0.38846672
-0.085863121 -0.059228033 0.38857985
-0.085189231 -0.059246834 0.3887032
-0.084517442 -0.05926742 0.38883826
-0.083848186 -0.059290137 0.3889873
-0.08318048 -0.059314348 0.38914615
-0.082514338 -0.059340101 0.3893151
-0.081850179 -0.059367727 0.38949636
-0.081188329 -0.059397522 0.38969183
-0.080527991 -0.059428956 0.38989806
-0.079869077 -0.059462 0.39011484
-0.079211809 -0.059496868 0.39034361
-0.078556791 -0.059534069 0.39058769
-0.077903092 -0.059572954 0.3908428
-0.077250667 -0.05961353 0.39110899
-0.076599658 -0.059655957 0.39138734
-0.075950995 -0.059701018 0.39168298
-0.075303599 -0.059747923 0.39199072
-0.074657321 -0.05979662 0.3923102
-0.074012317 -0.05984728 0.39264259
-0.073369123 -0.059900392 0.39299104
-0.072727516 -0.059955854 0.39335489
-0.072087266 -0.06001354 0.39373335
-0.071448229 -0.060073387 0.394126
-0.070810571 -0.06013561 0.39453423
-0.07017456 -0.060200512 0.39496005
-0.069540456 -0.060268391 0.39540538
-0.068907596 -0.060338773 0.39586714
-0.068276048 -0.060411792 0.39634618
-0.067646168 -0.060487848 0.39684516
-0.067017652 -0.060566753 0.39736286
-0.066390581 -0.060648691 0.39790043
-0.065765455 -0.06073422 0.39846155
-0.06514208 -0.060823265 0.39904577
-0.064520694 -0.060916189 0.3996554
-0.06390126 -0.061013065 0.400291
-0.063283846 -0.061114114 0.40095395
-0.06266813 -0.061219156 0.4016431
-0.062055051 -0.06132926 0.40236548
-0.061444316 -0.061444316 0.40312031
-0.060836472 -0.061565053 0.40391243
-0.060231477 -0.061691634 0.4047429
-0.059629519 -0.061824471 0.40561441
-0.059031449 -0.061964687 0.40653434
-0.058438022 -0.062113371 0.4075098
-0.057848964 -0.062270541 0.40854096
-0.057265103 -0.062437434 0.4096359
-0.056688495 -0.062616706 0.41081205
-0.056119028 -0.062808715 0.41207176
-0.055559162 -0.063016772 0.41343677
-0.055011176 -0.063244142 0.4149285
-0.05448018 -0.063497588 0.41659132
-0.053971957 -0.063785039 0.41847721
-0.053497147 -0.064120695 0.42067933
-0.053084448 -0.064541519 0.42344028
-0.052833013 -0.065173574 0.427587
0.041124154 -0.058403209 0.3831684
0.041549176 -0.058031496 0.38072968
0.042044949 -0.057769079 0.37900802
0.042572834 -0.057558473 0.3776263
0.043119512 -0.05737951 0.37645218
0.043679927 -0.057224087 0.37543249
0.044249669 -0.057085451 0.37452292
0.044828888 -0.056963019 0.37371969
0.045413487 -0.056850955 0.37298447
0.046004102 -0.056749586 0.3723194
0.046599351 -0.056656763 0.37171042
0.047198799 -0.05657161 0.37115175
0.04780253 -0.056493901 0.37064192
0.048409801 -0.056422457 0.37017319
0.049020205 -0.05635656 0.36974087
0.049633585 -0.056295812 0.3693423
0.050249569 -0.056239583 0.3689734
0.050868671 -0.05618827 0.36863676
0.05149024 -0.05614097 0.36832643
0.052114248 -0.056097504 0.36804125
0.052740939 -0.056057978 0.36778194
0.053370051 -0.056021977 0.36754575
0.054002021 -0.055989828 0.36733481
0.054635983 -0.055960491 0.36714235
0.055272881 -0.055934832 0.366974
0.05591239 -0.05591239 0.36682677
0.056554236 -0.055892784 0.36669815
0.057198744 -0.055876233 0.36658955
0.057846807 -0.055863488 0.36650595
0.058497738 -0.055853773 0.3664422
0.059151016 -0.05584649 0.36639443
0.059807938 -0.055842772 0.36637002
0.060467862 -0.055841904 0.36636433
0.0611316 -0.055844542 0.36638165
0.061798859 -0.055850308 0.36641946
0.062469829 -0.055859264 0.36647823
0.063144475 -0.055871289 0.36655712
0.063824527 -0.0558878 0.36666545
0.064508185 -0.055907093 0.36679202
0.065197684 -0.055931006 0.3669489
0.065891825 -0.055958383 0.36712852
0.066591643 -0.055989988 0.36733589
0.06729769 -0.056026157 0.36757317
0.068010442 -0.056067143 0.36784208
0.068730079 -0.056112964 0.36814269
0.069457926 -0.05616454 0.36848107
0.070194446 -0.056222089 0.36885864
0.070940994 -0.056286518 0.36928132
0.071698643 -0.056358472 0.36975339
0.072469562 -0.056439426 0.37028453
0.073255181 -0.056530256 0.37088042
0.074058697 -0.056633119 0.3715553
0.074885257 -0.056751609 0.37233266
0.075741515 -0.05689029 0.37324253
0.076638825 -0.057057098 0.3743369
0.077605382 -0.057272095 0.37574744
0.078725658 -0.05759583 0.37787139
-0.25440243 -0.066487022 0.44142821
-0.25345775 -0.066448107 0.44116986
-0.25253612 -0.066415012 0.4409501
-0.25163516 -0.066387154 0.44076517
-0.25075358 -0.066364259 0.44061315
-0.24989004 -0.066346005 0.44049194
-0.24904212 -0.066331789 0.44039759
-0.24821004 -0.066321723 0.44033074
-0.24739181 -0.066315301 0.4402881
