# .PCD v0.7 - Point Cloud Data file format
VERSION 0.7
FIELDS x y z
SIZE 4 4 4
TYPE F F F
COUNT 1 1 1
WIDTH 1299
HEIGHT 1
VIEWPOINT 0 0 0 1 0 0 0
POINTS 1299
DATA ascii
-0.036549177 -0.095519282 0.34054172
-0.035936065 -0.095522359 0.34055269
-0.035324104 -0.09552867 0.34057519
-0.034712698 -0.095536716 0.34060389
-0.03410257 -0.095548645 0.34064642
-0.033493064 -0.095562778 0.34069681
-0.032884169 -0.095579222 0.34075543
-0.03227637 -0.095599532 0.34082782
-0.031668883 -0.095621571 0.34090641
-0.031062197 -0.095646963 0.34099692
-0.030456113 -0.095675267 0.34109783
-0.029850217 -0.09570533 0.34120503
-0.02924522 -0.095739618 0.34132725
-0.028640416 -0.095776014 0.34145701
-0.028035861 -0.095814869 0.34159553
-0.027432043 -0.095858045 0.34174946
-0.026828224 -0.095903188 0.34191042
-0.026224686 -0.095951498 0.34208265
-0.025621502 -0.096003458 0.3422679
-0.025018219 -0.096057601 0.34246093
-0.024415227 -0.096115641 0.34266785
-0.023812275 -0.096176848 0.34288606
-0.023209115 -0.096240461 0.34311286
-0.022606194 -0.096308582 0.34335572
-0.022003109 -0.096379817 0.34360966
-0.021399725 -0.096453838 0.34387356
-0.0207964 -0.096532539 0.34415415
-0.020192752 -0.096614555 0.34444654
-0.019588668 -0.096699618 0.34474981
-0.018984413 -0.09678939 0.34506986
-0.018379804 -0.096883371 0.34540492
-0.017774632 -0.096980892 0.3457526
-0.017168924 -0.097082466 0.34611472
-0.016562896 -0.097189821 0.34649748
-0.015956182 -0.097301416 0.34689534
-0.015348848 -0.097418196 0.34731168
-0.014740856 -0.097540565 0.34774792
-0.014132204 -0.097669236 0.34820667
-0.013522582 -0.097802863 0.34868306
-0.012911988 -0.097942151 0.34917966
-0.012300386 -0.098087698 0.34969854
-0.011687793 -0.098240636 0.35024381
-0.011074082 -0.098401129 0.35081598
-0.010459097 -0.098569065 0.35141471
-0.0098429294 -0.098746814 0.3520484
-0.0092254244 -0.098934725 0.35271832
-0.0086063901 -0.099132866 0.35342473
-0.0079856403 -0.09934137 0.35416809
-0.0073631471 -0.099562556 0.35495666
-0.0067387121 -0.099797122 0.35579291
-0.068737678 -0.099718042 0.35781202
-0.067827471 -0.099330276 0.35642064
-0.06695544 -0.098991536 0.35520515
-0.066111848 -0.098688707 0.35411853
-0.065296382 -0.098422356 0.3531628
-0.064497992 -0.09817674 0.35228148
-0.063714765 -0.097949572 0.35146633
-0.062944807 -0.097738415 0.35070866
-0.062188335 -0.097544141 0.35001156
-0.061443124 -0.097363718 0.34936416
-0.060707543 -0.097194977 0.34875867
-0.059980344 -0.097036265 0.34818918
-0.059260823 -0.096886739 0.34765264
-0.058548193 -0.096745409 0.34714553
-0.05784205 -0.096611857 0.34666631
-0.057142053 -0.096485764 0.34621385
-0.05644821 -0.096367382 0.34578907
-0.055760004 -0.0962561 0.34538975
-0.055076867 -0.096151143 0.34501314
-0.05439809 -0.096051484 0.34465554
-0.05372332 -0.095956683 0.34431538
-0.053052396 -0.095866606 0.34399217
-0.052386083 -0.095782839 0.34369159
-0.051723097 -0.095703214 0.34340587
-0.051063091 -0.095627241 0.34313327
-0.050406534 -0.095555946 0.34287745
-0.049753424 -0.095489487 0.34263897
-0.049102869 -0.095426328 0.34241235
-0.048454981 -0.095366813 0.34219879
-0.047810581 -0.0953127 0.34200463
-0.047168281 -0.095261432 0.34182066
-0.046527985 -0.095212892 0.34164649
-0.045890763 -0.095169432 0.34149054
-0.04525527 -0.095128424 0.3413434
-0.044621501 -0.095089957 0.34120536
-0.043990422 -0.095056228 0.34108433
-0.043360785 -0.095024697 0.3409712
-0.042732809 -0.094995953 0.34086806
-0.04210702 -0.094971307 0.3407796
-0.041482437 -0.094948687 0.34069845
-0.040859561 -0.09492936 0.3406291
-0.040238328 -0.094913304 0.34057149
-0.039618079 -0.094899118 0.34052059
-0.038999621 -0.094888836 0.3404837
-0.038382266 -0.094880961 0.34045544
-0.037765857 -0.094875202 0.34043476
-0.037151139 -0.09487357 0.34042892
-0.036537122 -0.094873704 0.3404294
-0.035924207 -0.094876751 0.34044033
-0.035312444 -0.094882995 0.34046274
-0.034701217 -0.094890937 0.34049124
-0.03409129 -0.094902784 0.34053373
-0.033481959 -0.094916753 0.34058386
-0.032873254 -0.094933048 0.34064233
-0.032265637 -0.094953157 0.34071448
-0.031658307 -0.094974928 0.3407926
-0.031051798 -0.095000058 0.34088278
-0.030445881 -0.095028058 0.34098324
-0.029840136 -0.095057756 0.34108981
-0.029235346 -0.095091805 0.341212
-0.028630694 -0.095127791 0.34134111
-0.028026352 -0.0951664 0.34147966
-0.027422618 -0.095208868 0.34163204
-0.02681884 -0.095253117 0.34179083
-0.026215451 -0.095300876 0.34196219
-0.025612313 -0.095351867 0.34214514
-0.025009098 -0.095405079 0.34233609
-0.024406247 -0.095462412 0.34254181
-0.023803335 -0.095522478 0.34275734
-0.023200225 -0.095584929 0.34298143
-0.02259743 -0.095652133 0.34322259
-0.021994386 -0.095722042 0.34347343
-0.021391036 -0.09579464 0.34373394
-0.020787824 -0.095872208 0.34401226
-0.020184265 -0.095952898 0.34430179
-0.019580333 -0.096036866 0.34460309
-0.018976312 -0.096125908 0.3449226
-0.018371847 -0.09621866 0.3452554
-0.017766826 -0.0963149 0.34560075
-0.017161395 -0.09641584 0.34596294
-0.016555492 -0.096521646 0.34634259
-0.015948927 -0.096631736 0.34673762
-0.015341585 -0.096745908 0.34714732
-0.014733688 -0.096866161 0.34757879
-0.014125008 -0.096991725 0.34802935
-0.013515407 -0.097122341 0.34849805
-0.012904824 -0.097258307 0.34898591
-0.01229337 -0.097401321 0.34949908
-0.011681065 -0.097552679 0.35004219
-0.011067585 -0.097710967 0.35061017
-0.010452807 -0.097876281 0.35120335
-0.0098367054 -0.098049745 0.35182577
-0.0092191938 -0.098232098 0.35248011
-0.0086001549 -0.098424003 0.3531687
-0.0079794405 -0.098625883 0.3538931
-0.0073572285 -0.098842762 0.35467133
-0.0067331195 -0.099073045 0.35549763
-0.0061069159 -0.099317737 0.35637563
-0.0054784715 -0.099579275 0.35731411
-0.0048475428 -0.099859379 0.35831919
-0.070607848 -0.099892206 0.36077207
-0.069588527 -0.099365942 0.3588714
-0.068643294 -0.09893658 0.35732073
-0.067746855 -0.098570071 0.35599703
-0.066886492 -0.09824954 0.35483938
-0.066053472 -0.097963363 0.35380584
-0.065240957 -0.097702309 0.35286301
-0.064446196 -0.097462967 0.3519986
-0.063668206 -0.097244471 0.35120946
-0.062902838 -0.097041063 0.35047483
-0.062149357 -0.096852049 0.34979218
-0.0614057 -0.096674614 0.34915137
-0.060671631 -0.096508764 0.34855238
-0.059946116 -0.096353181 0.34799048
-0.059228878 -0.096207753 0.34746525
-0.058518402 -0.096070319 0.34696889
-0.057814401 -0.09594065 0.34650058
-0.057116102 -0.095817722 0.34605661
-0.056423109 -0.095701076 0.34563532
-0.055735223 -0.095590577 0.34523624
-0.05505278 -0.095487021 0.34486225
-0.054374676 -0.095388718 0.34450722
-0.05370054 -0.095295176 0.34416938
-0.053030401 -0.095206626 0.34384957
-0.052365016 -0.095124617 0.34355336
-0.051702864 -0.095046587 0.34327155
-0.051043749 -0.094972312 0.3430033
-0.050387811 -0.094902195 0.34275007
-0.049735453 -0.094837174 0.34251523
-0.049085613 -0.094775364 0.34229201
-0.048438132 -0.094716601 0.34207979
-0.047794107 -0.094663166 0.34188679
-0.04715215 -0.094612479 0.34170374
-0.046512172 -0.094564483 0.34153038
-0.045875166 -0.094521314 0.34137449
-0.045239985 -0.094480783 0.3412281
-0.044606451 -0.094442628 0.34109029
-0.043975655 -0.094409272 0.34096983
-0.043346301 -0.094378114 0.3408573
-0.042718548 -0.094349593 0.3407543
-0.042093012 -0.094325222 0.34066626
-0.041468684 -0.094302855 0.3405855
-0.040846027 -0.094283693 0.34051627
-0.040225081 -0.094267935 0.34045938
-0.039605118 -0.094254039 0.34040919
-0.038986914 -0.094243959 0.34037277
-0.038369827 -0.094236292 0.34034508
-0.037753642 -0.09423063 0.34032464
-0.03713917 -0.094229139 0.34031925
-0.036525372 -0.094229318 0.3403199
-0.035912674 -0.094232403 0.34033105
-0.035301104 -0.094238602 0.34035343
-0.03469006 -0.094246447 0.34038177
-0.034080334 -0.094258226 0.3404243
-0.033471171 -0.09427201 0.3404741
-0.032862645 -0.094288148 0.34053236
-0.032255169 -0.094307967 0.34060395
-0.031647988 -0.094329439 0.34068149
-0.031041635 -0.094354272 0.3407712
-0.030435823 -0.094381794 0.34087059
-0.029830215 -0.094411097 0.34097642
-0.029225571 -0.094444737 0.34109792
-0.028621027 -0.094480164 0.34122586
-0.02801685 -0.094518386 0.34136391
-0.027413232 -0.094560251 0.34151509
-0.026809597 -0.094603986 0.34167305
-0.026206443 -0.094651505 0.34184468
-0.02560344 -0.094701879 0.34202662
-0.02500033 -0.094754338 0.34221607
-0.024397708 -0.09481135 0.34242198
-0.023794934 -0.094870716 0.34263638
-0.023191996 -0.094932571 0.34285977
-0.022589374 -0.094999157 0.34310025
-0.02198646 -0.095068216 0.34334967
-0.021383295 -0.095140167 0.34360954
-0.020780221 -0.095216833 0.34388644
-0.020176735 -0.095296271 0.34417331
-0.019572843 -0.095378779 0.34447131
-0.018968906 -0.095466465 0.34478799
-0.018364446 -0.095557369 0.34511632
-0.017759439 -0.095651716 0.34545705
-0.017154129 -0.095751233 0.34581646
-0.016548252 -0.095854968 0.34619111
-0.015941681 -0.095962666 0.34658009
-0.015334547 -0.096075632 0.34698808
-0.014726872 -0.096194677 0.34741801
-0.014118352 -0.096318536 0.34786534
-0.013508923 -0.096447431 0.34833086
-0.012898508 -0.096581511 0.34881511
-0.012287216 -0.096722446 0.34932411
-0.011674911 -0.096870206 0.34985778
-0.011061418 -0.097024433 0.35041478
-0.010446672 -0.097185709 0.35099724
-0.0098306378 -0.097355023 0.35160875
-0.0092133526 -0.097534455 0.35225677
-0.0085945548 -0.097723268 0.35293871
-0.0079740873 -0.097921796 0.3536557
-0.0073518995 -0.098131873 0.35441443
-0.0067278305 -0.098354474 0.35521838
-0.0061016926 -0.098590501 0.35607082
-0.0054735835 -0.09884648 0.35699531
-0.0048430436 -0.09912096 0.35798663
-0.0042097843 -0.099415675 0.35905102
-0.0035736565 -0.099737503 0.36021334
-0.071579926 -0.099688932 0.36239883
-0.070480429 -0.099062361 0.36012104
-0.069486529 -0.098573908 0.35834539
-0.068561703 -0.098175205 0.35689598
-0.067677714 -0.097827971 0.35563368
-0.066823825 -0.097518027 0.35450694
-0.065998219 -0.097243756 0.35350987
-0.065191917 -0.09699285 0.35259777
-0.064401649 -0.0967611 0.35175529
-0.063626066 -0.096547015 0.35097703
-0.062863104 -0.09634798 0.35025346
-0.062112484 -0.096163996 0.34958464
-0.061371855 -0.09599188 0.34895894
-0.060640153 -0.095830299 0.34837154
-0.059916552 -0.095678262 0.34781885
-0.059200317 -0.095534906 0.3472977
-0.058490857 -0.095399529 0.34680557
-0.057787713 -0.095271632 0.34634063
-0.057090275 -0.095150456 0.34590012
-0.056398731 -0.095036536 0.34548599
-0.055711985 -0.094928242 0.3450923
-0.055030644 -0.094826818 0.34472358
-0.054353628 -0.094730608 0.34437385
-0.05368061 -0.094639227 0.34404165
-0.053011175 -0.0945521 0.34372491
-0.052345965 -0.094470523 0.34342837
-0.051684279 -0.09439344 0.34314814
-0.051025625 -0.094320096 0.3428815
-0.050369922 -0.09425047 0.34262839
-0.049718041 -0.094186351 0.34239531
-0.049068578 -0.094125256 0.34217322
-0.048421495 -0.094067231 0.34196228
-0.047777932 -0.094014645 0.3417711
-0.047136534 -0.093964987 0.34159058
-0.046497058 -0.093917899 0.3414194
-0.045860432 -0.093875378 0.34126484
-0.045225706 -0.093835644 0.34112039
-0.044592585 -0.093798198 0.34098426
-0.043962106 -0.093765333 0.34086478
-0.043333132 -0.093734786 0.34075373
-0.042705689 -0.09370672 0.34065172
-0.042080481 -0.093682818 0.34056482
-0.041456461 -0.093660899 0.34048513
-0.040834073 -0.093642049 0.34041661
-0.04021335 -0.093626507 0.34036011
-0.039593585 -0.093612738 0.34031007
-0.038975582 -0.093602769 0.34027383
-0.038358688 -0.093595199 0.34024629
-0.037742686 -0.093589589 0.34022591
-0.037128374 -0.093588047 0.3402203
-0.03651474 -0.093588196 0.34022084
-0.035902224 -0.093591273 0.34023201
-0.035290819 -0.093597382 0.34025425
-0.034679934 -0.093605131 0.34028241
-0.034070387 -0.093616828 0.34032494
-0.033461373 -0.093630448 0.34037444
-0.032853026 -0.093646474 0.3404327
-0.032245696 -0.093666069 0.34050393
-0.03163866 -0.093687296 0.34058109
-0.031032486 -0.093711965 0.34067076
-0.030426813 -0.093739174 0.34076968
-0.029821364 -0.093768209 0.34087524
-0.029216856 -0.093801484 0.34099621
-0.028612442 -0.093836509 0.34112352
-0.028008435 -0.093874425 0.34126136
-0.027404889 -0.093915634 0.34141117
-0.026801327 -0.093958676 0.34156764
-0.02619829 -0.094005629 0.34173834
-0.025595348 -0.094055198 0.34191853
-0.024992283 -0.094106749 0.34210593
-0.024389774 -0.094163053 0.34231061
-0.023787059 -0.094221473 0.34252298
-0.023184232 -0.094282545 0.34274501
-0.022581652 -0.094347998 0.34298295
-0.021978771 -0.094415843 0.34322959
-0.021375719 -0.094486877 0.3434878
-0.020772681 -0.094562203 0.34376165
-0.020169264 -0.094640389 0.34404588
-0.019565593 -0.094722323 0.34434372
-0.018961815 -0.09480907 0.34465909
-0.018357484 -0.094898857 0.34498549
-0.01775258 -0.09499187 0.34532362
-0.017147502 -0.095090695 0.34568286
-0.016541779 -0.095193259 0.34605572
-0.015935324 -0.09529949 0.34644189
-0.015328271 -0.095410667 0.34684607
-0.0147206 -0.095527299 0.34727004
-0.014112102 -0.095648691 0.34771135
-0.013502681 -0.095774829 0.34816989
-0.0128923 -0.095906138 0.34864724
-0.012281191 -0.096045204 0.3491528
-0.011669062 -0.096190922 0.34968251
-0.011055746 -0.096342929 0.3502351
-0.010441198 -0.096501984 0.35081333
-0.0098253163 -0.09666843 0.35141841
-0.0092080282 -0.096843056 0.35205323
-0.0085892519 -0.097026736 0.35272095
-0.0079688625 -0.097220123 0.35342398
-0.0073468718 -0.097425908 0.35417205
-0.0067230305 -0.097644016 0.35496494
-0.0060971831 -0.097875834 0.35580766
-0.0054691504 -0.098122992 0.35670617
-0.0048387488 -0.09838789 0.35766914
-0.0042057098 -0.09867242 0.35870349
-0.0035699287 -0.098984383 0.35983759
-0.0029309883 -0.099327937 0.36108649
-0.0022883595 -0.099707097 0.36246485
-0.072676666 -0.099642672 0.36462161
-0.07142695 -0.098823592 0.36162436
-0.070369117 -0.09825734 0.35955229
-0.069402538 -0.097809166 0.35791227
-0.068488084 -0.097426713 0.35651278
-0.06761416 -0.097095221 0.35529974
-0.06677103 -0.096802019 0.35422683
-0.065948963 -0.096533991 0.35324603
-0.06514544 -0.096288137 0.35234639
-0.064359471 -0.096063644 0.35152492
-0.063588463 -0.095857233 0.35076958
-0.062829047 -0.095664322 0.35006368
-0.062080193 -0.09548375 0.3494029
-0.061340842 -0.095314234 0.3487826
-0.06061019 -0.095154859 0.3481994
-0.059887767 -0.095005199 0.34765175
-0.059173036 -0.094864711 0.34713766
-0.058465399 -0.094732709 0.34665462
-0.057763878 -0.094607867 0.34619778
-0.057067819 -0.094489343 0.34576407
-0.056376964 -0.094376907 0.34535265
-0.055690847 -0.094269983 0.34496137
-0.055009827 -0.094169371 0.3445932
-0.054333333 -0.094074287 0.34424525
-0.053660806 -0.093983956 0.34391472
-0.052992206 -0.093898475 0.34360191
-0.052327555 -0.093818039 0.34330758
-0.051666692 -0.093742557 0.34303138
-0.05100875 -0.093670614 0.3427681
-0.050353594 -0.093602076 0.34251732
-0.049702302 -0.093539111 0.34228691
-0.049053423 -0.093479164 0.34206754
-0.048406873 -0.093422174 0.34185901
-0.047763497 -0.093369931 0.34166783
-0.047122393 -0.093320817 0.34148809
-0.046483193 -0.093274221 0.34131759
-0.045846771 -0.093232028 0.34116319
-0.04521231 -0.093192719 0.34101936
-0.044579439 -0.09315566 0.34088373
-0.043949131 -0.093122981 0.34076416
-0.043320384 -0.09309274 0.34065351
-0.042693131 -0.093064882 0.34055156
-0.042068154 -0.093041249 0.34046507
-0.04144435 -0.093019538 0.34038565
-0.040822167 -0.093000874 0.34031734
-0.040201712 -0.092985645 0.34026161
-0.039582204 -0.092972159 0.34021226
-0.038964439 -0.092962399 0.34017655
-0.03834777 -0.092955001 0.34014946
-0.037731983 -0.092949517 0.34012941
-0.037117865 -0.092948042 0.34012401
-0.036504403 -0.092948191 0.34012455
-0.035892081 -0.092951283 0.34013587
-0.035280839 -0.09295734 0.34015805
-0.034670118 -0.092965007 0.34018609
-0.034060746 -0.09297663 0.34022862
-0.033451874 -0.092990078 0.34027782
-0.03284369 -0.093005963 0.34033597
-0.032236487 -0.093025289 0.34040669
-0.03162957 -0.093046203 0.34048322
-0.031023549 -0.093070649 0.34057266
-0.030417971 -0.093097426 0.34067065
-0.029812668 -0.093126163 0.34077582
-0.029208252 -0.093158953 0.3408958
-0.028603928 -0.093193449 0.34102201
-0.028000057 -0.093230955 0.34115928
-0.027396617 -0.093271628 0.34130812
-0.026793176 -0.093314171 0.34146377
-0.026190322 -0.093360797 0.34163439
-0.025587503 -0.093409799 0.34181371
-0.024984621 -0.093460985 0.34200102
-0.024382224 -0.093516633 0.34220466
-0.023779629 -0.09357439 0.34241599
-0.023176974 -0.09363497 0.34263769
-0.022574516 -0.093699701 0.34287456
-0.021971755 -0.093766786 0.34312004
-0.021368878 -0.093837246 0.34337786
-0.020765988 -0.093911856 0.34365088
-0.020162648 -0.093988955 0.34393302
-0.01955907 -0.094069809 0.34422889
-0.018955285 -0.094154939 0.34454039
-0.018350981 -0.094243176 0.3448633
-0.017746162 -0.094334856 0.34519878
-0.017141119 -0.094431981 0.34555417
-0.016535424 -0.094532698 0.34592274
-0.015929013 -0.094637081 0.34630468
-0.015322147 -0.094747156 0.34670749
-0.014714646 -0.094862506 0.34712958
-0.014106288 -0.094982341 0.34756809
-0.013497002 -0.095106781 0.34802347
-0.012886859 -0.095237032 0.3485001
-0.012275833 -0.09537378 0.34900048
-0.01166371 -0.095516324 0.34952211
-0.011050408 -0.095664963 0.35006601
-0.010435872 -0.095820278 0.35063437
-0.0098200571 -0.09598314 0.35123032
-0.0092030149 -0.096155636 0.35186154
-0.0085845031 -0.096337199 0.35252592
-0.0079643503 -0.096527927 0.35322386
-0.0073424582 -0.096728906 0.35395929
-0.0067186714 -0.09694083 0.35473478
-0.0060928944 -0.097165637 0.35555741
-0.0054649771 -0.09740518 0.35643399
-0.0048348694 -0.097664364 0.35738242
-0.0042021624 -0.097942702 0.35840094
-0.0035665655 -0.09824267 0.35949859
-0.0029277292 -0.098566882 0.36068499
-0.0022856579 -0.098936334 0.36203691
-0.0016394028 -0.099347815 0.36354265
-0.00098832604 -0.099820927 0.36527389
-0.07246878 -0.09870182 0.36357862
-0.071301103 -0.097998321 0.36098722
-0.070276283 -0.097480007 0.35907793
-0.069326207 -0.097056687 0.35751861
-0.068425931 -0.096695803 0.35618925
-0.067559436 -0.096376255 0.35501215
-0.066719681 -0.09608911 0.35395443
-0.065903455 -0.095830627 0.35300228
-0.065105632 -0.095594123 0.3521311
-0.064322963 -0.095375434 0.35132551
-0.063553452 -0.095172092 0.35057649
-0.062795594 -0.094982281 0.3498773
-0.062049154 -0.094806068 0.3492282
-0.061312135 -0.094640784 0.34861937
-0.060583547 -0.094485223 0.34804633
-0.059862651 -0.094338521 0.34750596
-0.059148576 -0.094199583 0.34699416
-0.058441594 -0.094069093 0.34651348
-0.057740729 -0.093945727 0.34605905
-0.057045508 -0.093828946 0.34562889
-0.05635586 -0.093718864 0.34522337
-0.055670846 -0.093614109 0.34483749
-0.054990597 -0.093515083 0.34447274
-0.054315072 -0.093421921 0.34412956
-0.05364345 -0.093333408 0.3438035
-0.052975368 -0.093249038 0.34349272
-0.052310955 -0.093169212 0.34319869
-0.051650498 -0.09309461 0.34292388
-0.050992928 -0.093023464 0.3426618
-0.050338101 -0.092955634 0.34241194
-0.049686991 -0.092893071 0.34218147
-0.049038477 -0.092833847 0.34196332
-0.0483924 -0.092777789 0.34175682
-0.047749389 -0.092726238 0.34156692
-0.047108732 -0.092677966 0.34138912
-0.046469968 -0.092632189 0.3412205
-0.045833878 -0.092590585 0.34106725
-0.045199785 -0.092551939 0.34092489
-0.044567276 -0.092515513 0.34079072
-0.043937277 -0.092483357 0.34067225
-0.043308847 -0.092453644 0.34056279
-0.042681862 -0.092426188 0.34046167
-0.042057149 -0.092402935 0.34037602
-0.041433617 -0.092381619 0.34029749
-0.040811636 -0.092363171 0.34022954
-0.040191356 -0.092348076 0.34017393
-0.039572019 -0.09233471 0.3401247
-0.038954414 -0.092325024 0.34008902
-0.038337905 -0.092317671 0.34006193
-0.037722271 -0.092312224 0.34004188
-0.037108313 -0.092310764 0.34003648
-0.036495 -0.092310883 0.34003693
-0.035882834 -0.09231396 0.34004825
-0.035271734 -0.092319928 0.34007025
-0.034661144 -0.092327476 0.34009805
-0.034051936 -0.092339031 0.34014061
-0.033443198 -0.092352316 0.34018955
-0.032835167 -0.092368081 0.34024763
-0.032228086 -0.092387177 0.34031796
-0.031621289 -0.092407845 0.34039411
-0.03101542 -0.092432097 0.34048343
-0.03040996 -0.092458569 0.34058094
-0.02980483 -0.092487149 0.34068623
-0.02920053 -0.092519574 0.34080565
-0.028596312 -0.092553653 0.34093121
-0.027992582 -0.092590846 0.34106821
-0.027389243 -0.092631035 0.34121624
-0.026785869 -0.092672952 0.34137064
-0.026183119 -0.092719041 0.34154043
-0.025580354 -0.092767313 0.34171823
-0.024977582 -0.092817925 0.34190467
-0.024375236 -0.092872731 0.34210655
-0.023772683 -0.092929579 0.34231597
-0.023170136 -0.092989475 0.3425366
-0.022567725 -0.093053222 0.34277141
-0.021964997 -0.093119219 0.34301451
-0.021362219 -0.093188807 0.34327087
-0.020759355 -0.093262173 0.34354112
-0.020156085 -0.093338177 0.34382108
-0.019552685 -0.09341839 0.34411654
-0.018949004 -0.093502462 0.34442624
-0.018344792 -0.093589537 0.34474698
-0.017740184 -0.093680628 0.34508252
-0.017135276 -0.093776688 0.34543636
-0.016529711 -0.09387628 0.34580323
-0.015923403 -0.093979307 0.34618273
-0.015316655 -0.094088025 0.34658322
-0.014709161 -0.094201222 0.34700018
-0.01410081 -0.094318748 0.34743312
-0.013491546 -0.094440818 0.34788278
-0.01288152 -0.094569206 0.34835571
-0.012270571 -0.09470363 0.34885088
-0.011658604 -0.094844319 0.34936911
-0.01104545 -0.094990872 0.34990895
-0.010431061 -0.095143929 0.35047275
-0.0098154899 -0.095305242 0.35106698
-0.0091985101 -0.095474191 0.35168931
-0.0085800355 -0.095651507 0.35234249
-0.0079599563 -0.095837876 0.35302898
-0.0073381485 -0.096034028 0.35375154
-0.0067146076 -0.096242711 0.35452023
-0.006089096 -0.096464097 0.35533574
-0.0054613869 -0.096698679 0.35619983
-0.0048313187 -0.09694846 0.35711995
-0.0041987188 -0.097216487 0.35810724
-0.0035634695 -0.097509488 0.35918653
-0.0029250828 -0.09782777 0.36035895
-0.0022831857 -0.098176986 0.36164534
-0.0016373086 -0.098565981 0.36307824
-0.00098691299 -0.099020272 0.36475167
-0.00033074853 -0.099555306 0.36672252
-0.073759526 -0.098897301 0.36673549
-0.072311327 -0.09783297 0.36278868
-0.071195059 -0.09720239 0.36045033
-0.070196353 -0.096722156 0.35866952
-0.069260076 -0.096319824 0.35717756
-0.068366297 -0.095969588 0.3558788
-0.067509547 -0.095665187 0.35475001
-0.066675738 -0.095387779 0.35372132
-0.065862536 -0.09513478 0.35278311
-0.065067269 -0.094903 0.35192361
-0.064287968 -0.094690159 0.35113436
-0.063521571 -0.094492294 0.35040063
-0.06276641 -0.094307318 0.3497147
-0.062021382 -0.094133973 0.34907189
-0.061285406 -0.093970954 0.34846738
-0.060557645 -0.093817286 0.34789753
-0.05983803 -0.093673147 0.34736302
-0.059125587 -0.093537308 0.34685931
-0.058419656 -0.093408965 0.34638339
-0.057720028 -0.093288049 0.34593499
-0.057025999 -0.093173631 0.34551069
-0.056336895 -0.093064815 0.3451072
-0.055652376 -0.092961229 0.34472308
-0.054972425 -0.092863023 0.34435889
-0.054297395 -0.092770979 0.34401757
-0.053626213 -0.092683457 0.34369302
-0.052958865 -0.092600591 0.34338573
-0.052294996 -0.092521921 0.34309399
-0.051635176 -0.092448607 0.34282213
-0.050978232 -0.092378736 0.34256303
-0.050323963 -0.092312053 0.34231576
-0.049673289 -0.092250392 0.34208712
-0.049025279 -0.092192195 0.34187129
-0.048379514 -0.092136778 0.3416658
-0.04773666 -0.092085555 0.34147584
-0.047096252 -0.092037775 0.34129867
-0.046457745 -0.09199249 0.34113073
-0.045821797 -0.091951124 0.34097734
-0.045187939 -0.091912881 0.34083554
-0.044555653 -0.091876827 0.34070185
-0.043925844 -0.091844946 0.34058362
-0.043297634 -0.091815546 0.34047461
-0.042670816 -0.091788307 0.34037358
-0.042046323 -0.091765337 0.3402884
-0.041423019 -0.091744319 0.34021047
-0.040801253 -0.091726124 0.340143
-0.040181205 -0.091711298 0.34008801
-0.039562076 -0.091698147 0.34003925
-0.038944662 -0.091688618 0.34000391
-0.038328342 -0.091681391 0.33997712
-0.037712898 -0.091676071 0.33995739
-0.037099108 -0.091674656 0.33995214
-0.036485959 -0.091674805 0.33995268
-0.035873961 -0.091677897 0.33996415
-0.035262998 -0.091683798 0.33998603
-0.034652539 -0.091691226 0.34001359
-0.034043476 -0.0917027 0.34005612
-0.03343486 -0.091715813 0.34010476
-0.032826979 -0.091731459 0.34016278
-0.03222001 -0.091750316 0.3402327
-0.031613316 -0.091770694 0.34030828
-0.03100758 -0.091794722 0.34039736
-0.030402223 -0.091820851 0.34049428
-0.029797217 -0.091849148 0.34059921
-0.029192999 -0.091881119 0.34071776
-0.028588861 -0.091914721 0.34084237
-0.027985239 -0.091951497 0.34097874
-0.027381958 -0.091991074 0.34112549
-0.02677867 -0.09203244 0.34127888
-0.026176041 -0.092078067 0.3414481
-0.02557338 -0.092125796 0.34162506
-0.024970774 -0.092176065 0.34181148
-0.024368538 -0.09223029 0.34201255
-0.023766091 -0.092286512 0.34222105
-0.02316371 -0.09234599 0.34244162
-0.022561399 -0.092409015 0.34267533
-0.02195877 -0.092474259 0.34291726
-0.021356145 -0.092543297 0.34317327
-0.020753363 -0.092615753 0.34344196
-0.020150188 -0.09269087 0.3437205
-0.019546902 -0.092770211 0.34401473
-0.018943265 -0.092853054 0.34432194
-0.018339068 -0.092938662 0.34463939
-0.017734563 -0.093028679 0.34497318
-0.017129693 -0.093123235 0.34532383
-0.016524136 -0.093221068 0.34568661
-0.01591789 -0.09332253 0.34606287
-0.015311271 -0.093429998 0.34646139
-0.014703898 -0.093541816 0.34687603
-0.014095667 -0.093657874 0.3473064
-0.013486572 -0.093778715 0.34775451
-0.012876737 -0.093905963 0.34822637
-0.012265863 -0.094038278 0.34871703
-0.011653924 -0.094176315 0.34922889
-0.011040799 -0.094319969 0.34976161
-0.010426456 -0.094470017 0.35031801
-0.0098110083 -0.094628759 0.35090667
-0.0091941645 -0.094795004 0.35152316
-0.0085758828 -0.094969958 0.35217193
-0.0079559954 -0.095153704 0.3528533
-0.0073343446 -0.095346481 0.35356817
-0.0067108665 -0.095549956 0.3543227
-0.0060854317 -0.095765479 0.35512191
-0.0054578744 -0.095994383 0.35597074
-0.0048281127 -0.096240379 0.35688296
-0.0041957558 -0.096502386 0.35785455
-0.0035606553 -0.096785091 0.35890287
-0.0029225221 -0.097092681 0.3600435
-0.002280937 -0.09742859 0.36128914
-0.001635564 -0.097806729 0.36269137
-0.00098560809 -0.098232269 0.36426938
-0.00033020746 -0.098732032 0.36612263
0.00033230521 -0.099359259 0.36844853
-0.073479548 -0.097862899 0.36534342
-0.072183236 -0.097006433 0.36214605
-0.071106352 -0.096431904 0.36000121
-0.070120767 -0.095971748 0.35828334
-0.06919986 -0.095592357 0.35686702
-0.068316743 -0.095258556 0.35562086
-0.067462802 -0.09495949 0.35450438
-0.066632926 -0.094688892 0.35349417
-0.065825604 -0.09444543 0.35258529
-0.065034054 -0.094220072 0.35174397
-0.064256363 -0.094010539 0.35096174
-0.063491225 -0.093815386 0.3502332
-0.062737413 -0.093633227 0.34955314
-0.06199481 -0.093464255 0.34892234
-0.061260667 -0.093304709 0.34832671
-0.060534768 -0.093154542 0.3477661
-0.059816349 -0.093012854 0.34723717
-0.059104674 -0.092878774 0.34673661
-0.058399133 -0.092751563 0.34626171
-0.057699881 -0.092631698 0.34581423
-0.057006709 -0.092519082 0.34539381
-0.0563186 -0.092412286 0.34499511
-0.055635065 -0.092310697 0.34461585
-0.054955844 -0.092214048 0.34425503
-0.054281496 -0.092123456 0.34391683
-0.053611021 -0.092037417 0.34359565
-0.052944079 -0.091955505 0.34328985
-0.052280396 -0.091877386 0.34299821
-0.051620882 -0.091804802 0.34272724
-0.050964262 -0.091735668 0.34246916
-0.050310329 -0.091669738 0.34222302
-0.049659856 -0.091608554 0.34199461
-0.049012274 -0.091551229 0.3417806
-0.04836693 -0.091496676 0.34157693
-0.047724389 -0.091446087 0.34138808
-0.047084399 -0.091399133 0.34121278
-0.046446215 -0.091354474 0.34104607
-0.045810554 -0.091313653 0.34089369
-0.045177035 -0.09127605 0.34075329
-0.044545051 -0.091240555 0.34062079
-0.043915488 -0.091209084 0.34050331
-0.043287527 -0.091180108 0.34039512
-0.042660929 -0.091153204 0.34029469
-0.042036679 -0.091130614 0.34021035
-0.041413538 -0.091109782 0.34013259
-0.040791921 -0.091091737 0.34006521
-0.040172018 -0.091077015 0.34001026
-0.039553024 -0.091063939 0.33996144
-0.038935736 -0.09105444 0.33992597
-0.03831955 -0.091047257 0.33989915
-0.03770427 -0.091042019 0.3398796
-0.037090614 -0.091040596 0.3398743
-0.036477592 -0.091040716 0.33987474
-0.035865735 -0.091043793 0.33988622
-0.035254888 -0.091049574 0.33990782
-0.034644537 -0.091056883 0.33993509
-0.034035616 -0.091068268 0.33997759
-0.033427112 -0.091081217 0.34002593
-0.032819387 -0.091096804 0.34008414
-0.032212533 -0.091115452 0.34015375
-0.031605951 -0.091135614 0.340229
-0.031000363 -0.091159478 0.34031811
-0.030395109 -0.091185331 0.34041461
-0.029790219 -0.091213353 0.34051922
-0.029186109 -0.091244996 0.34063736
-0.028582074 -0.091278233 0.34076145
-0.027978603 -0.091314785 0.34089789
-0.027375413 -0.091353908 0.34104395
-0.02677222 -0.091394819 0.34119669
-0.026169712 -0.091440052 0.34136555
-0.025567101 -0.091487095 0.34154117
-0.024964578 -0.09153679 0.34172669
-0.024362383 -0.091590226 0.34192619
-0.023759983 -0.091645651 0.3421331
-0.023157705 -0.09170451 0.34235284
-0.022555431 -0.091766618 0.3425847
-0.02195284 -0.091830894 0.34282464
-0.021350319 -0.091899194 0.34307963
-0.020747565 -0.091970548 0.343346
-0.020144396 -0.092044391 0.34362167
-0.019541208 -0.092122838 0.34391454
-0.018937657 -0.092204653 0.34421998
-0.01833358 -0.092289381 0.34453627
-0.017729269 -0.092378825 0.34487018
-0.017124489 -0.09247224 0.34521893
-0.016519025 -0.092568874 0.34557968
-0.015912978 -0.092669696 0.34595609
-0.015306428 -0.092775695 0.3463518
-0.014699068 -0.092885599 0.34676209
-0.01409086 -0.092999674 0.34718797
-0.013481868 -0.093118951 0.34763324
-0.012872065 -0.093243986 0.34810004
-0.012261235 -0.093374021 0.34858549
-0.011649395 -0.093510017 0.34909317
-0.011036419 -0.093651906 0.34962288
-0.010422321 -0.093800895 0.35017908
-0.0098070074 -0.093957454 0.35076356
-0.0091902399 -0.094120733 0.35137311
-0.0085719852 -0.094291836 0.35201189
-0.007952163 -0.094471693 0.35268334
-0.0073306025 -0.094660394 0.35338777
-0.006707326 -0.094860755 0.35413578
-0.0060821092 -0.09507297 0.35492802
-0.0054547726 -0.095298089 0.35576844
-0.0048251301 -0.095537581 0.35666251
-0.0041929418 -0.095792599 0.35761455
-0.003558022 -0.096066594 0.35863742
-0.0029202127 -0.096367016 0.35975897
-0.002278981 -0.096693911 0.36097935
-0.0016338882 -0.097052962 0.36231977
-0.00098446279 -0.097461812 0.36384609
-0.000329751 -0.097936042 0.3656165
0.0003316637 -0.098504119 0.36773723
0.0010028786 -0.099284992 0.37065241
-0.073289134 -0.096951991 0.36439666
-0.072076701 -0.096210979 0.36161155
-0.071028076 -0.095677085 0.3596049
-0.070061564 -0.095244981 0.35798082
-0.069144145 -0.094872199 0.35657972
-0.068269186 -0.094551221 0.35537329
-0.067421138 -0.094261788 0.35428545
-0.066596612 -0.093999997 0.35330153
-0.06579107 -0.093760222 0.3524003
-0.065001227 -0.093538351 0.3515664
-0.064226568 -0.093334176 0.35079899
-0.063464075 -0.093143791 0.35008344
-0.062712498 -0.092965767 0.34941432
-0.061970625 -0.092798658 0.34878623
-0.061237358 -0.09264113 0.34819418
-0.060512301 -0.092492893 0.34763703
-0.059795223 -0.09235388 0.34711453
-0.059084892 -0.092222452 0.34662056
-0.058380485 -0.092097558 0.34615114
-0.057682093 -0.091979556 0.34570763
-0.056989554 -0.091868408 0.34528989
-0.056301951 -0.091762848 0.34489313
-0.055618919 -0.091662467 0.34451583
-0.054940093 -0.091566823 0.34415635
-0.054265909 -0.091476813 0.34381807
-0.05359615 -0.091392279 0.34350035
-0.052929822 -0.091311678 0.34319741
-0.052266609 -0.091234617 0.34290776
-0.051607657 -0.091163233 0.34263945
-0.050951533 -0.091095164 0.34238362
-0.050298091 -0.091030285 0.34213978
-0.049647987 -0.090969913 0.34191287
-0.04900068 -0.090913214 0.34169975
-0.04835555 -0.090859152 0.34149656
-0.047713201 -0.090808995 0.34130806
-0.04707339 -0.090762421 0.341133
-0.046435378 -0.09071812 0.34096649
-0.045799926 -0.090677708 0.34081459
-0.045166593 -0.090640448 0.34067455
-0.044534784 -0.090605244 0.34054226
-0.043905422 -0.090574123 0.34042528
-0.043277707 -0.090545557 0.3403179
-0.042651299 -0.090518944 0.34021789
-0.042027276 -0.090496689 0.34013423
-0.04140437 -0.090476215 0.34005728
-0.040782943 -0.090458408 0.33999035
-0.040163208 -0.090443864 0.33993569
-0.039544392 -0.090430975 0.33988726
-0.038927272 -0.090421617 0.33985206
-0.038311265 -0.090414591 0.33982566
-0.037696134 -0.090409428 0.33980626
-0.03708262 -0.090408042 0.33980104
-0.036469731 -0.090408161 0.33980149
-0.035858016 -0.090411231 0.33981305
-0.035247292 -0.090416968 0.3398346
-0.034637053 -0.090424165 0.33986166
-0.034028262 -0.090435468 0.33990413
-0.033419866 -0.090448268 0.33995223
-0.03281226 -0.090463713 0.34001029
-0.0322055 -0.090482116 0.34007946
-0.031599008 -0.090502016 0.34015426
-0.030993536 -0.090525679 0.34024319
-0.030388355 -0.09055116 0.34033898
-0.029783582 -0.090578936 0.34044337
-0.029179532 -0.090610124 0.34056059
-0.028575571 -0.090642944 0.34068394
-0.02797221 -0.090679139 0.34081998
-0.027369093 -0.090717778 0.34096521
-0.026765995 -0.090758257 0.34111735
-0.026163539 -0.090802871 0.34128502
-0.025560975 -0.090849243 0.34145933
-0.024958547 -0.090898417 0.34164414
-0.024356399 -0.090951107 0.34184217
-0.023754071 -0.091005854 0.34204796
-0.023151949 -0.091064334 0.34226775
-0.022549758 -0.091125734 0.34249851
-0.021947242 -0.091189243 0.34273723
-0.021344906 -0.091257207 0.34299266
-0.020742251 -0.091327816 0.34325805
-0.020139178 -0.091400884 0.34353268
-0.019536117 -0.091478646 0.34382495
-0.018932613 -0.091559358 0.34412831
-0.018328561 -0.091642804 0.34444195
-0.017724345 -0.091731258 0.3447744
-0.017119581 -0.091823205 0.34511998
-0.016514143 -0.091918349 0.34547758
-0.0159082 -0.092018016 0.3458522
-0.015301661 -0.092122242 0.34624392
-0.014694359 -0.092230558 0.34665102
-0.014086271 -0.09234333 0.3470749
-0.013477478 -0.092461772 0.34752005
-0.012867795 -0.092585355 0.34798455
-0.012257069 -0.092713729 0.34846705
-0.011645271 -0.092847437 0.34896958
-0.011032363 -0.092987061 0.34949437
-0.010418368 -0.093133897 0.35004625
-0.0098030865 -0.093287438 0.35062334
-0.0091864066 -0.093447931 0.35122657
-0.0085683046 -0.093616657 0.35186073
-0.0079486389 -0.093793936 0.35252702
-0.0073272823 -0.093980357 0.3532277
-0.0067040864 -0.094176449 0.35396472
-0.0060789571 -0.094383806 0.35474408
-0.0054517216 -0.094603397 0.35556942
-0.0048222998 -0.094838567 0.3564533
-0.0041904002 -0.095089853 0.35739776
-0.0035557263 -0.095358118 0.35840604
-0.0029180348 -0.095646694 0.35949066
-0.0022771028 -0.09596362 0.36068183
-0.0016324413 -0.096314035 0.36199889
-0.00098346022 -0.096706919 0.36347556
-0.00032933257 -0.097153105 0.36515257
0.00033116245 -0.097692922 0.36718148
0.0010004701 -0.09837956 0.36976221
0.0016875159 -0.099563435 0.37421185
-0.07486181 -0.097486712 0.36890748
-0.073149793 -0.096111618 0.36370388
-0.071987532 -0.095440485 0.36116418
-0.07095854 -0.094935395 0.35925284
-0.07000339 -0.09452071 0.3576836
-0.069097362 -0.094165243 0.35633844
-0.068227023 -0.0938522 0.35515383
-0.067381606 -0.093567818 0.3540777
-0.066561721 -0.093313806 0.35311645
-0.065759704 -0.093080163 0.35223231
-0.064972728 -0.092863463 0.35141227
-0.064199544 -0.092662401 0.35065141
-0.063438177 -0.09247455 0.34994057
-0.062688008 -0.092299424 0.34927785
-0.061947752 -0.092135489 0.34865749
-0.061216239 -0.091981329 0.34807411
-0.060492676 -0.091836028 0.34752429
-0.059776329 -0.091698766 0.34700486
-0.059066501 -0.091568708 0.34651268
-0.05836264 -0.091445208 0.34604535
-0.057664685 -0.09132839 0.34560329
-0.056973033 -0.09121912 0.34518978
-0.056286279 -0.091115363 0.34479713
-0.055604015 -0.091016628 0.3444235
-0.054925878 -0.090922497 0.34406731
-0.054252211 -0.090833701 0.34373128
-0.053582832 -0.090750121 0.34341499
-0.05291681 -0.090670325 0.34311303
-0.05225388 -0.090594001 0.34282422
-0.05159514 -0.090523206 0.34255633
-0.050939299 -0.090455852 0.34230143
-0.050286215 -0.090391785 0.34205899
-0.049636427 -0.090332136 0.34183326
-0.048989482 -0.090276219 0.34162167
-0.048344728 -0.090222962 0.34142014
-0.047702663 -0.090173416 0.34123266
-0.047063138 -0.090127446 0.3410587
-0.046425454 -0.09008383 0.34089363
-0.045790229 -0.090043873 0.34074244
-0.045157146 -0.090007104 0.34060329
-0.044525594 -0.089972407 0.34047198
-0.043896426 -0.089941628 0.34035552
-0.043268837 -0.089913256 0.34024817
-0.042642541 -0.089886799 0.34014803
-0.042018663 -0.089864731 0.34006453
-0.041395891 -0.089844421 0.33998767
-0.040774591 -0.089826733 0.33992073
-0.040155001 -0.089812323 0.33986622
-0.039536316 -0.089799538 0.33981782
-0.038919337 -0.089790285 0.3397828
-0.038303439 -0.089783259 0.33975622
-0.037688419 -0.08977811 0.33973673
-0.03707502 -0.089776702 0.33973143
-0.036462244 -0.089776784 0.33973172
-0.035850652 -0.089779839 0.33974329
-0.035240039 -0.089785486 0.33976465
-0.034629919 -0.089792624 0.33979166
-0.034021232 -0.0898038 0.33983395
-0.033412933 -0.089816421 0.33988172
-0.032805447 -0.08983174 0.33993968
-0.032198783 -0.089849934 0.34000853
-0.031592391 -0.089869611 0.340083
-0.030987043 -0.089893103 0.3401719
-0.030381961 -0.08991833 0.34026736
-0.029777328 -0.08994595 0.34037188
-0.029173354 -0.089976765 0.34048849
-0.028569454 -0.090009145 0.34061101
-0.027966224 -0.090045094 0.34074706
-0.027363196 -0.090083331 0.34089175
-0.026760243 -0.090123571 0.34104404
-0.026157862 -0.090167686 0.34121096
-0.025555374 -0.090213552 0.34138453
-0.024953106 -0.090262473 0.34156966
-0.024351038 -0.090314612 0.34176695
-0.023748731 -0.090368547 0.34197107
-0.023146698 -0.090426438 0.34219012
-0.022544537 -0.090486974 0.34241921
-0.02194207 -0.09054967 0.34265646
-0.021339798 -0.090616822 0.34291059
-0.020737194 -0.09068653 0.34317437
-0.020134171 -0.090758644 0.34344727
-0.019531202 -0.090835594 0.34373844
-0.018927714 -0.090915084 0.34403926
-0.01832369 -0.090997308 0.3443504
-0.017719606 -0.091084994 0.34468222
-0.017114937 -0.091175936 0.34502637
-0.016509594 -0.091270022 0.34538239
-0.015903784 -0.091368802 0.3457562
-0.015297353 -0.091471933 0.34614646
-0.014690123 -0.091578849 0.34655106
-0.014082042 -0.091689736 0.34697068
-0.013473352 -0.091806799 0.34741366
-0.012863706 -0.091928437 0.34787396
-0.012253028 -0.092054807 0.34835216
-0.011641237 -0.092186011 0.34884867
-0.011028524 -0.092324503 0.34937274
-0.01041467 -0.092469648 0.349922
-0.0097995233 -0.092621297 0.35049587
-0.0091829682 -0.092779644 0.35109508
-0.0085649174 -0.092945218 0.35172164
-0.0079453094 -0.093119025 0.35237938
-0.0073240004 -0.093301393 0.35306948
-0.0067009791 -0.093494609 0.35380065
-0.0060760234 -0.09369868 0.35457289
-0.0054490264 -0.093915574 0.35539365
-0.0048197173 -0.094145142 0.35626239
-0.0041879681 -0.094390355 0.35719031
-0.0035534832 -0.09465187 0.35817993
-0.0029161111 -0.094935626 0.3592537
-0.0022754474 -0.09524373 0.36041963
-0.0016311165 -0.095583431 0.36170512
-0.00098250667 -0.095958151 0.36312315
-0.00032897128 -0.096388578 0.36475196
0.0003306914 -0.09689258 0.36665919
0.00099860271 -0.097530194 0.36907205
0.0016802974 -0.098465428 0.37261114
-0.074480325 -0.096327893 0.36702761
-0.07303378 -0.095304169 0.36312702
-0.071905829 -0.094681427 0.36075428
-0.070895225 -0.094203241 0.35893229
-0.069952346 -0.093807064 0.35742277
-0.069052689 -0.093462013 0.35610807
-0.068187237 -0.093157209 0.3549467
-0.067347817 -0.092882529 0.35390013
-0.066530377 -0.092633203 0.35295016
-0.065729886 -0.092402883 0.3520726
-0.06494496 -0.092190161 0.35126206
-0.064174205 -0.09199357 0.35051301
-0.063415006 -0.091809779 0.34981275
-0.06266626 -0.091637596 0.34915671
-0.061926771 -0.091475591 0.34853941
-0.061196037 -0.091323316 0.34795922
-0.060473584 -0.091180377 0.34741461
-0.059758376 -0.091045484 0.34690064
-0.059049524 -0.09091752 0.34641308
-0.058346666 -0.09079615 0.34595063
-0.057649355 -0.090680875 0.34551141
-0.056958094 -0.090572707 0.34509927
-0.056271732 -0.090470023 0.34470803
-0.055589829 -0.090372294 0.34433565
-0.054912139 -0.090279274 0.34398124
-0.05423893 -0.090191595 0.34364715
-0.053570136 -0.090109304 0.3433336
-0.052904624 -0.090030678 0.34303403
-0.052242167 -0.089955449 0.34274739
-0.051583741 -0.089885443 0.34248066
-0.050928324 -0.089819044 0.34222767
-0.050275508 -0.089755662 0.34198618
-0.049625859 -0.08969643 0.34176049
-0.048979141 -0.089641072 0.34154955
-0.048334591 -0.089588322 0.34134856
-0.047692664 -0.089539126 0.34116113
-0.047053367 -0.089493662 0.34098789
-0.046415947 -0.089450605 0.34082383
-0.045780931 -0.08941108 0.34067324
-0.045148093 -0.089374796 0.34053499
-0.044516772 -0.08934056 0.34040454
-0.043887805 -0.089310147 0.34028867
-0.043260414 -0.089282133 0.34018192
-0.04263432 -0.089256018 0.34008244
-0.042010624 -0.089234248 0.33999947
-0.041388012 -0.089214161 0.33992293
-0.040766858 -0.08919666 0.33985627
-0.040147439 -0.089182481 0.33980224
-0.039528906 -0.089169852 0.33975413
-0.038912054 -0.089160688 0.33971921
-0.03829629 -0.089153767 0.33969283
-0.037681423 -0.08914873 0.33967364
-0.037068136 -0.089147337 0.33966833
-0.036455475 -0.089147426 0.33966866
-0.035844009 -0.089150488 0.33968034
-0.035233494 -0.089156061 0.33970156
-0.034623493 -0.089163154 0.33972859
-0.034014899 -0.089174196 0.33977067
-0.03340669 -0.089186668 0.33981818
-0.032799304 -0.089201845 0.33987603
-0.032192715 -0.089219816 0.33994448
-0.031586397 -0.089239232 0.34001848
-0.030981136 -0.089262478 0.34010705
-0.030376118 -0.089287378 0.34020191
-0.029771585 -0.089314751 0.34030622
-0.029167671 -0.089345179 0.34042215
-0.02856384 -0.08937718 0.34054407
-0.027960701 -0.089412794 0.34067976
-0.027357722 -0.089450531 0.34082356
-0.026754862 -0.089490399 0.34097546
-0.026152529 -0.089533947 0.3411414
-0.02555009 -0.089579232 0.34131393
-0.024947904 -0.089627653 0.34149843
-0.024345879 -0.089679122 0.34169453
-0.023743609 -0.089732341 0.34189731
-0.023141658 -0.089789636 0.34211561
-0.02253955 -0.089849442 0.34234348
-0.021937139 -0.089911371 0.34257945
-0.021334931 -0.089977756 0.34283239
-0.020732384 -0.090046629 0.3430948
-0.0201295 -0.090118229 0.34336761
-0.019526636 -0.090194464 0.34365809
-0.018923242 -0.090273164 0.34395796
-0.018319331 -0.090354666 0.3442685
-0.017715301 -0.090441279 0.3445985
-0.017110635 -0.090530813 0.34493965
-0.016505318 -0.090623543 0.34529296
-0.015899599 -0.090721242 0.34566522
-0.015293225 -0.090823025 0.34605303
-0.01468603 -0.090928406 0.34645453
-0.014078006 -0.091037773 0.34687126
-0.013469409 -0.091153443 0.34731197
-0.01285987 -0.09127371 0.34777021
-0.012249313 -0.091398723 0.34824654
-0.011637658 -0.091528602 0.34874141
-0.011025052 -0.091665432 0.34926274
-0.01041123 -0.091808118 0.34980643
-0.0097961137 -0.09195707 0.35037395
-0.0091796126 -0.09211266 0.35096678
-0.0085616549 -0.09227562 0.35158768
-0.0079421913 -0.09244711 0.3522411
-0.0073210848 -0.092627637 0.35292894
-0.0066981595 -0.092817351 0.35365179
-0.0060732989 -0.09301737 0.3544139
-0.0054464014 -0.093229577 0.35522243
-0.0048172195 -0.093454055 0.35607776
-0.0041857185 -0.0936957 0.35699847
-0.0035515102 -0.093953587 0.35798106
-0.0029143272 -0.094229914 0.35903391
-0.0022738609 -0.094527647 0.36016834
-0.0016298813 -0.094859093 0.36143121
-0.0009816899 -0.095223911 0.36282125
-0.00032864782 -0.095636509 0.36439332
0.0003302985 -0.096116863 0.36622354
0.000996963 -0.096705407 0.36846602
0.0016756878 -0.09752503 0.37158895
-0.074269727 -0.095395342 0.3659898
-0.07293234 -0.094517693 0.36262268
-0.071838237 -0.093942314 0.36041519
-0.070840396 -0.093483441 0.35865471
-0.06990438 -0.093098454 0.35717767
-0.069013603 -0.092767119 0.35590649
-0.06815058 -0.092467219 0.35475591
-0.067314886 -0.092199065 0.3537271
-0.066500977 -0.091955893 0.35279417
-0.065703258 -0.091730639 0.35192996
-0.064920589 -0.091522202 0.35113028
-0.064150624 -0.091327734 0.35038421
-0.063392431 -0.091146328 0.34968823
-0.062645413 -0.090977505 0.34904054
-0.061907444 -0.090818539 0.34843063
-0.061178088 -0.090669066 0.34785718
-0.060456477 -0.090528093 0.34731632
-0.059741806 -0.090394668 0.34680444
-0.059033457 -0.09026809 0.34631881
-0.058331251 -0.0901483 0.34585923
-0.057634749 -0.090034828 0.34542388
-0.056944031 -0.089928009 0.34501407
-0.056258369 -0.089826897 0.34462616
-0.055577133 -0.08973068 0.344257
-0.054899935 -0.089638874 0.34390479
-0.054226894 -0.089551844 0.34357089
-0.05355829 -0.089470208 0.3432577
-0.052893028 -0.089392312 0.34295884
-0.052231021 -0.089318134 0.34267426
-0.051572863 -0.089248843 0.34240842
-0.050917845 -0.089183375 0.34215724
-0.050265398 -0.089120857 0.3419174
-0.049616016 -0.089062288 0.34169269
-0.048969597 -0.089007631 0.341483
-0.048325334 -0.088955551 0.34128317
-0.047683619 -0.088906877 0.34109643
-0.047044612 -0.088862047 0.34092444
-0.046407357 -0.088819377 0.34076074
-0.045772418 -0.08878006 0.34060991
-0.045139737 -0.088744111 0.34047198
-0.044508569 -0.088710181 0.34034181
-0.043879665 -0.088679887 0.34022558
-0.043252524 -0.088652335 0.34011987
-0.042626631 -0.088626593 0.3400211
-0.042003106 -0.088605098 0.33993864
-0.041380655 -0.088585258 0.33986253
-0.040759642 -0.088567942 0.3397961
-0.040140364 -0.088553935 0.33974236
-0.039521985 -0.0885415 0.33969465
-0.038905267 -0.088532455 0.33965996
-0.038289625 -0.088525616 0.3396337
-0.037674893 -0.088520683 0.33961478
-0.037061721 -0.088519312 0.33960953
-0.036449164 -0.088519402 0.33960986
-0.035837814 -0.088522471 0.33962163
-0.035227388 -0.088527963 0.3396427
-0.034617502 -0.088535026 0.33966982
-0.034008991 -0.088545933 0.33971167
-0.033400863 -0.088558257 0.33975893
-0.032793578 -0.088573307 0.33981669
-0.032187045 -0.088591009 0.33988461
-0.031580791 -0.088610187 0.33995816
-0.030975627 -0.088633232 0.34004658
-0.03037066 -0.088657789 0.34014079
-0.029766213 -0.088684902 0.34024483
-0.029162364 -0.08871498 0.34036022
-0.02855859 -0.088746585 0.34048146
-0.027955528 -0.088781841 0.34061673
-0.027352596 -0.088819101 0.34075969
-0.026749812 -0.088858575 0.34091112
-0.026147533 -0.088901617 0.34107625
-0.025545139 -0.088946328 0.3412478
-0.024942996 -0.088994145 0.34143126
-0.024340998 -0.089044921 0.34162605
-0.023738839 -0.089097716 0.34182861
-0.023136996 -0.089154556 0.34204668
-0.022534953 -0.089213714 0.34227365
-0.021932658 -0.089275189 0.34250948
-0.021330541 -0.089340962 0.34276184
-0.02072804 -0.089409016 0.34302291
-0.020125216 -0.089479811 0.34329453
-0.019522367 -0.089554988 0.34358296
-0.018918986 -0.089632578 0.34388062
-0.018315177 -0.089713328 0.34419045
-0.017711166 -0.089798719 0.34451804
-0.017106514 -0.089886963 0.34485659
-0.016501224 -0.089978375 0.3452073
-0.015895646 -0.090075329 0.34557927
-0.015289359 -0.090176016 0.34596556
-0.014682258 -0.090280265 0.34636551
-0.014074382 -0.090388812 0.34678197
-0.013465852 -0.090503044 0.34722024
-0.012856324 -0.090621412 0.34767434
-0.012245792 -0.090744458 0.34814644
-0.011634234 -0.090872802 0.34863883
-0.011021698 -0.091007732 0.3491565
-0.010407953 -0.091148436 0.34969631
-0.0097929528 -0.091295592 0.35026088
-0.0091765765 -0.091449328 0.3508507
-0.0085587092 -0.091609888 0.35146669
-0.0079392921 -0.091778219 0.3521125
-0.007318309 -0.091956139 0.35279512
-0.006695481 -0.092142574 0.35351038
-0.006070795 -0.092339993 0.35426778
-0.0054440442 -0.09254875 0.35506871
-0.0048150271 -0.092769518 0.3559157
-0.004183623 -0.093005151 0.35681972
-0.0035495644 -0.093256734 0.35778493
-0.0029126448 -0.093528256 0.35882664
-0.002272482 -0.093821041 0.35994992
-0.0016287408 -0.094141223 0.36117831
-0.00098092214 -0.094495498 0.3625375
-0.00032835317 -0.094894066 0.36406663
0.0003299434 -0.095353641 0.36582983
0.00099557079 -0.09590666 0.36795151
0.0016720659 -0.096645407 0.37078577
0.0023795781 -0.098242581 0.37691343
-0.074116409 -0.094539598 0.36523429
-0.072849713 -0.093757257 0.36221185
-0.071775094 -0.093210191 0.36009839
-0.070791669 -0.09277264 0.358408
-0.069863334 -0.092399895 0.35696799
-0.068975538 -0.09207432 0.35571018
-0.068118349 -0.091783881 0.35458812
-0.067286894 -0.091522932 0.35358
-0.066474117 -0.091282636 0.35265169
-0.065677546 -0.091060169 0.35179222
-0.064897232 -0.090856127 0.35100394
-0.064129271 -0.090665519 0.35026756
-0.063372776 -0.090487495 0.34957981
-0.06262628 -0.090320311 0.34893394
-0.061889343 -0.090163663 0.34832874
-0.061160672 -0.090015963 0.34775814
-0.060440313 -0.089877561 0.34722346
-0.059726577 -0.089746222 0.34671605
-0.059019156 -0.089621678 0.34623492
-0.058317546 -0.0895034 0.34577796
-0.057621334 -0.089390934 0.34534347
-0.05693081 -0.089284934 0.34493396
-0.056245696 -0.089185163 0.34454852
-0.055565033 -0.089090303 0.34418204
-0.054888364 -0.088999778 0.34383231
-0.054215718 -0.088913776 0.34350008
