# .PCD v0.7 - Point Cloud Data file format
VERSION 0.7
FIELDS x y z
SIZE 4 4 4
TYPE F F F
COUNT 1 1 1
WIDTH 367
HEIGHT 1
VIEWPOINT 0 0 0 1 0 0 0
POINTS 367
DATA ascii
-0.0098746866 -0.0072414367 0.72991407
-0.013824167 -0.0072412305 0.72989327
-0.00066248036 -0.0099372054 0.73453534
-0.019137297 -0.009898602 0.73168182
0.0033365951 -0.016682977 0.73990029
-0.00066890387 -0.019398212 0.7416575
-0.0033336489 -0.019335164 0.7392469
-0.019290019 -0.019290019 0.73752087
-0.023343986 -0.018008217 0.73951441
-0.020684863 -0.023353877 0.73982775
-0.008672663 -0.026017988 0.73968834
-0.016683267 -0.027360559 0.73991323
-0.00067263294 -0.028923217 0.74579215
-0.019385418 -0.028743897 0.74116832
0.00067635311 -0.035846718 0.74991697
-0.03357283 -0.032202508 0.75968146
-0.00067634881 -0.03990458 0.74991214
-0.029131303 -0.039970856 0.7511577
-0.0047340002 -0.048016287 0.74984223
-0.033534095 -0.049958955 0.75880498
-0.0087884581 -0.052054714 0.74956453
0.0020557349 -0.058245819 0.75977588
-0.0006829031 -0.059412569 0.75717932
-0.038180243 -0.056229085 0.76968968
0.00068515673 -0.06234926 0.75967807
-0.0020558964 -0.069215186 0.75983566
-0.038171172 -0.068708114 0.76950687
-0.028692108 -0.0046708081 0.73983294
-0.0089042876 -0.077398807 0.75944358
-0.039830524 -0.078962274 0.77478439
0.0034719047 -0.078465044 0.76990557
-0.028749192 -0.00066858582 0.74130487
-0.00069025479 -0.079379305 0.76533067
-0.021241602 -0.080169916 0.75974041
0.0093210144 -0.083889127 0.79498601
-0.018505314 -0.081560455 0.75992787
0.013810646 -0.08940576 0.80593508
0.0020831246 -0.082630605 0.76989883
0.010816705 -0.085812531 0.79954594
-0.051195078 -0.088690065 0.79948354
-0.042890117 -0.087889582 0.77959144
-0.0006944834 -0.089588359 0.77001917
-0.028980838 -0.019545216 0.74727792
-0.00069395959 -0.088132866 0.76943839
-0.039881278 -0.0860596 0.77577162
0.0091444589 -0.096368529 0.77992767
-0.00069493242 -0.096595608 0.77051705
-0.029041419 -0.029041419 0.74884003
-0.002081966 -0.097852401 0.76947063
-0.010362322 -0.098787472 0.76595896
0.011946086 -0.10892019 0.7791416
0.0091196857 -0.10031655 0.77781481
-0.019483043 -0.039637916 0.74490082
0.0020822925 -0.10897331 0.76959133
-0.02772342 -0.039894678 0.74972612
-0.00069422909 -0.10066322 0.76973724
-0.010342355 -0.10962896 0.76448303
-0.029724266 -0.100233 0.76644742
-0.039579518 -0.10901727 0.76990175
-0.00067958958 -0.049610037 0.75350541
0.010549053 -0.11603958 0.77976167
-0.019569034 -0.049259983 0.74818856
0.00069423363 -0.11454855 0.76974225
-0.055520967 -0.1189735 0.79947698
0.0091361953 -0.11877053 0.77922285
-0.029224759 -0.049614128 0.75356752
-0.00069505308 -0.11885408 0.7706508
-0.023665635 -0.049359754 0.74970394
-0.0020828971 -0.11872513 0.76981473
-0.010377428 -0.11968634 0.7670756
-0.029793616 -0.11986734 0.76823562
-0.03540732 -0.11733013 0.76977277
-0.031228902 -0.12144573 0.76945615
-0.020968983 -0.053437088 0.74998981
-0.0062487805 -0.12289269 0.76982576
-0.055710178 -0.12950808 0.80220157
0.012100294 -0.12883255 0.78919929
0.0092062959 -0.12959632 0.78520173
-0.013194357 -0.1270825 0.76997089
-0.027083682 -0.12569606 0.76998591
-0.01965729 -0.058971867 0.75156283
0.0049237367 -0.12872054 0.77989554
-0.029329486 -0.059341054 0.75626791
-0.00069981575 -0.12946591 0.77593148
-0.03357736 -0.055505436 0.75978404
-0.010435177 -0.12870052 0.77134424
-0.029952588 -0.12886579 0.77233475
-0.039968561 -0.12832011 0.77746946
-0.04288115 -0.12723751 0.77942848
-0.00068639545 -0.069325939 0.76105154
0.01067931 -0.13313541 0.78939003
0.0033308659 -0.0073279045 0.73862976
-0.040078189 -0.13289084 0.77960193
-0.010221398 -0.068824083 0.75554222
0.0021098072 -0.13291785 0.77976042
-0.055931374 -0.13873886 0.80538666
0.0092724068 -0.1390861 0.79084033
0.0092612104 -0.13749334 0.78988534
-0.00070431171 -0.13874941 0.78091645
-0.029446706 -0.06916552 0.75929046
-0.0035170291 -0.13997775 0.77991205
-0.030843124 -0.067854874 0.75995088
-0.010509375 -0.13942438 0.77682883
-0.028732311 -0.13945682 0.77700961
-0.034444779 -0.13988799 0.77941185
-0.023988893 -0.078820646 0.75994444
-0.0091421679 -0.14416495 0.77973229
-0.030240882 -0.14417164 0.77976847
0.010673366 -0.088944718 0.78895062
-0.039214626 -0.21974987 0.82037395
-0.056219991 -0.14967661 0.80954266
-0.014770836 -0.14700499 0.77987581
-0.024617122 -0.14699939 0.77984613
-0.029581286 -0.079112746 0.76276064
-0.00070979737 -0.14976725 0.78699881
-0.036799703 -0.079848409 0.76985353
-0.010575651 -0.14876416 0.78172779
-0.028902395 -0.14874159 0.78160918
-0.039020576 -0.14969711 0.78663027
-0.031487718 -0.010049271 0.74281901
-0.010337081 -0.088898897 0.76409322
0.00071247335 -0.15318176 0.78996581
0.0033814644 -0.022317665 0.74985015
-0.042022116 -0.15170696 0.78970629
0.016568249 -0.09436699 0.7987088
-0.056484547 -0.15918373 0.81335211
0.014960818 -0.096176684 0.78990656
-0.037939075 -0.22986618 0.82481444
-0.054747697 -0.15986328 0.80936474
-0.018487968 -0.22407417 0.81995279
-0.039248783 -0.15913598 0.7912308
-0.02973122 -0.089193657 0.76662672
-0.0049836948 -0.15876628 0.78939265
-0.034010369 -0.089537509 0.76958209
-0.010655205 -0.15982808 0.78760821
-0.02910606 -0.15972838 0.78711689
-0.036309309 -0.15876424 0.78938252
-0.02974993 -0.096168377 0.76710916
-0.0092609785 -0.16313571 0.78986561
-0.030635687 -0.16457775 0.78994858
0.017918436 -0.10966083 0.79469371
-0.039674774 -0.23879723 0.83000034
-0.056758981 -0.16880268 0.81730384
-0.03679369 -0.09927354 0.76972777
-0.014958896 -0.1659725 0.78980505
-0.027785849 -0.16600263 0.7899484
0.0047895708 -0.039000791 0.75864434
-0.043984313 -0.16944776 0.79948008
-0.00071961613 -0.16910979 0.79788548
-0.039831568 -0.090145126 0.77480465
-0.010724869 -0.16945292 0.79275757
-0.048526462 -0.099162772 0.77977484
-0.029283736 -0.16927427 0.79192179
-0.039480757 -0.16869052 0.79590726
-0.052198548 -0.23829773 0.83878183
0.012571913 -0.17378822 0.81995898
-0.031667992 -0.0047165095 0.7470718
0.0035624288 -0.14890952 0.78997958
0.0047964994 -0.043168493 0.75974178
-0.042555258 -0.17238486 0.79972541
0.018070741 -0.11782122 0.80144846
-0.058969051 -0.17989293 0.82763094
0.018027112 -0.1160946 0.79951352
-0.03984898 -0.2458607 0.83364475
-0.056901067 -0.1736591 0.81934983
-0.0079300702 -0.17950794 0.79932612
-0.039634869 -0.10082554 0.77097845
-0.010795664 -0.17920803 0.79799062
-0.048499003 -0.10894704 0.77933359
-0.029464383 -0.17894223 0.79680705
-0.036782965 -0.17958742 0.79967999
0.010816583 -0.14926885 0.79953688
-0.053417854 -0.10897242 0.78970492
-0.017213471 -0.24173701 0.82981312
-0.039755914 -0.17998587 0.80145425
0.012752666 -0.18828936 0.83174795
0.0033765663 -0.019584084 0.74876398
-0.043438472 -0.14883018 0.78955865
-0.0093739545 -0.18098943 0.7995013
-0.053908274 -0.24068904 0.84185392
0.012703702 -0.18457732 0.82855445
-0.059231807 -0.18969174 0.83131874
0.0096513312 -0.18931459 0.82315868
-0.033907518 -0.18252346 0.79990393
0.016628662 -0.12941438 0.80162114
-0.059097085 -0.1847719 0.8294279
0.011216443 -0.19217506 0.82909364
-0.03976173 -0.11928519 0.77344614
-0.016590066 -0.18537596 0.79976052
-0.047108144 -0.11601259 0.7795803
-0.028131504 -0.1853794 0.79977536
-0.03052897 -0.016960539 0.75221038
0.0064876298 -0.15930736 0.79925108
0.0062357769 -0.05889345 0.76822376
-0.045999192 -0.18764749 0.80956054
0.01291999 -0.19835985 0.84266108
-0.028731912 -0.21880455 0.81684488
-0.049542677 -0.14862803 0.79610443
-0.00072984648 -0.18903023 0.80922854
-0.03769936 -0.21954334 0.81960291
-0.052636251 -0.14492995 0.79946923
-0.010867723 -0.18909839 0.80331707
-0.048731435 -0.1193567 0.78306854
-0.029647393 -0.18873097 0.8017562
-0.051910989 -0.11875528 0.78845358
-0.03999535 -0.18979612 0.80628115
0.012874281 -0.19614345 0.83967984
0.016810264 -0.13813652 0.81037569
-0.059515804 -0.19964162 0.83530462
-0.032106288 -0.023908937 0.75741154
0.0021638086 -0.16805579 0.79971868
0.0062499088 -0.064582393 0.76996475
-0.040157139 -0.1964049 0.80954266
0.0047768881 -0.029343741 0.75663549
-0.028825151 -0.22394925 0.81949568
-0.049770638 -0.15652505 0.79976755
-0.0094905645 -0.19930184 0.80944687
-0.030312272 -0.22401507 0.81973654
-0.051185295 -0.1506722 0.79933077
-0.010941043 -0.19912699 0.80873668
-0.049015641 -0.12999801 0.78763551
-0.029833464 -0.19864722 0.80678815
-0.050561175 -0.12889539 0.78958428
-0.037233587 -0.1993092 0.80947673
-0.050153714 -0.22382031 0.82998067
0.010950275 -0.16425413 0.8094191
-0.055540722 -0.12045845 0.79976147
-0.038732197 -0.19950736 0.81028152
0.0094905896 -0.16864048 0.80944908
-0.04904142 -0.090264641 0.7880497
-0.0097254366 -0.2356548 0.82947904
0.0077155889 -0.069440298 0.7777071
-0.049411241 -0.19838244 0.81769365
0.009815909 -0.20915438 0.83719546
-0.031401522 -0.20374475 0.80969584
-0.038760502 -0.13883306 0.78138733
-0.019718846 -0.20522206 0.809762
0.011356317 -0.20517081 0.83943284
0.0074325195 -0.0074325195 0.74917459
-0.047713183 -0.13886672 0.78959292
-0.028487701 -0.20525753 0.80990201
-0.018259615 -0.054778844 0.74983811
0.011527751 -0.21749023 0.85210472
0.0095691886 -0.17887022 0.81615269
-0.002271086 -0.2430062 0.83936721
0.0077600335 -0.079716705 0.78218699
-0.049703699 -0.2084588 0.82253349
0.01560182 -0.15973292 0.82375044
-0.059970994 -0.2148328 0.84169322
0.01634611 -0.10873717 0.78800011
-0.038143415 -0.23858331 0.82925683
-0.053294722 -0.16718481 0.80947047
-0.011015692 -0.20929813 0.81425452
0.011402734 -0.20905012 0.8428638
-0.049274944 -0.13925527 0.79180223
-0.028548166 -0.20862122 0.81162101
-0.054108065 -0.13779521 0.7999087
-0.038971148 -0.20956182 0.81528038
-0.035114836 -0.039245993 0.76341403
0.0051088319 -0.17880912 0.80921376
0.0077366484 -0.075256489 0.77982986
-0.048070367 -0.2063328 0.81998092
-0.05981487 -0.20973063 0.83950204
0.01687346 -0.14012308 0.81342214
0.0083226981 -0.21714677 0.83890182
-0.036675338 -0.046363164 0.76725185
0.00073031161 -0.18769009 0.8097443
0.00632426 -0.087836944 0.77912456
-0.04065311 -0.2165702 0.8195411
0.012417085 -0.15996127 0.80986083
-0.05161529 -0.21917798 0.82940942
0.015493324 -0.15567102 0.81802201
-0.058275819 -0.21872352 0.8391456
0.00074773666 -0.22058231 0.82906455
0.0093422458 -0.14875729 0.79679686
0.0062220269 -0.042171516 0.7665298
-0.020210758 -0.24327764 0.82996255
-0.048841637 -0.17860001 0.80826741
-0.041464273 -0.079414621 0.77922291
-0.0096113067 -0.21810274 0.819745
0.015157585 -0.091667302 0.80029553
-0.05850926 -0.15923406 0.82117778
-0.060409099 -0.22863697 0.84784204
0.0099582067 -0.22444266 0.84933197
-0.06207699 -0.21535352 0.84973854
-0.0007146523 -0.15936746 0.79238176
0.014100648 -0.1699499 0.82285845
-0.058611117 -0.22911619 0.84397376
-0.058693472 -0.16865087 0.82376319
-0.060525939 -0.23214379 0.84948188
0.0053031547 -0.22803566 0.83999354
-0.049593579 -0.086968452 0.79692239
-0.00075082871 -0.22900274 0.83249289
-0.028919207 -0.22912911 0.82216966
-0.049862619 -0.15970491 0.80124563
-0.00073512626 -0.19921921 0.81508255
-0.038269635 -0.05357749 0.77149183
0.0036954205 -0.19881362 0.81947088
0.0091836024 -0.091129586 0.78326619
-0.048656091 -0.22681223 0.82997215
-0.00072467938 -0.17899582 0.80349946
-0.062551171 -0.23244324 0.85622936
0.0081317648 -0.18850909 0.81965631
0.009241092 -0.086013243 0.7881695
-0.04845782 -0.21992394 0.82659006
-0.056789864 -0.22640225 0.83955514
0.014045054 -0.16632301 0.81961423
0.00075661839 -0.23682156 0.83891231
0.0068922606 -0.23663428 0.84910005
0.01494782 -0.11887076 0.78922027
-0.05037909 -0.177422 0.8095448
-0.032187808 -0.24327996 0.82997048
0.014241865 -0.17764853 0.83109933
0.006915967 -0.24052197 0.85202056
-0.052253984 -0.24006541 0.83967263
-0.041523337 -0.072489887 0.78033286
-0.00074513734 -0.21832524 0.82618254
-0.056141272 -0.20585133 0.82996666
0.015331552 -0.14674486 0.80948073
0.0022430108 -0.21757205 0.82899094
-0.049117494 -0.24256486 0.83784276
-0.051950496 -0.094649531 0.78905362
-0.012721927 -0.23872322 0.82974309
0.013690264 -0.13906427 0.79891008
-0.051009748 -0.19886409 0.8196789
-0.020164104 -0.23972879 0.82804674
-0.048562896 -0.16888291 0.80365461
-0.0022174576 -0.20918018 0.81954682
-0.03985272 -0.062226176 0.7752161
0.00073929894 -0.20478581 0.81970912
-0.041169442 -0.2372857 0.82995009
-0.052491236 -0.091320366 0.79726666
-0.01123634 -0.23895949 0.83056432
0.016765146 -0.13630792 0.8082006
-0.057640504 -0.19837315 0.82999736
-0.00075673271 -0.23988427 0.83903909
-0.049012318 -0.2390293 0.83604866
0.0052298359 -0.20994055 0.82838017
-0.021721458 -0.00065822597 0.72981822
-0.062440347 -0.22894794 0.85471231
0.0094150305 -0.15860705 0.80300462
-0.049123798 -0.18843009 0.81293684
-0.047677241 -0.08752688 0.78899819
-0.0022449361 -0.22673854 0.8297025
-0.00074053142 -0.20957039 0.82107562
0.010001639 -0.22849898 0.85303628
0.009723343 -0.19820662 0.82930052
-0.048706174 -0.22854435 0.83082646
-0.058909401 -0.23793277 0.84826893
0.014198806 -0.17561682 0.82858658
0.005359449 -0.24117519 0.84891021
0.010054628 -0.23280331 0.85755569
0.0084831016 -0.23829803 0.85506994
0.0099791884 -0.22645082 0.85112149
-0.00075878284 -0.24356928 0.84131217
-0.062154043 -0.21869014 0.85079324
0.01657171 -0.1260891 0.79887557
-0.053932689 -0.18839501 0.81916028
-0.012647205 -0.22988155 0.82486963
-0.061962511 -0.20883662 0.84817147
-0.011091763 -0.2196169 0.81987756
-0.012799101 -0.24770026 0.83477652
0.011486787 -0.21518582 0.84907687
-0.010276175 -0.078784004 0.75959116
0.010091721 -0.23521473 0.86071932
0.0099008521 -0.21858037 0.84444022
-0.023272412 -0.24848929 0.83237565
