# .PCD v0.7 - Point Cloud Data file format
VERSION 0.7
FIELDS x y z
SIZE 4 4 4
TYPE F F F
COUNT 1 1 1
WIDTH 146
HEIGHT 1
VIEWPOINT 0 0 0 1 0 0 0
POINTS 146
DATA ascii
-0.03022 0.099823996 -0.011424
-0.026822999 0.099823996 -0.01935
-0.02086 0.109761 -0.018827001
-0.010195 0.12156 -0.011092
0.007212 0.12647299 -0.001148
-0.020048 0.094814003 -0.030146001
-0.010056 0.108173 -0.030551
-0.01005 0.119772 -0.016504999
-0.000128 0.12099 -0.020584
-0.00037600001 0.112786 -0.030361
-0.00099199999 0.109761 -0.032818999
0.007212 0.119772 -0.023903999
0.007212 0.121844 -0.020036999
0.007212 0.097018003 -0.040121
0.015415 0.109761 -0.032818999
0.020551 0.110794 -0.030162999
0.011667 0.113741 -0.030104
-0.00026500001 0.119772 -0.022701001
0.012218 0.12156 -0.020055
-0.0087029999 0.109761 -0.029844999
-0.002293 0.099823996 -0.038013998
0.022391001 0.109761 -0.030226
0.020706 0.119441 -0.020265
0.020082001 0.123309 -0.010113
0.029002 0.119772 -0.0097279996
0.039519001 0.109761 -0.0098700002
0.007212 0.113741 -0.030432999
0.030206 0.118746 -0.010262
0.042151999 0.099823996 -0.017657001
0.012211 0.124908 -0.010001
0.040038999 0.110794 -0.0024910001
0.040119 0.110794 0.00073799997
0.010158 0.097018003 -0.040013
0.03002 0.119772 -0.0069880001
0.030012 0.1204 -0.0017509999
0.040259998 0.099823996 -0.020997001
-0.00074400002 0.093732998 -0.040065002
0.040077999 0.108707 -0.010927
0.020098001 0.124169 -0.0050400002
0.030669 0.102646 -0.030128
0.040153001 0.109761 -0.0074669998
0.030067001 0.1204 0.00049100001
0.040091 0.100388 -0.020889999
0.029843001 0.119772 0.0074069998
0.044911001 0.099823996 0.010363
0.007212 0.099823996 -0.039186001
0.039269 0.109761 0.010521
0.030206 0.118746 0.010123
0.010214 0.12616999 -0.0026519999
0.040762998 0.099823996 0.02004
0.039735999 0.099823996 0.021662001
0.010015 0.126307 1.8999999e-05
0.029885 0.109761 0.024946
0.020706 0.119441 0.020125
0.007212 0.12511601 -0.010269
0.022391001 0.109761 0.030087
-0.00023400001 0.124433 -0.010642
0.017928001 0.119772 0.02122
-0.020021001 0.114665 -0.01135
0.011718 0.124908 0.010095
0.024064999 0.119772 -0.016922999
-0.00077099999 0.092669003 0.040059999
0.031039 0.119772 0.00051500002
0.025969001 0.109761 -0.028140999
0.024799 0.099823996 -0.035009
-0.001117 0.112786 0.030026
0.01017 0.096463002 0.040031001
0.007212 0.109761 -0.033831
-0.010033 0.117623 -0.020060999
-0.0087029999 0.109761 0.029704999
-0.020447999 0.099823996 -0.027729001
-0.001126 0.12099 0.020059001
0.017802 0.109761 0.031987999
-0.0033789999 0.109761 0.031987999
0.016716 0.099823996 -0.038013998
0.0069610002 0.12511601 0.010126
0.045155998 0.099823996 -0.0095739998
0.040091 0.100388 0.020750999
-0.0035049999 0.119772 0.02122
0.019482 0.099823996 0.037073001
-0.019761 0.099823996 0.02826
0.007212 0.096463002 0.040139999
-0.01452 0.099823996 0.032455001
-0.010056 0.108173 0.030412
-0.010375 0.099823996 -0.035009
0.031084999 0.109761 -0.023943
-0.016661 0.109761 0.023802999
-0.00074400002 0.124433 0.010125
0.007212 0.113741 0.030293999
0.035282999 0.109761 -0.018827001
-0.010715 0.12156 0.010086
-0.030487999 0.099823996 0.010363
0.014688 0.119772 -0.022701001
-8.8000001e-05 0.125479 -0.0042039999
0.030030999 0.113267 -0.020752
0.030793 0.102082 0.030146001
0.007212 0.119772 0.023765
-0.00029500001 0.125634 0.00030000001
-0.030058 0.10433 -0.0037400001
-0.020248 0.109237 0.020296
-0.020248 0.109237 -0.020435
-0.02029 0.114665 0.010539
0.010929 0.113741 0.030065
-0.010308 0.117229 0.02024
0.040077999 0.108707 0.010788
-0.030228 0.10433 0.000849
0.007212 0.109761 0.033691999
0.011726 0.12156 0.020033
0.007212 0.12156 0.020532999
-0.014078 0.119772 0.010647
-0.031893 0.099823996 0.00089000002
0.034329001 0.109761 0.020042
0.030532001 0.113267 0.020047
0.046317 0.099823996 0.00089000002
-0.011545 0.109761 -0.028140999
-0.025095999 0.109761 -0.0098700002
-0.020048 0.094814003 0.030006999
0.020138999 0.124433 0.000248
-0.030104 0.100953 -0.010396
0.040963002 0.109761 0.00075900002
-0.0050579999 0.099823996 0.037073001
0.030513 0.099823996 -0.031488001
-0.02654 0.109761 0.00075900002
0.020551 0.110794 0.030022999
-0.016616 0.119772 0.00051500002
0.034871001 0.099823996 -0.027729001
-0.010014 0.122713 -0.0048369998
0.032026999 0.099823996 0.030168001
0.020957001 0.123012 0.010125
-0.030104 0.100953 0.010257
0.007212 0.099823996 0.039046999
-0.014578 0.119772 -0.0097279996
-0.025312999 0.099823996 0.021662001
0.039960999 0.109761 0.008134
-0.018338 0.099823996 -0.029689001
0.028944001 0.099823996 0.032455001
-0.024846001 0.109761 0.010521
-0.030732 0.099823996 -0.0095739998
-0.029929999 0.099823996 0.012201
-0.0096420003 0.119772 0.016783999
0.028501 0.119772 0.010647
0.0061539998 0.12647299 0.000141
-0.0060299998 0.119772 -0.019887
-0.020008 0.116825 -0.001407
-0.010656 0.122713 0.00036899999
-0.020032 0.116825 0.00059900002
