# .PCD v0.7 - Point Cloud Data file format
VERSION 0.7
FIELDS x y z
SIZE 4 4 4
TYPE F F F
COUNT 1 1 1
WIDTH 723
HEIGHT 1
VIEWPOINT 0 0 0 1 0 0 0
POINTS 723
DATA ascii
-0.098146707 -0.049985498 0.40454155
-0.097361125 -0.049956832 0.40430954
-0.096583106 -0.049931642 0.40410569
-0.095810913 -0.049909107 0.4039233
-0.09504471 -0.049889371 0.40376356
-0.09428487 -0.049872693 0.40362859
-0.093530662 -0.049858756 0.40351582
-0.092781544 -0.049847338 0.4034234
-0.092037037 -0.049838241 0.40334976
-0.09129753 -0.049831718 0.40329698
-0.090562157 -0.049827371 0.40326181
-0.089831427 -0.049825527 0.40324688
-0.089104615 -0.049825843 0.40324944
-0.088381283 -0.049828131 0.40326795
-0.087662034 -0.049832776 0.40330553
-0.086946644 -0.049839709 0.40336165
-0.086234942 -0.049848892 0.40343598
-0.085526586 -0.049860179 0.40352732
-0.084821321 -0.049873479 0.40363497
-0.084119149 -0.049888846 0.40375933
-0.083419949 -0.049906258 0.40390024
-0.082724504 -0.04992624 0.40406197
-0.082031287 -0.04994794 0.40423757
-0.081341125 -0.049971905 0.40443152
-0.080653898 -0.049998119 0.40464368
-0.10777526 -0.049998831 0.41064426
-0.10683643 -0.049906291 0.40988421
-0.10592064 -0.049823295 0.40920258
-0.10502554 -0.049748942 0.4085919
-0.10414854 -0.049682163 0.40804344
-0.10328482 -0.049620822 0.40753964
-0.10243624 -0.049565919 0.40708873
-0.1015998 -0.049516145 0.40667993
-0.10077452 -0.049471129 0.4063102
-0.099958695 -0.049430124 0.40597343
-0.099152185 -0.049393155 0.40566981
-0.098354116 -0.049359869 0.40539643
-0.097565107 -0.04933067 0.40515661
-0.096782923 -0.049304508 0.40494174
-0.096006885 -0.049281102 0.40474948
-0.095237836 -0.049260952 0.40458399
-0.094474494 -0.049243465 0.40444037
-0.093716793 -0.049228668 0.40431884
-0.092964903 -0.049216714 0.40422067
-0.092218183 -0.04920733 0.4041436
-0.091476604 -0.049200561 0.40408802
-0.090739131 -0.049195915 0.40404984
-0.090005919 -0.04919352 0.40403017
-0.089277513 -0.049193729 0.4040319
-0.088552788 -0.049195994 0.4040505
-0.087831996 -0.049200498 0.40408748
-0.087114364 -0.049206857 0.40413973
-0.086400792 -0.049215641 0.40421185
-0.085691169 -0.049226843 0.40430385
-0.084984213 -0.049239781 0.40441012
-0.084280714 -0.049254965 0.40453482
-0.083580136 -0.049272135 0.40467584
-0.082883187 -0.04929176 0.40483704
-0.082189031 -0.049313419 0.4050149
-0.081497975 -0.049337339 0.40521136
-0.080809154 -0.049363058 0.4054226
-0.08012367 -0.049391307 0.40565461
-0.079441175 -0.049421929 0.40590611
-0.078761213 -0.049454715 0.4061754
-0.078083761 -0.049489707 0.40646279
-0.077409096 -0.049527146 0.40677029
-0.076737665 -0.04956739 0.4071008
-0.076068357 -0.049609799 0.4074491
-0.075401887 -0.049654901 0.40781954
-0.07473813 -0.049702697 0.4082121
-0.074077234 -0.049753368 0.40862826
-0.073418587 -0.04980658 0.40906528
-0.072763667 -0.049863428 0.40953219
-0.072111703 -0.049923487 0.41002545
-0.071462817 -0.049986944 0.41054663
-0.11127533 -0.04983037 0.41541496
-0.11016862 -0.04966924 0.41407171
-0.10912453 -0.049534343 0.41294712
-0.10812815 -0.049419396 0.41198885
-0.10716455 -0.049317941 0.41114306
-0.10623135 -0.049229167 0.41040298
-0.1053204 -0.049149521 0.40973902
-0.10442918 -0.049078025 0.40914297
-0.10355739 -0.04901471 0.40861514
-0.1026991 -0.048956919 0.40813339
-0.10185362 -0.048904445 0.40769592
-0.1010213 -0.048857577 0.40730521
-0.10019956 -0.048815168 0.40695167
-0.099388234 -0.048777249 0.40663555
-0.098585516 -0.048743024 0.40635023
-0.097790502 -0.048712123 0.40609261
-0.097004816 -0.048685435 0.40587014
-0.096225441 -0.048661534 0.40567088
-0.095452972 -0.048640788 0.40549791
-0.094686806 -0.048622955 0.40534925
-0.093925811 -0.048607521 0.4052206
-0.093170978 -0.04859506 0.40511671
-0.092422277 -0.048585624 0.40503803
-0.091678001 -0.048578382 0.40497768
-0.090938382 -0.048573513 0.40493709
-0.090203464 -0.048571099 0.40491694
-0.089472637 -0.04857086 0.40491498
-0.088745855 -0.048572835 0.40493143
-0.088023588 -0.048577331 0.40496892
-0.087304547 -0.048583701 0.40502203
-0.086588942 -0.048592106 0.40509209
-0.085877761 -0.048603158 0.40518421
-0.085169427 -0.048616026 0.4052915
-0.08446458 -0.048631124 0.40541735
-0.083762378 -0.048648018 0.4055582
-0.083063558 -0.048667192 0.40571806
-0.082368337 -0.04868884 0.40589851
-0.081675857 -0.048712507 0.4060958
-0.080986314 -0.048738368 0.40631142
-0.080299512 -0.048766367 0.40654483
-0.079615816 -0.048796792 0.40679845
-0.078934535 -0.048829272 0.40706924
-0.07825616 -0.048864178 0.40736023
-0.077580936 -0.048901729 0.40767327
-0.076907881 -0.048941381 0.40800384
-0.076238252 -0.048983999 0.40835914
-0.075570695 -0.049028791 0.40873256
-0.074906349 -0.049076572 0.40913087
-0.074244343 -0.049126852 0.40955004
-0.073586121 -0.049180672 0.40999871
-0.072931267 -0.049237859 0.41047546
-0.072279423 -0.049298272 0.41097909
-0.071630374 -0.049361866 0.41150925
-0.070985556 -0.04942973 0.41207501
-0.070343204 -0.049500771 0.41266724
-0.069705911 -0.049576931 0.41330215
-0.069072962 -0.049657859 0.41397682
-0.068445258 -0.049744368 0.414698
-0.067822091 -0.049836121 0.41546291
-0.067204468 -0.049934044 0.41627926
-0.11329508 -0.049637642 0.42012596
-0.11187796 -0.049346846 0.41766471
-0.11067088 -0.049145374 0.41595948
-0.10956904 -0.048988208 0.41462925
-0.10852851 -0.048856474 0.41351429
-0.107539 -0.048746049 0.41257966
-0.1065817 -0.04864879 0.41175646
-0.10565438 -0.048563946 0.41103834
-0.10474887 -0.048487991 0.41039547
-0.10386267 -0.048419967 0.40981972
-0.102995 -0.048359659 0.4093093
-0.10214236 -0.048305593 0.40885168
-0.10130107 -0.048256144 0.40843317
-0.10047378 -0.048212692 0.40806538
-0.099656425 -0.048173402 0.40773284
-0.098849088 -0.048138402 0.40743661
-0.098049477 -0.048106674 0.40716806
-0.097258545 -0.048078753 0.40693176
-0.096475549 -0.04805436 0.40672529
-0.095699832 -0.048033249 0.40654659
-0.094930522 -0.048015054 0.4063926
-0.094166026 -0.047999024 0.40625694
-0.093408301 -0.047986224 0.40614861
-0.092655823 -0.047975942 0.40606156
-0.091908984 -0.047968432 0.40599802
-0.091167271 -0.047963504 0.4059563
-0.090429418 -0.047960542 0.40593123
-0.089696445 -0.04796014 0.40592784
-0.08896748 -0.047961891 0.40594265
-0.088242538 -0.047965858 0.40597624
-0.087521642 -0.047972113 0.40602916
-0.086804464 -0.047980525 0.40610036
-0.086090788 -0.047991037 0.40618932
-0.085380413 -0.04800358 0.40629551
-0.084673591 -0.048018355 0.40642056
-0.08397042 -0.04803548 0.40656549
-0.083270036 -0.048054516 0.4067266
-0.08257328 -0.048075996 0.40690842
-0.081878863 -0.048099242 0.40710518
-0.081188321 -0.048125204 0.40732491
-0.08050026 -0.048153125 0.40756121
-0.07981509 -0.048183303 0.40781665
-0.079133525 -0.048216239 0.40809542
-0.078453645 -0.048250835 0.40838823
-0.077777542 -0.048288427 0.4087064
-0.077103928 -0.048328299 0.40904388
-0.076432928 -0.0483706 0.40940189
-0.075765185 -0.048415802 0.4097845
-0.075099662 -0.04846333 0.41018674
-0.074437745 -0.048514154 0.4106169
-0.073779464 -0.04856839 0.41107598
-0.073124222 -0.048625752 0.41156146
-0.072472483 -0.048686642 0.41207683
-0.071823463 -0.048750643 0.41261852
-0.071178682 -0.048818886 0.41319615
-0.070537269 -0.048890911 0.41380575
-0.069901012 -0.048968088 0.41445896
-0.069269449 -0.049050257 0.41515443
-0.068642527 -0.049137548 0.41589323
-0.068021871 -0.049231298 0.41668674
-0.067409299 -0.049333062 0.41754803
-0.066803873 -0.049442414 0.41847357
-0.0662072 -0.049560819 0.41947573
-0.065623395 -0.049691703 0.42058352
-0.065052889 -0.049835838 0.42180347
-0.064503573 -0.049999811 0.42319131
-0.1127697 -0.048980776 0.42099375
-0.11132138 -0.048679519 0.4184044
-0.1101131 -0.048479829 0.41668805
-0.1090128 -0.048325263 0.41535956
-0.10797936 -0.048198402 0.41426915
-0.10699444 -0.048091579 0.413351
-0.10604112 -0.04799756 0.41254291
-0.10512061 -0.047917169 0.41185194
-0.10422108 -0.047845267 0.41123393
-0.10334032 -0.047781009 0.41068164
-0.10247755 -0.047724202 0.41019338
-0.10162834 -0.047672931 0.4097527
-0.10079173 -0.04762686 0.40935671
-0.09996707 -0.0475858 0.40900379
-0.099153101 -0.047549259 0.40868971
-0.098347925 -0.047516413 0.40840742
-0.097550534 -0.047486864 0.40815344
-0.096762255 -0.047461335 0.40793401
-0.095981427 -0.047439095 0.40774286
-0.095207617 -0.04742001 0.40757883
-0.094439223 -0.047403347 0.4074356
-0.093677312 -0.047389697 0.40731829
-0.092920713 -0.047378544 0.40722242
-0.092170037 -0.047370259 0.40715119
-0.09142483 -0.047364671 0.40710318
-0.090683773 -0.047361158 0.40707299
-0.089947805 -0.047360271 0.40706536
-0.089215845 -0.047361501 0.40707591
-0.088488437 -0.047365181 0.40710756
-0.087764353 -0.047370717 0.40715516
-0.08704488 -0.047378857 0.4072251
-0.086328603 -0.047388896 0.40731138
-0.08561682 -0.047401588 0.40742049
-0.084907986 -0.047416147 0.40754563
-0.084202372 -0.047432777 0.40768856
-0.083500884 -0.047452044 0.40785414
-0.082801819 -0.047473043 0.40803465
-0.082106523 -0.047496598 0.4082371
-0.081414193 -0.047522314 0.40845811
-0.080725059 -0.047550377 0.40869933
-0.08003892 -0.047580741 0.40896031
-0.079355747 -0.047613449 0.40924144
-0.078675888 -0.047648776 0.40954509
-0.077998519 -0.047686297 0.40986758
-0.077324212 -0.047726426 0.41021249
-0.076653279 -0.047769435 0.41058215
-0.075984828 -0.047814842 0.41097245
-0.075319737 -0.047863282 0.41138878
-0.07465785 -0.04791474 0.41183105
-0.074000038 -0.047969874 0.41230494
-0.073344916 -0.048027888 0.41280359
-0.07269302 -0.048089229 0.41333079
-0.072045699 -0.048154898 0.41389525
-0.071401551 -0.048224084 0.4144899
-0.070761971 -0.048297852 0.41512394
-0.070128366 -0.048377324 0.41580701
-0.069498613 -0.048461195 0.4165279
-0.068874337 -0.048550762 0.41729772
-0.068258293 -0.048648179 0.41813502
-0.06764932 -0.048752859 0.41903478
-0.067048557 -0.048865896 0.42000633
-0.066461392 -0.048991542 0.42108625
-0.065887153 -0.049129725 0.42227396
-0.065334231 -0.049287226 0.4236277
-0.064807698 -0.049468596 0.42518657
-0.064325564 -0.049688611 0.42707762
-0.063931189 -0.049982563 0.42960417
-0.11236525 -0.048374195 0.42232782
-0.11084553 -0.048045672 0.4194597
-0.10962524 -0.047843318 0.41769305
-0.10852651 -0.04769158 0.41636831
-0.10749476 -0.047567368 0.41528389
-0.10651194 -0.047463216 0.41437459
-0.10556336 -0.047372956 0.41358659
-0.10464402 -0.047294628 0.41290274
-0.10374705 -0.047225364 0.41229802
-0.10286719 -0.047162935 0.411753
-0.1020068 -0.047108598 0.41127861
-0.10115851 -0.047059085 0.41084635
-0.10032193 -0.047014333 0.41045564
-0.099498987 -0.046975359 0.41011539
-0.098685771 -0.046940424 0.40981039
-0.09788122 -0.046909112 0.40953702
-0.097084746 -0.046881225 0.40929356
-0.096297257 -0.046857286 0.40908456
-0.095516279 -0.046836171 0.4089002
-0.094742671 -0.046818364 0.40874475
-0.09397576 -0.046803612 0.40861598
-0.093214095 -0.046791263 0.40850815
-0.092457943 -0.046781506 0.40842298
-0.091707826 -0.046774674 0.40836331
-0.090963431 -0.046770673 0.40832838
-0.090223111 -0.046768717 0.40831131
-0.089487165 -0.046769015 0.4083139
-0.088756271 -0.046771977 0.40833977
-0.088029556 -0.046777215 0.40838549
-0.087306902 -0.046784714 0.40845096
-0.086588398 -0.046794582 0.40853712
-0.085873827 -0.046806764 0.40864348
-0.08516255 -0.046820968 0.40876749
-0.084455252 -0.046837628 0.40891293
-0.083751522 -0.046856578 0.40907839
-0.083050691 -0.046877503 0.40926105
-0.082353987 -0.046901148 0.40946749
-0.081660651 -0.046927158 0.40969458
-0.080970258 -0.046955355 0.40994075
-0.080282941 -0.046985868 0.41020715
-0.079599194 -0.047019057 0.41049689
-0.078918636 -0.047054775 0.41080871
-0.0782414 -0.047093168 0.4111439
-0.077566661 -0.047133811 0.41149873
-0.076896064 -0.047177777 0.41188258
-0.076228321 -0.047224376 0.41228941
-0.075563475 -0.047273699 0.41272002
-0.074902564 -0.047326498 0.41318098
-0.074245334 -0.047382697 0.41367164
-0.073592097 -0.047442619 0.41419476
-0.072942168 -0.047505923 0.41474745
-0.072296187 -0.047573142 0.41533428
-0.071655288 -0.04764514 0.41596287
-0.071019374 -0.047722016 0.41663402
-0.070388541 -0.047803979 0.41734961
-0.069763042 -0.047891386 0.4181127
-0.069145091 -0.047985937 0.41893819
-0.068535529 -0.048088465 0.41983327
-0.067933895 -0.048198909 0.4207975
-0.067344256 -0.048320457 0.42185867
-0.06677027 -0.04845614 0.42304325
-0.066215672 -0.048609193 0.42437947
-0.065687813 -0.048785683 0.42592031
-0.065207124 -0.049001802 0.42780712
-0.064825095 -0.049298126 0.43039417
-0.11236464 -0.047937136 0.4252083
-0.11050552 -0.047468007 0.42104709
-0.10924809 -0.047252633 0.41913667
-0.10813098 -0.047095377 0.41774181
-0.10709018 -0.04696938 0.41662419
-0.10610118 -0.046864476 0.4156937
-0.10514642 -0.046773318 0.4148851
-0.10422356 -0.046695139 0.41419166
-0.1033219 -0.046625406 0.41357309
-0.10244095 -0.046564065 0.41302902
-0.10157615 -0.046509229 0.41254258
-0.1007258 -0.046460241 0.41210806
-0.099887915 -0.046416316 0.41171846
-0.099062927 -0.046377774 0.4113766
-0.098247007 -0.046342928 0.41106749
-0.09744183 -0.046312656 0.41079897
-0.096644059 -0.046285469 0.41055781
-0.095855184 -0.046262152 0.41035101
-0.09507335 -0.046241902 0.41017139
-0.094299383 -0.046225186 0.41002312
-0.093530774 -0.046210855 0.40989599
-0.092768967 -0.046199683 0.40979689
-0.09201248 -0.046191003 0.40971991
-0.091262586 -0.04618552 0.40967125
-0.090517029 -0.046182159 0.40964144
-0.089777552 -0.046181869 0.40963888
-0.089042366 -0.046183802 0.40965602
-0.088311605 -0.046188079 0.40969396
-0.087585635 -0.046194956 0.40975496
-0.086863726 -0.046204109 0.40983614
-0.086146012 -0.046215672 0.40993872
-0.085432202 -0.046229545 0.41006178
-0.084722519 -0.046245914 0.41020697
-0.084016949 -0.046264838 0.41037482
-0.083315015 -0.046286117 0.41056359
-0.082616098 -0.046309471 0.41077071
-0.081921309 -0.046335582 0.41100234
-0.081230275 -0.046364311 0.41125718
-0.0805429 -0.046395682 0.41153541
-0.079858258 -0.046429217 0.4118329
-0.079177387 -0.046465602 0.41215563
-0.078500517 -0.046505045 0.41250548
-0.077826753 -0.0465471 0.41287851
-0.077156611 -0.046592157 0.41327819
-0.076489955 -0.046640217 0.41370448
-0.075827084 -0.046691552 0.41415983
-0.075168259 -0.046746429 0.4146466
-0.074513763 -0.046805125 0.41516724
-0.073862761 -0.046867236 0.41571817
-0.073216662 -0.046933759 0.41630822
-0.072574839 -0.047004428 0.41693509
-0.071938895 -0.047080427 0.41760921
-0.071308523 -0.047161721 0.41833028
-0.070684336 -0.047248889 0.41910347
-0.070067301 -0.047342774 0.41993624
-0.06945838 -0.047444247 0.42083633
-0.068859287 -0.047554757 0.42181656
-0.068273619 -0.047677107 0.42290184
-0.067702889 -0.047812775 0.4241052
-0.067154832 -0.047967736 0.42547974
-0.066636913 -0.048148058 0.42707923
-0.066173851 -0.048372701 0.42907181
-0.065844879 -0.048701834 0.43199128
-0.11042146 -0.046995983 0.42363837
-0.10901305 -0.046719879 0.42114949
-0.10783988 -0.046541423 0.41954082
-0.10677095 -0.046405748 0.41831779
-0.10575988 -0.046293471 0.41730571
-0.10478958 -0.04619756 0.41644111
-0.10385372 -0.046115547 0.41570184
-0.10294198 -0.046043143 0.41504914
-0.10205236 -0.045979634 0.41447666
-0.10118025 -0.045923136 0.41396737
-0.10032269 -0.045872454 0.4135105
-0.099479891 -0.045827817 0.41310811
-0.098648451 -0.045787774 0.41274714
-0.097828947 -0.0457527 0.412431
-0.097019665 -0.045721911 0.41215345
-0.0962191 -0.045694783 0.41190892
-0.095427044 -0.045671307 0.4116973
-0.094643645 -0.045651641 0.41152
-0.093867123 -0.045635004 0.41137004
-0.09309826 -0.045621857 0.41125152
-0.092334628 -0.04561108 0.41115439
-0.091577813 -0.045603529 0.41108629
-0.09082678 -0.045598749 0.41104323
-0.090082422 -0.045597274 0.41102993
-0.089342169 -0.04559787 0.4110353
-0.088607579 -0.04560139 0.41106704
-0.087877311 -0.045607213 0.41111952
-0.087152235 -0.045615852 0.41119739
-0.086431377 -0.045626864 0.41129667
-0.085714944 -0.045640428 0.41141891
-0.085003197 -0.045656737 0.41156596
-0.084295467 -0.045675516 0.41173524
-0.083591752 -0.045696825 0.41192731
-0.08289174 -0.045720555 0.41214123
-0.082195781 -0.045746975 0.41237938
-0.081504017 -0.045776226 0.41264307
-0.080815613 -0.045807928 0.41292882
-0.080131061 -0.04584242 0.41323978
-0.079450265 -0.045879733 0.4135761
-0.078773946 -0.045920357 0.41394231
-0.078100748 -0.0459636 0.41433212
-0.077432558 -0.046010651 0.41475624
-0.076768085 -0.046060849 0.41520876
-0.07610859 -0.046115056 0.4156974
-0.07545311 -0.046172801 0.41621792
-0.074802138 -0.046234488 0.416774
-0.074155882 -0.046300374 0.41736791
-0.073515311 -0.046371195 0.41800633
-0.072880715 -0.046447296 0.41869232
-0.072252586 -0.046529155 0.41943023
-0.071631446 -0.046617292 0.42022473
-0.071018457 -0.046712674 0.42108455
-0.0704161 -0.046817191 0.42202669
-0.06982284 -0.046930108 0.42304456
-0.069246948 -0.047057316 0.42419127
-0.068688661 -0.047199469 0.42547268
-0.068156801 -0.047363199 0.42694861
-0.067666315 -0.047559749 0.42872038
-0.067260683 -0.047821179 0.431077
-0.10905077 -0.04629875 0.42425168
-0.10770261 -0.046049528 0.42196795
-0.10655447 -0.045882884 0.42044097
-0.1054946 -0.045752134 0.41924286
-0.10449225 -0.045644633 0.41825777
-0.10352996 -0.045553185 0.41741979
-0.10259879 -0.04547419 0.41669595
-0.10169233 -0.045405064 0.4160625
-0.10080856 -0.045345116 0.41551319
-0.099941641 -0.045291904 0.41502559
-0.099089243 -0.045244522 0.41459143
-0.098252535 -0.045203637 0.41421679
-0.097428285 -0.045167901 0.41388932
-0.096614227 -0.045136377 0.41360044
-0.095809668 -0.045108832 0.41334805
-0.095014602 -0.045085359 0.41313297
-0.094228625 -0.045065865 0.41295433
-0.09345106 -0.045050111 0.41280997
-0.092680275 -0.0450374 0.4126935
-0.091916166 -0.045027759 0.41260514
-0.091158286 -0.045021031 0.41254351
-0.090407409 -0.045017682 0.41251281
-0.089662276 -0.04501716 0.41250801
-0.088922508 -0.045019343 0.41252804
-0.088188894 -0.045024712 0.41257721
-0.087460153 -0.045032676 0.4126502
-0.086736068 -0.045043193 0.41274658
-0.086016387 -0.045056202 0.41286579
-0.085301913 -0.045072187 0.41301227
-0.084591947 -0.045090862 0.41318336
-0.083886564 -0.04511233 0.41338009
-0.083184838 -0.045136169 0.41359854
-0.082487702 -0.04516295 0.41384396
-0.081795238 -0.045192804 0.41411752
-0.08110638 -0.045225218 0.41441453
-0.080422632 -0.045261111 0.41474342
-0.079742983 -0.045300007 0.41509983
-0.079067253 -0.045341883 0.41548356
-0.078396387 -0.045387384 0.4159005
-0.077730246 -0.04543652 0.41635075
-0.077069171 -0.045489609 0.41683725
-0.076412268 -0.045546226 0.41735604
-0.075761423 -0.045607623 0.41791865
-0.07511548 -0.045673229 0.41851982
-0.074476227 -0.045744281 0.41917089
-0.073844306 -0.045821339 0.41987699
-0.073219433 -0.045904413 0.42063823
-0.072602883 -0.045994498 0.4214637
-0.071997747 -0.046093795 0.42237359
-0.071404099 -0.046202652 0.42337111
-0.070824079 -0.046322778 0.42447186
-0.070266291 -0.046460226 0.42573133
-0.069732115 -0.046616498 0.4271633
-0.069240056 -0.046804734 0.42888817
-0.068820029 -0.04704646 0.4311032
-0.06867981 -0.047487181 0.43514168
-0.10793591 -0.045709513 0.42589182
-0.1065098 -0.045428913 0.42327738
-0.10533535 -0.045252375 0.4216325
-0.10426886 -0.045119978 0.42039892
-0.10326338 -0.045012243 0.41939512
-0.10230171 -0.044922151 0.41855571
-0.10137374 -0.044845633 0.41784275
-0.10047152 -0.044779442 0.41722602
-0.099593356 -0.044723053 0.41670063
-0.098729677 -0.044672363 0.41622832
-0.097884394 -0.044629283 0.41582695
-0.097052537 -0.044591706 0.41547683
-0.096233442 -0.044559456 0.41517633
-0.095424101 -0.044531249 0.41491351
-0.094625115 -0.044507466 0.41469193
-0.093837902 -0.044488885 0.4145188
-0.093057834 -0.044473425 0.41437474
-0.092284955 -0.044461172 0.4142606
-0.091520473 -0.044452801 0.4141826
-0.090762667 -0.044447564 0.41413379
-0.09001103 -0.044445284 0.41411254
-0.089264907 -0.044445708 0.4141165
-0.088526964 -0.044450246 0.41415879
-0.087793052 -0.044456907 0.41422084
-0.087066121 -0.044467248 0.41431719
-0.086343125 -0.044479791 0.41443408
-0.085626431 -0.044495828 0.4145835
-0.084914096 -0.04451444 0.41475689
-0.084206417 -0.044535842 0.4149563
-0.083503798 -0.044560321 0.41518441
-0.082805783 -0.044587731 0.41543978
-0.08211264 -0.044618282 0.41572446
-0.081424631 -0.044652216 0.41604063
-0.08074078 -0.044689082 0.4163841
-0.080062464 -0.044729732 0.41676286
-0.079388618 -0.044773676 0.41717231
-0.078720942 -0.044821974 0.4176223
-0.078058511 -0.044874214 0.41810906
-0.077400766 -0.044930201 0.41863069
-0.07674928 -0.044990957 0.41919678
-0.076104492 -0.045056891 0.4198111
-0.075467736 -0.045128945 0.42048249
-0.074839152 -0.045207407 0.42121354
-0.074218735 -0.045292459 0.42200598
-0.07360936 -0.045386083 0.42287832
-0.073013604 -0.045490153 0.42384797
-0.072433777 -0.045606453 0.42493159
-0.07187397 -0.045737982 0.42615709
-0.071345292 -0.045892376 0.42759565
-0.070862614 -0.04608006 0.42934436
-0.070472322 -0.046332631 0.43169764
-0.10543272 -0.044856831 0.42509148
-0.10418789 -0.044651955 0.42314994
-0.10309853 -0.044511177 0.42181584
-0.10208146 -0.044399742 0.42075983
-0.1011188 -0.044310484 0.41991395
-0.10018972 -0.044234704 0.41919583
-0.09929207 -0.044171758 0.41859931
-0.098416157 -0.044117585 0.41808593
-0.097556919 -0.044070113 0.41763607
-0.096716799 -0.044030607 0.41726166
-0.095890664 -0.043996893 0.41694218
-0.095076688 -0.043968271 0.41667092
-0.094273716 -0.043944322 0.41644397
-0.0934828 -0.043925654 0.41626707
-0.092699856 -0.043910459 0.41612306
-0.091925763 -0.043899242 0.41601676
-0.091160223 -0.043891959 0.41594774
-0.090401076 -0.04388766 0.415907
-0.089649506 -0.043886997 0.41590074
-0.08890456 -0.043889593 0.41592532
-0.088167548 -0.043896183 0.41598779
-0.08743538 -0.043905322 0.41607437
-0.086709023 -0.043917555 0.41619033
-0.085989147 -0.043933321 0.41633973
-0.085274577 -0.043952096 0.41651765
-0.084565535 -0.043974079 0.41672596
-0.083861761 -0.043999217 0.4169642
-0.083163045 -0.044027496 0.41723219
-0.082469337 -0.04405896 0.41753036
-0.081780456 -0.044093609 0.41785872
-0.081098966 -0.044132926 0.41823131
-0.080422498 -0.044175737 0.41863701
-0.079752304 -0.044222839 0.41908339
-0.079088651 -0.044274509 0.41957304
-0.078431047 -0.044330589 0.4201045
-0.077778935 -0.044390906 0.42067608
-0.077135451 -0.04445738 0.42130601
-0.076503232 -0.044531733 0.42201063
-0.075879745 -0.044612717 0.4227781
-0.07526584 -0.044701029 0.42361501
-0.074668981 -0.044801388 0.42456606
-0.074089199 -0.044914175 0.42563492
-0.073531963 -0.045043141 0.42685705
-0.073011495 -0.045197595 0.42832077
-0.072551884 -0.045393426 0.43017659
-0.072237737 -0.045685489 0.43294436
-0.10486762 -0.044501018 0.42905384
-0.10319125 -0.044115219 0.42533416
-0.10202769 -0.043944512 0.42368829
-0.10098282 -0.043822736 0.4225142
-0.10001083 -0.043730974 0.42162949
-0.099076085 -0.043654215 0.42088941
-0.09817908 -0.043593027 0.4202995
-0.09730123 -0.043539461 0.41978303
-0.096448928 -0.043496575 0.41936955
-0.095612593 -0.043460269 0.41901952
-0.094791189 -0.043430224 0.41872984
-0.093982309 -0.043405484 0.4184913
-0.093186602 -0.043386474 0.41830802
-0.092400104 -0.043371476 0.41816342
-0.091622651 -0.043360513 0.41805771
-0.090854242 -0.043353684 0.41799188
-0.090095751 -0.043351512 0.41797093
-0.089343503 -0.043352332 0.41797885
-0.088600688 -0.043357782 0.41803139
-0.087863214 -0.043365967 0.41811028
-0.087132357 -0.043377582 0.41822228
-0.086408146 -0.043392736 0.4183684
-0.085691497 -0.043411992 0.41855404
-0.084979564 -0.043433998 0.41876623
-0.084275201 -0.043460306 0.41901988
-0.083576292 -0.043489926 0.41930544
-0.082884796 -0.043523978 0.41963378
-0.082197942 -0.043561123 0.41999188
-0.081518672 -0.04360301 0.42039573
-0.080846384 -0.043649457 0.42084354
-0.080181405 -0.043700766 0.42133826
-0.079524852 -0.043757696 0.42188713
-0.078876071 -0.043820038 0.42248821
-0.078234635 -0.04388772 0.42314076
-0.077608816 -0.043965586 0.42389148
-0.076993003 -0.044050723 0.42471233
-0.076394111 -0.04414735 0.42564395
-0.075817898 -0.044259179 0.42672217
-0.075270735 -0.044390433 0.42798764
-0.074771881 -0.044553194 0.42955688
-0.074371487 -0.044778645 0.43173054
-0.10119287 -0.043478306 0.42661276
-0.1000511 -0.043317143 0.42503142
-0.099039525 -0.043210294 0.42398301
-0.098088011 -0.043128192 0.42317742
-0.097176306 -0.043062441 0.42253226
-0.096294947 -0.043009207 0.42200992
-0.095436886 -0.04296561 0.42158216
-0.094598234 -0.042930122 0.42123395
-0.093776904 -0.042901982 0.42095783
-0.092969082 -0.042879619 0.4207384
-0.092173107 -0.042862393 0.42056936
-0.09138938 -0.042850621 0.42045388
-0.090616725 -0.042843889 0.42038783
-0.08985316 -0.042841379 0.42036319
-0.089098915 -0.042843308 0.42038211
-0.088353395 -0.0428495 0.42044288
-0.087617248 -0.042860385 0.42054969
-0.086888745 -0.042875234 0.42069536
-0.086168952 -0.042894676 0.42088616
-0.085455306 -0.042917553 0.4211106
-0.084752433 -0.042946301 0.42139268
-0.084055178 -0.042978439 0.42170805
-0.083367378 -0.043016043 0.422077
-0.082687728 -0.043058585 0.42249444
-0.08201769 -0.043106969 0.42296919
-0.081355512 -0.043160435 0.4234938
-0.080705471 -0.043221414 0.42409211
-0.080065176 -0.043288827 0.42475358
-0.079438597 -0.043365031 0.42550132
-0.078830086 -0.043452684 0.42636135
-0.078239284 -0.043551918 0.42733505
-0.077681907 -0.043671917 0.42851248
-0.07716573 -0.043817729 0.4299432
-0.076750286 -0.044024277 0.43196988
-0.098421693 -0.042842384 0.42794734
-0.097347252 -0.042709664 0.42662162
-0.096364275 -0.042615276 0.42567879
-0.095443577 -0.042547137 0.42499813
-0.094557039 -0.042493243 0.42445982
-0.093694963 -0.042449556 0.42402342
-0.092859335 -0.042417224 0.42370048
-0.092040032 -0.042391881 0.42344731
-0.091237091 -0.042373709 0.42326581
-0.090450726 -0.042362995 0.42315879
-0.089677431 -0.042358276 0.42311165
-0.088916719 -0.042359468 0.42312354
-0.088168189 -0.042366531 0.42319411
-0.087433532 -0.042380445 0.42333308
-0.086712725 -0.042401377 0.42354217
-0.086002298 -0.042427801 0.4238061
-0.085303791 -0.042460632 0.42413405
-0.084617801 -0.042500343 0.42453074
-0.083945021 -0.042547476 0.42500153
-0.083286822 -0.042602938 0.42555553
-0.082645051 -0.04266791 0.42620453
-0.082019173 -0.042742386 0.42694846
-0.081415325 -0.042829864 0.42782226
-0.080837145 -0.042932644 0.42884895
-0.080306247 -0.043062769 0.43014875
-0.079858601 -0.043240514 0.43192419
-0.094124213 -0.042220328 0.42947191
-0.093093827 -0.04210468 0.42829552
-0.09215387 -0.042028334 0.42751893
-0.091268972 -0.041976027 0.42698684
-0.090425529 -0.041942056 0.42664129
-0.089612871 -0.041921902 0.42643628
-0.088831685 -0.041916247 0.42637879
-0.08807952 -0.041924313 0.4264608
-0.087360062 -0.041948225 0.42670405
-0.086673193 -0.041988347 0.42711219
-0.086019732 -0.042045519 0.42769375
-0.085399054 -0.042119898 0.42845032
-0.084834144 -0.042223386 0.42950305
-0.084361054 -0.042374909 0.43104434
