# .PCD v0.7 - Point Cloud Data file format
VERSION 0.7
FIELDS x y z
SIZE 4 4 4
TYPE F F F
COUNT 1 1 1
WIDTH 1335
HEIGHT 1
VIEWPOINT 0 0 0 1 0 0 0
POINTS 1335
DATA ascii
-0.22405255 -0.022123681 0.4459995
-0.22345921 -0.022144606 0.44642136
-0.22287235 -0.022166329 0.44685924
-0.22229128 -0.022188785 0.44731194
-0.22171631 -0.022212017 0.44778031
-0.22114778 -0.022236066 0.44826511
-0.22058587 -0.02226096 0.44876695
-0.22003052 -0.0222867 0.44928586
-0.21948181 -0.022313308 0.44982225
-0.21894027 -0.022340843 0.45037737
-0.21840547 -0.022369275 0.45095053
-0.21787828 -0.022398701 0.45154375
-0.21735862 -0.022429125 0.45215708
-0.21684709 -0.022460623 0.45279202
-0.21634357 -0.022493187 0.45344853
-0.21584852 -0.022526884 0.45412785
-0.21536233 -0.022561766 0.45483103
-0.21488562 -0.022597915 0.45555976
-0.21441986 -0.022635493 0.45631731
-0.21396545 -0.022674566 0.45710498
-0.21352297 -0.022715209 0.45792434
-0.21309195 -0.022757394 0.45877475
-0.21267483 -0.022801396 0.45966178
-0.21227261 -0.022847345 0.46058813
-0.21188663 -0.022895413 0.46155712
-0.21151832 -0.022945773 0.46257237
-0.21117157 -0.022998884 0.46364304
-0.21084625 -0.02305476 0.46476945
-0.21054794 -0.023114044 0.46596462
-0.21028106 -0.02317727 0.4672392
-0.21005037 -0.023245011 0.4686048
-0.20986947 -0.023318829 0.47009295
-0.20974687 -0.023399752 0.4717243
-0.2097047 -0.023490343 0.47355056
-0.20977823 -0.023594689 0.4756541
-0.21004933 -0.023722203 0.47822472
-0.21080202 -0.023905383 0.4819175
-0.25500849 -0.021150937 0.44247979
-0.25399938 -0.021133387 0.44211262
-0.25301817 -0.021118052 0.44179183
-0.25206056 -0.021104598 0.44151035
-0.25112432 -0.021092853 0.44126463
-0.25020775 -0.021082688 0.44105199
-0.24930984 -0.021074038 0.44087103
-0.24842817 -0.021066708 0.4407177
-0.24756232 -0.021060679 0.44059154
-0.24671082 -0.021055834 0.44049022
-0.24587221 -0.021052064 0.44041133
-0.24504602 -0.021049334 0.44035423
-0.2442321 -0.021047644 0.44031888
-0.24342957 -0.021046929 0.44030389
-0.24263731 -0.021047099 0.44030747
-0.24185483 -0.021048121 0.44032887
-0.24108262 -0.021050047 0.44036916
-0.24031931 -0.021052767 0.44042602
-0.23956503 -0.021056296 0.44049987
-0.23881936 -0.02106061 0.44059011
-0.23808169 -0.021065658 0.44069573
-0.23735262 -0.021071507 0.44081807
-0.23663095 -0.02107805 0.44095498
-0.2359163 -0.021085268 0.44110596
-0.23520945 -0.021093233 0.44127259
-0.23450918 -0.021101845 0.44145277
-0.23381667 -0.021111215 0.44164878
-0.23313048 -0.021121223 0.44185814
-0.23245126 -0.021131933 0.4420822
-0.2317781 -0.021143269 0.44231936
-0.23111108 -0.021155246 0.44256991
-0.23045135 -0.021167975 0.4428362
-0.22979733 -0.021181321 0.44311538
-0.2291493 -0.021195311 0.44340807
-0.22850788 -0.021210013 0.44371563
-0.22787179 -0.021225316 0.4440358
-0.22724275 -0.021241385 0.44437197
-0.22661935 -0.021258097 0.44472158
-0.22600178 -0.021275479 0.4450852
-0.22539042 -0.021293569 0.44546366
-0.22478487 -0.021312339 0.44585633
-0.2241856 -0.021331843 0.44626436
-0.22359237 -0.021352064 0.44668737
-0.22300531 -0.021373022 0.44712582
-0.22242415 -0.0213947 0.44757932
-0.22184967 -0.02141718 0.4480496
-0.22128144 -0.021440431 0.44853604
-0.22072004 -0.021464517 0.44903991
-0.2201649 -0.021489391 0.44956025
-0.21961713 -0.021515172 0.45009959
-0.21907561 -0.021541758 0.45065576
-0.2185415 -0.021569273 0.45123139
-0.21801473 -0.021597721 0.45182654
-0.21749681 -0.021627262 0.45244455
-0.21698581 -0.021657718 0.45308167
-0.21648394 -0.021689318 0.45374274
-0.21599045 -0.021722 0.45442647
-0.21550563 -0.021755807 0.45513371
-0.21503115 -0.02179092 0.45586827
-0.21456651 -0.021827303 0.45662943
-0.21411476 -0.021865282 0.45742396
-0.21367344 -0.021904627 0.45824704
-0.2132459 -0.021945694 0.45910618
-0.21283244 -0.021988535 0.46000242
-0.2124335 -0.02203322 0.46093723
-0.21205188 -0.022080058 0.46191707
-0.21168852 -0.022129174 0.4629446
-0.21134754 -0.022181029 0.46402937
-0.21102928 -0.02223569 0.46517289
-0.21073811 -0.022293651 0.46638548
-0.21048148 -0.022355748 0.46768454
-0.21026373 -0.022422491 0.46908081
-0.21009758 -0.022495298 0.47060391
-0.20999557 -0.022575589 0.47228363
-0.20998389 -0.022666285 0.474181
-0.2101053 -0.02277215 0.4763957
-0.21047235 -0.022905614 0.47918779
-0.21165431 -0.023129232 0.48386592
-0.25526044 -0.020372897 0.44291696
-0.25424138 -0.020355277 0.44253385
-0.2532509 -0.020339835 0.44219816
-0.25228584 -0.020326348 0.44190493
-0.25134236 -0.020314516 0.44164771
-0.25041959 -0.020304291 0.44142538
-0.2495164 -0.020295592 0.44123629
-0.24862945 -0.020288164 0.44107479
-0.24775891 -0.020282028 0.44094142
-0.24690264 -0.020277029 0.4408327
-0.24606033 -0.020273145 0.44074827
-0.24523124 -0.020270329 0.44068706
-0.24441397 -0.020268476 0.44064677
-0.24360812 -0.020267559 0.44062686
-0.24281299 -0.020267533 0.44062626
-0.24202809 -0.020268362 0.44064429
-0.24125315 -0.020270035 0.44068065
-0.24048786 -0.020272531 0.44073492
-0.23973133 -0.020275783 0.44080564
-0.23898342 -0.020279791 0.44089279
-0.23824389 -0.020284539 0.44099599
-0.23751298 -0.020290054 0.44111589
-0.23678933 -0.020296227 0.44125012
-0.23607327 -0.020303097 0.44139946
-0.23536554 -0.020310732 0.44156542
-0.23466401 -0.020318955 0.44174421
-0.23397009 -0.020327896 0.44193858
-0.23328269 -0.020337464 0.44214663
-0.23260216 -0.020347703 0.44236919
-0.23192832 -0.020358596 0.44260603
-0.23126039 -0.020370087 0.44285583
-0.23060024 -0.020382343 0.4431223
-0.22994533 -0.02039515 0.44340074
-0.22929677 -0.020408614 0.44369343
-0.22865459 -0.02042274 0.44400054
-0.22801793 -0.02043746 0.44432056
-0.22738828 -0.020452915 0.44465655
-0.22676469 -0.020469025 0.44500682
-0.22614673 -0.020485761 0.44537064
-0.22553559 -0.020503236 0.44575056
-0.2249296 -0.020521306 0.44614342
-0.22433063 -0.020540148 0.44655305
-0.22373731 -0.020559644 0.44697693
-0.22314957 -0.020579798 0.44741505
-0.22256936 -0.020600794 0.44787154
-0.22199492 -0.020622479 0.44834298
-0.22142707 -0.020644937 0.44883123
-0.22086611 -0.020668205 0.4493371
-0.22031221 -0.020692308 0.44986108
-0.21976434 -0.020717157 0.45040131
-0.21922371 -0.020742875 0.45096043
-0.21869063 -0.020769501 0.45153931
-0.21816541 -0.020797076 0.45213881
-0.21764778 -0.020825583 0.45275858
-0.21713845 -0.020855106 0.4534004
-0.21663757 -0.020885663 0.45406473
-0.21614586 -0.020917341 0.45475343
-0.21566291 -0.020950111 0.45546585
-0.21519022 -0.020984132 0.45620549
-0.21472906 -0.021019543 0.45697534
-0.21427727 -0.021056147 0.45777115
-0.21383996 -0.021094466 0.45860419
-0.21341591 -0.02113439 0.45947218
-0.21300581 -0.021176016 0.46037716
-0.21261106 -0.021219499 0.46132249
-0.21223456 -0.021265151 0.46231499
-0.21187744 -0.021313116 0.46335775
-0.21154153 -0.021363601 0.46445534
-0.21123135 -0.021417096 0.46561834
-0.21095052 -0.021474006 0.46685559
-0.21070395 -0.021534873 0.46817887
-0.21050073 -0.021600679 0.46960953
-0.2103533 -0.021672765 0.47117671
-0.21027918 -0.021753019 0.47292146
-0.21030495 -0.021844303 0.47490603
-0.21049221 -0.021953177 0.47727299
-0.21101198 -0.022097763 0.48041639
-0.25553766 -0.019595219 0.443398
-0.25450692 -0.019577455 0.44299603
-0.25350609 -0.019561889 0.44264379
-0.25253135 -0.019548239 0.44233495
-0.25158048 -0.019536361 0.44206616
-0.25065103 -0.019526074 0.44183338
-0.24974146 -0.019517276 0.4416343
-0.24884893 -0.019509757 0.44146416
-0.24797325 -0.019503513 0.44132289
-0.24711283 -0.019498436 0.44120798
-0.24626575 -0.019494381 0.44111624
-0.24543247 -0.019491395 0.44104868
-0.24461117 -0.019489346 0.44100231
-0.24380159 -0.019488219 0.4409768
-0.24300343 -0.019487999 0.44097185
-0.24221604 -0.019488648 0.44098648
-0.24143831 -0.019490078 0.44101888
-0.24067004 -0.019492285 0.4410688
-0.23991106 -0.019495262 0.44113615
-0.23916112 -0.019498993 0.44122061
-0.23842008 -0.01950348 0.44132212
-0.2376866 -0.019508617 0.44143835
-0.23696181 -0.019514503 0.44157153
-0.23624444 -0.019521041 0.4417195
-0.23553444 -0.019528236 0.44188231
-0.23483194 -0.019536104 0.44206035
-0.23413639 -0.019544605 0.4422527
-0.23344804 -0.019553768 0.44246003
-0.23276588 -0.019563515 0.44268057
-0.23209125 -0.01957396 0.44291696
-0.23142275 -0.019584998 0.44316673
-0.23076142 -0.019596724 0.44343203
-0.23010558 -0.019608997 0.44370976
-0.22945641 -0.019621927 0.44400233
-0.22881348 -0.019635484 0.44430909
-0.2281772 -0.019649707 0.44463092
-0.22754695 -0.01966455 0.44496682
-0.22692257 -0.01968001 0.44531664
-0.22630475 -0.019696152 0.44568187
-0.22569263 -0.019712903 0.44606093
-0.22508751 -0.019730389 0.44645661
-0.22448777 -0.019748475 0.44686586
-0.22389421 -0.019767236 0.44729036
-0.22330721 -0.019786716 0.44773114
-0.2227269 -0.019806929 0.44818854
-0.22215305 -0.019827869 0.44866234
-0.22158584 -0.019849554 0.44915304
-0.22102548 -0.019872015 0.44966131
-0.22047174 -0.019895241 0.45018682
-0.21992508 -0.019919276 0.45073071
-0.21938489 -0.019944081 0.45129201
-0.21885291 -0.019969819 0.45187438
-0.21832925 -0.019996511 0.45247838
-0.21781236 -0.020024026 0.45310095
-0.21730407 -0.020052541 0.4537462
-0.21680558 -0.020082179 0.45441687
-0.21631587 -0.020112861 0.45511112
-0.21583536 -0.020144634 0.45583007
-0.2153651 -0.020177608 0.45657623
-0.21490626 -0.020211913 0.45735246
-0.21445817 -0.020247495 0.4581576
-0.21402244 -0.020284526 0.45899552
-0.21360087 -0.020323191 0.45987043
-0.21319585 -0.020363737 0.46078789
-0.21280704 -0.020406155 0.46174774
-0.21243519 -0.020450538 0.46275204
-0.21208507 -0.020497374 0.46381181
-0.21175614 -0.020546636 0.46492651
-0.21145672 -0.020599162 0.46611509
-0.21118669 -0.020654986 0.46737826
-0.21095452 -0.020714972 0.46873561
-0.21076757 -0.0207799 0.4702048
-0.21064331 -0.02085156 0.47182629
-0.2106009 -0.020931935 0.473645
-0.21067733 -0.021024825 0.47574693
-0.21096218 -0.021139359 0.4783386
-0.21176428 -0.021306878 0.48212919
-0.25584334 -0.0188179 0.44392842
-0.25479895 -0.018799923 0.44350436
-0.2537851 -0.018784095 0.44313094
-0.25279978 -0.018770283 0.44280514
-0.25184175 -0.01875842 0.44252527
-0.25090435 -0.018748019 0.44227991
-0.24998745 -0.018739091 0.44206929
-0.24908832 -0.018731441 0.44188881
-0.24820703 -0.01872509 0.44173896
-0.24734099 -0.01871985 0.44161537
-0.24648884 -0.018715631 0.44151583
-0.24565119 -0.018712489 0.44144171
-0.24482593 -0.018710274 0.44138947
-0.24401262 -0.018708961 0.44135851
-0.24321085 -0.018708527 0.44134825
-0.24242011 -0.018708941 0.44135803
-0.24163927 -0.018710125 0.44138595
-0.24086864 -0.018712109 0.44143277
-0.24010696 -0.018714804 0.44149634
-0.23935474 -0.018718258 0.44157782
-0.23861115 -0.018722411 0.44167578
-0.23787588 -0.018727247 0.44178987
-0.23714852 -0.018732741 0.44191948
-0.23642983 -0.018738957 0.44206613
-0.23571758 -0.01874573 0.4422259
-0.23501343 -0.018753193 0.44240198
-0.23431684 -0.018761314 0.44259354
-0.23362677 -0.018770013 0.44279876
-0.23294444 -0.018779397 0.44302014
-0.23226838 -0.018789353 0.44325498
-0.23159911 -0.018799927 0.44350445
-0.23093686 -0.018811148 0.44376916
-0.23028031 -0.018822912 0.44404668
-0.22963102 -0.018835355 0.4443402
-0.22898702 -0.018848319 0.44464606
-0.22834946 -0.018861907 0.44496658
-0.22771958 -0.018876227 0.44530439
-0.22709447 -0.018891044 0.44565398
-0.22647631 -0.018906547 0.44601971
-0.2258639 -0.018922644 0.44639945
-0.22525823 -0.018939421 0.44679523
-0.22465882 -0.018956849 0.44720635
-0.22406545 -0.018974913 0.44763249
-0.22347865 -0.018993665 0.44807485
-0.22289866 -0.019013135 0.44853416
-0.22232504 -0.01903329 0.44900969
-0.22175813 -0.019054173 0.44950229
-0.22119744 -0.019075742 0.45001113
-0.2206444 -0.019098135 0.45053938
-0.22009906 -0.01912136 0.4510873
-0.21956052 -0.019145351 0.45165327
-0.21903004 -0.019170227 0.45224011
-0.21850735 -0.019195974 0.45284748
-0.21799244 -0.019222597 0.45347556
-0.21748625 -0.019250195 0.45412663
-0.21698894 -0.019278791 0.4548012
-0.21650082 -0.019308424 0.45550025
-0.21602318 -0.019339219 0.45622674
-0.21555588 -0.019371178 0.45698071
-0.21509974 -0.019404391 0.45776421
-0.21465586 -0.019438971 0.45857996
-0.21422437 -0.019474942 0.45942858
-0.21380775 -0.019512551 0.46031579
-0.21340588 -0.019551806 0.46124184
-0.21302046 -0.019592879 0.4622108
-0.21265656 -0.019636262 0.46323425
-0.21231303 -0.019681878 0.46431035
-0.21199463 -0.019730194 0.46545014
-0.21170512 -0.019781591 0.46666265
-0.21144958 -0.019836588 0.46796006
-0.21123314 -0.019895706 0.46935472
-0.21107061 -0.0199604 0.47088087
-0.21097177 -0.020031665 0.47256204
-0.21097082 -0.020112837 0.47447699
-0.21111859 -0.020208908 0.47674337
-0.21154743 -0.02033278 0.47966561
-0.25617939 -0.018040802 0.4445115
-0.25511944 -0.018022565 0.44406217
-0.25409281 -0.018006576 0.44366822
-0.25309762 -0.017992722 0.44332686
-0.25212854 -0.017980641 0.4430292
-0.25118122 -0.01797004 0.44276798
-0.25025633 -0.017960982 0.44254479
-0.24935 -0.0179532 0.44235304
-0.24846224 -0.017946711 0.44219318
-0.24758947 -0.017941266 0.44205901
-0.246732 -0.017936898 0.44195139
-0.24588916 -0.017933568 0.44186935
-0.24505933 -0.017931171 0.44181025
-0.24424219 -0.017929688 0.44177374
-0.24343595 -0.017928997 0.44175673
-0.24264158 -0.017929181 0.44176126
-0.24185726 -0.017930111 0.44178414
-0.24108344 -0.017931826 0.44182643
-0.2403193 -0.017934276 0.44188678
-0.23956478 -0.017937463 0.44196528
-0.23881936 -0.017941354 0.44206119
-0.23808211 -0.017945888 0.44217288
-0.23735268 -0.017951043 0.4422999
-0.23663184 -0.017956885 0.44244385
-0.23591879 -0.017963359 0.44260338
-0.23521324 -0.017970452 0.44277811
-0.23451501 -0.017978152 0.44296786
-0.2338239 -0.017986454 0.4431724
-0.23313986 -0.017995358 0.4433918
-0.23246247 -0.018004838 0.44362539
-0.23179209 -0.01801493 0.44387403
-0.23112884 -0.018025646 0.44413808
-0.23047146 -0.018036896 0.44441527
-0.22982091 -0.018048761 0.44470763
-0.2291767 -0.018061211 0.44501436
-0.22853903 -0.018074265 0.44533598
-0.22790797 -0.018087935 0.44567281
-0.22728254 -0.018102149 0.44602305
-0.22666414 -0.018117027 0.44638965
-0.22605176 -0.018132495 0.44677073
-0.22544576 -0.018148586 0.44716722
-0.22484599 -0.018165296 0.44757894
-0.22425328 -0.018182699 0.44800773
-0.22366615 -0.018200681 0.4484508
-0.22308642 -0.018219398 0.44891199
-0.22251333 -0.018238798 0.44938996
-0.2219474 -0.018258927 0.44988593
-0.22138731 -0.018279687 0.45039743
-0.22083484 -0.01830123 0.45092824
-0.22028984 -0.018323554 0.4514783
-0.21975207 -0.018346649 0.45204732
-0.21922214 -0.018370571 0.45263675
-0.21870081 -0.018395396 0.45324841
-0.21818781 -0.01842111 0.45388198
-0.21768351 -0.018447755 0.45453849
-0.21718849 -0.018475391 0.45521945
-0.21670365 -0.018504107 0.45592698
-0.21622835 -0.018533858 0.45666003
-0.21576431 -0.018564807 0.45742258
-0.21531184 -0.018596992 0.45821559
-0.21487144 -0.018630471 0.45904049
-0.21444541 -0.018665461 0.45990261
-0.21403313 -0.018701924 0.46080104
-0.21363653 -0.018740047 0.46174034
-0.21325938 -0.018780181 0.46272922
-0.21290171 -0.018822351 0.46376827
-0.21256725 -0.018866915 0.46486631
-0.21225938 -0.018914202 0.4660314
-0.21198137 -0.018964536 0.4672716
-0.21174237 -0.019018775 0.46860802
-0.21154717 -0.0190774 0.47005248
-0.21141115 -0.019141855 0.47164059
-0.2113512 -0.019213745 0.47341192
-0.21140432 -0.019296542 0.47545195
-0.2116567 -0.019398272 0.47795853
-0.21235846 -0.019542189 0.48150453
-0.25655431 -0.017264219 0.44516206
-0.25547603 -0.017245635 0.44468287
-0.25443453 -0.017229425 0.44426489
-0.25342545 -0.017215315 0.44390106
-0.25244275 -0.017202914 0.44358128
-0.25148618 -0.017192218 0.44330552
-0.25055102 -0.017182926 0.44306588
-0.24963625 -0.017174974 0.44286087
-0.24874081 -0.017168306 0.44268894
-0.24786174 -0.017162729 0.44254515
-0.24699752 -0.017158149 0.44242701
-0.24614939 -0.017154658 0.44233701
-0.24531479 -0.017152091 0.44227082
-0.24449272 -0.017150387 0.44222689
-0.24368303 -0.017149542 0.4422051
-0.2428854 -0.017149543 0.44220513
-0.24209802 -0.017150272 0.44222391
-0.24132109 -0.017151747 0.44226193
-0.24055366 -0.017153909 0.44231772
-0.2397961 -0.017156793 0.44239205
-0.23904762 -0.017160347 0.44248369
-0.23830764 -0.017164538 0.44259176
-0.23757617 -0.017169371 0.44271639
-0.23685376 -0.017174894 0.44285879
-0.23613822 -0.017180955 0.44301507
-0.2354304 -0.017187618 0.44318691
-0.23473036 -0.017194899 0.44337463
-0.23403774 -0.017202774 0.44357771
-0.23335256 -0.017211253 0.44379631
-0.23267356 -0.017220246 0.44402823
-0.23200232 -0.017229879 0.4442766
-0.23133774 -0.017240074 0.44453949
-0.23067926 -0.017250797 0.44481596
-0.23002796 -0.017262133 0.44510829
-0.22938347 -0.017274061 0.44541585
-0.22874518 -0.017286543 0.44573769
-0.22811258 -0.017299542 0.44607291
-0.22748788 -0.017313236 0.446426
-0.22686906 -0.017327476 0.4467932
-0.22625637 -0.017342288 0.44717512
-0.22565056 -0.017357735 0.44757342
-0.22505064 -0.017373748 0.4479863
-0.22445858 -0.017390484 0.44841784
-0.22387172 -0.017407747 0.44886297
-0.22329253 -0.017425733 0.44932675
-0.2227198 -0.017444357 0.44980696
-0.22215374 -0.017463639 0.45030418
-0.22159539 -0.017483672 0.45082074
-0.22104393 -0.0175044 0.45135519
-0.22049938 -0.017525829 0.45190775
-0.21996345 -0.017548105 0.45248213
-0.21943554 -0.017571189 0.45307738
-0.21891542 -0.017595071 0.45369318
-0.21840432 -0.017619861 0.45433238
-0.21790132 -0.017645493 0.45499331
-0.21740894 -0.017672183 0.4556815
-0.21692577 -0.017699825 0.45639428
-0.21645316 -0.017728545 0.45713484
-0.21599257 -0.017758472 0.45790648
-0.21554367 -0.017789593 0.45870897
-0.21510842 -0.017822085 0.4595468
-0.21468739 -0.017856011 0.46042159
-0.21428104 -0.017891426 0.46133476
-0.21389295 -0.017928649 0.46229455
-0.21352269 -0.017967662 0.46330053
-0.2131739 -0.018008796 0.46436119
-0.21285041 -0.018052401 0.46548554
-0.21255362 -0.018098624 0.46667743
-0.21228941 -0.018148001 0.46795061
-0.21207087 -0.018201692 0.46933502
-0.21190238 -0.018260125 0.47084174
-0.21179859 -0.018324627 0.47250494
-0.21178971 -0.018397894 0.47439417
-0.21192579 -0.018484401 0.47662473
-0.21233927 -0.018595904 0.47949988
-0.21423815 -0.018838936 0.48576656
-0.2569766 -0.016488327 0.44589478
-0.2558749 -0.016469184 0.44537714
-0.25481358 -0.01645253 0.44492677
-0.2537874 -0.016438046 0.44453508
-0.25279155 -0.016425442 0.4441942
-0.25182182 -0.01641446 0.44389719
-0.25087529 -0.016404925 0.44363934
-0.2499513 -0.016396806 0.44341978
-0.24904807 -0.016390001 0.44323578
-0.24816166 -0.016384264 0.44308063
-0.24729194 -0.016379595 0.44295436
-0.24643724 -0.016375894 0.44285429
-0.24559706 -0.016373137 0.44277972
-0.24477021 -0.016371254 0.44272879
-0.24395549 -0.016370172 0.44269952
-0.24315304 -0.016369909 0.4426924
-0.24236152 -0.016370382 0.44270521
-0.24158086 -0.016371595 0.44273803
-0.24080974 -0.016373465 0.44278857
-0.2400486 -0.016376028 0.44285789
-0.2392966 -0.016379233 0.44294456
-0.23855369 -0.016383084 0.44304872
-0.23782 -0.016387597 0.44317076
-0.23709425 -0.016392689 0.44330844
-0.23637678 -0.016398389 0.44346261
-0.23566771 -0.016404713 0.44363362
-0.23496568 -0.016411573 0.44381914
-0.23427157 -0.016419034 0.4440209
-0.23358439 -0.016427033 0.4442372
-0.23290423 -0.016435582 0.44446841
-0.23223136 -0.016444707 0.4447152
-0.23156512 -0.016454367 0.44497642
-0.23090595 -0.016464598 0.4452531
-0.23025438 -0.016475445 0.44554642
-0.22960855 -0.016486779 0.44585294
-0.22896907 -0.016498649 0.44617397
-0.22833683 -0.016511127 0.44651142
-0.22771177 -0.016524216 0.44686538
-0.22709225 -0.016537802 0.44723275
-0.22647965 -0.016551988 0.4476164
-0.22587322 -0.016566731 0.44801506
-0.22527416 -0.01658212 0.44843125
-0.22468181 -0.016598117 0.44886383
-0.22409524 -0.016614657 0.44931114
-0.22351682 -0.016631924 0.44977808
-0.22294489 -0.016649799 0.45026153
-0.22238037 -0.016668364 0.45076355
-0.22182226 -0.016687546 0.45128229
-0.22127257 -0.016707506 0.45182207
-0.22072987 -0.016728142 0.45238012
-0.22019567 -0.016749578 0.45295981
-0.21966895 -0.016771745 0.45355931
-0.21915153 -0.01679479 0.45418251
-0.21864298 -0.016818691 0.45482886
-0.21814242 -0.016843388 0.45549676
-0.21765192 -0.016869051 0.45619076
-0.21717303 -0.016895814 0.45691448
-0.21670458 -0.016923595 0.4576658
-0.21624736 -0.01695247 0.45844665
-0.21580257 -0.016982544 0.45925993
-0.21537168 -0.017013948 0.4601092
-0.21495695 -0.017046876 0.4609997
-0.21455611 -0.017081166 0.461927
-0.21417621 -0.017117398 0.46290678
-0.21381503 -0.017155414 0.46393487
-0.21347767 -0.017195648 0.46502292
-0.2131668 -0.017238341 0.46617746
-0.2128865 -0.017283855 0.4674083
-0.21264206 -0.017332653 0.46872795
-0.21244471 -0.017385695 0.47016236
-0.2123064 -0.017444013 0.47173947
-0.21225002 -0.017509559 0.47351205
-0.21231006 -0.017585278 0.47555971
-0.21256921 -0.01767817 0.47807178
-0.21333581 -0.017814193 0.48175025
-0.25745219 -0.015713044 0.44672
-0.25632107 -0.015693126 0.44615376
-0.25523734 -0.015675994 0.44566667
-0.25419044 -0.015661024 0.44524106
-0.25317872 -0.01564813 0.4448745
-0.25219619 -0.015636967 0.44455713
-0.25123954 -0.015627339 0.44428343
-0.25030461 -0.015619008 0.44404656
-0.2493906 -0.015611932 0.44384539
-0.24849521 -0.015605979 0.44367614
-0.24761765 -0.015601112 0.44353777
-0.24675515 -0.015597165 0.44342557
-0.24590793 -0.015594161 0.44334018
-0.24507491 -0.015592041 0.44327992
-0.24425468 -0.015590725 0.44324246
-0.24344607 -0.015590142 0.44322592
-0.24265109 -0.015590433 0.44323418
-0.24186532 -0.015591319 0.44325936
-0.24109161 -0.01559299 0.44330686
-0.24032737 -0.015595287 0.44337219
-0.23957215 -0.015598187 0.44345462
-0.23882738 -0.015601789 0.44355702
-0.23809032 -0.01560592 0.44367447
-0.23736212 -0.015610662 0.4438093
-0.23664245 -0.015615999 0.44396102
-0.2359312 -0.01562193 0.44412965
-0.23522705 -0.015628373 0.44431281
-0.23453121 -0.015635414 0.44451299
-0.2338421 -0.015642954 0.44472733
-0.23316112 -0.015651092 0.44495869
-0.23248643 -0.015659709 0.44520366
-0.2318197 -0.015668923 0.44546562
-0.2311597 -0.015678657 0.4457424
-0.23050638 -0.015688917 0.44603404
-0.22986029 -0.015699739 0.44634175
-0.22922003 -0.015711039 0.44666299
-0.22858688 -0.015722908 0.44700041
-0.22796111 -0.015735369 0.44735467
-0.22734135 -0.015748335 0.44772333
-0.22672899 -0.015761908 0.44810921
-0.22612281 -0.01577601 0.44851011
-0.22552365 -0.015790705 0.44892788
-0.22493078 -0.015805947 0.44936121
-0.22434527 -0.015821818 0.44981244
-0.22376692 -0.015838312 0.45028135
-0.22319615 -0.015855463 0.45076898
-0.22263169 -0.015873192 0.45127299
-0.22207516 -0.015891617 0.4517968
-0.22152632 -0.015910732 0.45234022
-0.22098495 -0.015930524 0.45290291
-0.22045243 -0.015951103 0.45348799
-0.21992777 -0.015972408 0.45409369
-0.21941225 -0.015994538 0.45472285
-0.21890558 -0.016017482 0.45537513
-0.218408 -0.016041266 0.45605129
-0.21792144 -0.016066041 0.45675567
-0.21744536 -0.016091781 0.45748746
-0.21698178 -0.016118648 0.45825124
-0.21652915 -0.016146533 0.45904404
-0.21609113 -0.016175728 0.45987403
-0.21566644 -0.016206149 0.4607389
-0.21525735 -0.016237982 0.4616439
-0.21486689 -0.016271474 0.46259609
-0.21449429 -0.016306583 0.46359426
-0.21414421 -0.016343687 0.46464911
-0.21381877 -0.016382972 0.46576595
-0.21352226 -0.016424788 0.46695483
-0.21326132 -0.016469687 0.46823126
-0.21304205 -0.01651817 0.46960965
-0.2128761 -0.016571194 0.47111708
-0.21278045 -0.016630134 0.47279277
-0.21278612 -0.016697504 0.47470805
-0.21294865 -0.016777772 0.4769901
-0.21344236 -0.016884893 0.48003551
-0.25799468 -0.01493866 0.44766134
-0.25683036 -0.014917933 0.44704023
-0.25571972 -0.014900205 0.44650897
-0.25465104 -0.014884816 0.44604781
-0.25361836 -0.014871441 0.445647
-0.25261793 -0.014859878 0.44530052
-0.25164467 -0.014849845 0.44499987
-0.25069582 -0.014841193 0.44474059
-0.24976958 -0.014833828 0.44451988
-0.24886541 -0.014827729 0.44433713
-0.24797812 -0.014822601 0.44418347
-0.2471092 -0.014818542 0.44406182
-0.24625446 -0.014815309 0.44396493
-0.24541502 -0.014812978 0.44389507
-0.24458915 -0.014811454 0.44384941
-0.24377514 -0.01481064 0.44382504
-0.24297495 -0.014810665 0.44382575
-0.24218394 -0.014811249 0.44384328
-0.24140571 -0.014812623 0.44388443
-0.24063699 -0.01481459 0.44394338
-0.23987772 -0.014817155 0.44402024
-0.23912923 -0.014820405 0.44411764
-0.23838852 -0.01482416 0.44423017
-0.23765774 -0.014828561 0.44436204
-0.23693493 -0.014833489 0.44450974
-0.23622015 -0.014838956 0.44467357
-0.23551516 -0.014845079 0.44485703
-0.234817 -0.014851674 0.44505465
-0.23412631 -0.014858788 0.44526786
-0.23344336 -0.014866445 0.4454973
-0.2327676 -0.014874613 0.44574207
-0.23209879 -0.014883284 0.44600192
-0.23143792 -0.014892527 0.4462789
-0.23078363 -0.014902258 0.44657052
-0.23013626 -0.014912507 0.44687763
-0.22949588 -0.014923283 0.44720054
-0.22886243 -0.014934585 0.44753924
-0.22823584 -0.014946418 0.44789383
-0.22761559 -0.014958751 0.44826341
-0.22700278 -0.014971663 0.44865033
-0.22639722 -0.014985147 0.44905439
-0.22579789 -0.014999141 0.44947377
-0.22520602 -0.015013735 0.44991109
-0.22462104 -0.015028894 0.45036536
-0.22404316 -0.015044641 0.45083722
-0.22347307 -0.015061026 0.45132825
-0.22290967 -0.015077986 0.45183647
-0.22235446 -0.015095623 0.45236501
-0.22180764 -0.015113965 0.45291463
-0.22126852 -0.015132967 0.45348409
-0.22073776 -0.015152685 0.45407495
-0.22021556 -0.015173139 0.45468789
-0.21970342 -0.015194443 0.45532629
-0.21919923 -0.015216457 0.45598596
-0.21870656 -0.015239441 0.45667472
-0.2182236 -0.015263276 0.457389
-0.21775255 -0.015288129 0.45813376
-0.21729261 -0.015313955 0.45890766
-0.21684606 -0.015340926 0.4597159
-0.21641371 -0.015369112 0.46056053
-0.21599682 -0.015398617 0.46144471
-0.21559536 -0.015429456 0.46236885
-0.2152123 -0.015461855 0.46333972
-0.21485223 -0.015496165 0.46436787
-0.21451594 -0.015532465 0.46545568
-0.2142069 -0.015571033 0.46661142
-0.21393009 -0.015612255 0.46784672
-0.21369328 -0.015656736 0.46917963
-0.21350491 -0.015705133 0.47062996
-0.21337949 -0.015758565 0.47223115
-0.21334466 -0.015819144 0.47404647
-0.21344297 -0.01589012 0.4761734
-0.21378675 -0.01598002 0.47886738
-0.21502222 -0.01613757 0.48358867
-0.25863245 -0.014166097 0.44876796
-0.25741994 -0.014143953 0.44806647
-0.25627029 -0.014125135 0.44747031
-0.25516936 -0.014108891 0.44695571
-0.2541151 -0.014095133 0.44651988
-0.25309372 -0.014083116 0.44613922
-0.25210321 -0.014072746 0.44581071
-0.25114015 -0.014063848 0.44552881
-0.25020054 -0.014056209 0.44528684
-0.24928316 -0.014049776 0.44508302
-0.24838471 -0.014044371 0.44491178
-0.2475044 -0.014039958 0.44477201
-0.24664164 -0.014036516 0.44466296
-0.2457938 -0.014033904 0.44458023
-0.24496059 -0.014032112 0.44452345
-0.2441414 -0.014031115 0.44449186
-0.24333434 -0.01403081 0.44448221
-0.24253908 -0.014031187 0.44449413
-0.24175516 -0.014032223 0.44452697
-0.2409821 -0.0140339 0.44458008
-0.24021897 -0.014036166 0.4446519
-0.23946691 -0.014039098 0.44474477
-0.23872195 -0.014042468 0.44485152
-0.23798864 -0.014046547 0.44498074
-0.23726292 -0.014051103 0.44512507
-0.23654585 -0.014056205 0.44528669
-0.23583665 -0.014061811 0.44546428
-0.23513593 -0.014067962 0.44565913
-0.23444396 -0.01407468 0.44587198
-0.23375855 -0.01408184 0.4460988
-0.23308161 -0.014089562 0.44634339
-0.23241107 -0.014097725 0.44660202
-0.2317483 -0.014106418 0.44687739
-0.23109345 -0.014115656 0.44717002
-0.23044504 -0.014125353 0.44747722
-0.22980297 -0.014135507 0.44779891
-0.2291694 -0.014146259 0.44813952
-0.2285426 -0.014157506 0.44849581
-0.22792283 -0.01416927 0.44886848
-0.22730954 -0.014181522 0.4492566
-0.22670388 -0.01419434 0.44966266
-0.22610484 -0.014207666 0.45008481
-0.22551407 -0.014221609 0.45052651
-0.22492898 -0.014236012 0.45098278
-0.22435342 -0.014251125 0.45146155
-0.2237837 -0.014266721 0.45195562
-0.22322182 -0.014282932 0.45246917
-0.22266783 -0.014299769 0.45300254
-0.22212353 -0.014317355 0.45355967
-0.22158618 -0.014335521 0.45413512
-0.22105837 -0.014354439 0.45473447
-0.22053988 -0.014374107 0.45535752
-0.22002956 -0.014394457 0.45600218
-0.21952948 -0.014415631 0.45667297
-0.21904036 -0.014437689 0.45737171
-0.21856286 -0.014460681 0.45810008
-0.21809535 -0.014484511 0.458855
-0.21764137 -0.014509425 0.45964423
-0.21720256 -0.014535544 0.46047169
-0.2167771 -0.014562761 0.4613339
-0.21636784 -0.01459128 0.46223736
-0.21597828 -0.014621354 0.46319005
-0.21560954 -0.014653075 0.46419495
-0.21526231 -0.014686513 0.46525422
-0.21494307 -0.014722128 0.46638247
-0.214654 -0.014760098 0.46758533
-0.21440126 -0.014800876 0.46887714
-0.21419314 -0.014845069 0.47027713
-0.21404999 -0.014894134 0.47183147
-0.21398614 -0.014949132 0.47357371
-0.21403894 -0.015012751 0.47558913
-0.21429713 -0.015091347 0.47807896
-0.21512306 -0.015210722 0.48186064
-0.25939146 -0.013395802 0.45008492
-0.25811511 -0.01337174 0.44927648
-0.25691521 -0.013351498 0.44859636
-0.25577557 -0.013334271 0.44801754
-0.25468624 -0.013319566 0.44752344
-0.25363648 -0.013306842 0.44709596
-0.25262502 -0.013296054 0.44673347
-0.25164288 -0.013286743 0.44642067
-0.2506876 -0.013278797 0.44615367
-0.24975526 -0.013272019 0.44592592
-0.24884459 -0.013266352 0.44573551
-0.247953 -0.013261667 0.44557813
-0.247078 -0.013257844 0.44544968
-0.24622139 -0.013254985 0.44535363
-0.24537888 -0.013252869 0.44528252
-0.24455196 -0.013251584 0.44523934
-0.2437381 -0.013251 0.44521973
-0.24293619 -0.013251065 0.4452219
-0.24214701 -0.013251827 0.4452475
-0.24136862 -0.013253186 0.44529316
-0.24060035 -0.013255111 0.44535783
-0.23984301 -0.013257653 0.44544327
-0.23909545 -0.013260757 0.44554752
-0.23835769 -0.013264425 0.44567078
-0.23762833 -0.013268587 0.44581062
-0.23690827 -0.013273299 0.44596893
-0.23619577 -0.013278468 0.44614261
-0.23549274 -0.013284206 0.44633541
-0.23479825 -0.013290468 0.44654578
-0.23411074 -0.013297168 0.44677091
-0.23343161 -0.013304393 0.44701365
-0.23275945 -0.013312065 0.44727144
-0.23209521 -0.013320247 0.44754633
-0.23143902 -0.013328949 0.44783872
-0.23078996 -0.013338123 0.44814697
-0.23014776 -0.013347762 0.4484708
-0.22951302 -0.013357901 0.44881147
-0.22888531 -0.013368523 0.44916835
-0.22826581 -0.0133797 0.44954392
-0.22765222 -0.013391307 0.44993389
-0.22704716 -0.013403499 0.45034355
-0.22644897 -0.013416187 0.45076981
-0.22585826 -0.01342941 0.4512141
-0.22527474 -0.013443159 0.45167604
-0.22469904 -0.013457473 0.45215702
-0.22413217 -0.013472425 0.45265937
-0.22357148 -0.013487859 0.45317793
-0.22302021 -0.013503976 0.45371944
-0.22247775 -0.013520747 0.45428294
-0.22194284 -0.013538104 0.45486608
-0.22141843 -0.01355623 0.45547512
-0.22090217 -0.013574994 0.45610559
-0.22039628 -0.013594537 0.45676219
-0.21990149 -0.013614914 0.45744684
-0.21941684 -0.013636075 0.45815784
-0.21894491 -0.013658189 0.45890084
-0.21848391 -0.013681156 0.45967251
-0.21803731 -0.013705201 0.46048042
-0.21760534 -0.013730356 0.46132559
-0.21719098 -0.013756818 0.46221468
-0.21679319 -0.013784539 0.46314606
-0.21641766 -0.013813893 0.46413234
-0.21606126 -0.013844702 0.46516749
-0.21573414 -0.013877635 0.46627399
-0.21543434 -0.01391259 0.46744844
-0.2151736 -0.013950352 0.46871719
-0.21495293 -0.01399102 0.47008359
-0.21479431 -0.014036064 0.47159705
-0.21470964 -0.014086318 0.47328553
-0.21473575 -0.014144271 0.47523269
-0.21494955 -0.014215101 0.4776125
-0.21562429 -0.014317106 0.48103976
-0.26033333 -0.01262963 0.45171925
-0.25894898 -0.012601913 0.45072791
-0.25767741 -0.012579527 0.44992724
-0.25648475 -0.012560864 0.44925973
-0.25535232 -0.012545043 0.44869384
-0.25426915 -0.012531548 0.44821119
-0.25322545 -0.012519919 0.44779527
-0.25221997 -0.01251011 0.44744444
-0.2512438 -0.012501699 0.44714358
-0.25029299 -0.012494497 0.446886
-0.2493652 -0.012488402 0.44666803
-0.24845977 -0.012483392 0.44648883
-0.24757291 -0.012479285 0.44634193
-0.24670437 -0.012476077 0.44622719
-0.245851 -0.012473619 0.44613925
-0.24501447 -0.012472001 0.4460814
-0.24419227 -0.012471104 0.44604933
-0.2433833 -0.012470881 0.44604132
-0.24258649 -0.012471279 0.44605559
-0.24180201 -0.012472317 0.44609269
-0.24102886 -0.012473947 0.44615102
-0.24026588 -0.012476117 0.44622862
-0.23951232 -0.012478794 0.44632435
-0.23877016 -0.012482082 0.44644198
-0.23803702 -0.012485867 0.44657737
-0.23731346 -0.012490182 0.44673169
-0.23659816 -0.012494963 0.44690266
-0.23589173 -0.012500245 0.44709161
-0.23519422 -0.012506039 0.44729882
-0.23450398 -0.012512261 0.44752136
-0.23382275 -0.012519008 0.44776267
-0.2331492 -0.012526213 0.4480204
-0.23248261 -0.012533845 0.44829336
-0.23182508 -0.01254202 0.44858575
-0.23117465 -0.012550637 0.44889396
-0.23053151 -0.012559713 0.44921857
-0.22989634 -0.012569288 0.44956103
-0.22926804 -0.012579309 0.44991943
-0.22864847 -0.01258988 0.45029753
-0.22803566 -0.012600902 0.45069173
-0.22742973 -0.012612383 0.45110238
-0.2268326 -0.012624435 0.45153347
-0.22624308 -0.012637001 0.45198289
-0.22566053 -0.012650047 0.45244953
-0.22508745 -0.012663722 0.45293862
-0.22452092 -0.012677866 0.45344451
-0.22396374 -0.012692643 0.45397303
-0.22341511 -0.012708016 0.45452285
-0.22287439 -0.012723953 0.45509285
-0.22234441 -0.012740623 0.4556891
-0.22182189 -0.012757845 0.45630509
-0.22131155 -0.0127759 0.45695084
-0.22081105 -0.012794659 0.45762181
-0.22032012 -0.012814116 0.4583177
-0.21984279 -0.012834513 0.45904723
-0.21937776 -0.012855786 0.45980808
-0.21892579 -0.012877988 0.46060216
-0.21848893 -0.012901251 0.46143425
-0.21806826 -0.012925652 0.46230698
-0.21766348 -0.012951186 0.46322024
-0.21728279 -0.012978355 0.464192
-0.21692227 -0.013006944 0.46521452
-0.21658736 -0.013037298 0.46630016
-0.21628234 -0.013069693 0.46745881
-0.21601412 -0.013104575 0.46870643
-0.21578647 -0.013142201 0.47005221
-0.2156176 -0.013183719 0.47153714
-0.21552524 -0.013230262 0.47320184
-0.21554112 -0.013283847 0.4751184
-0.21573541 -0.013348898 0.47744504
-0.21637221 -0.013441961 0.4807736
-0.2615771 -0.011871262 0.45387739
-0.26000339 -0.011836889 0.45256323
-0.25861382 -0.011810711 0.45156232
-0.25733796 -0.011789575 0.45075426
-0.2561433 -0.011772037 0.45008373
-0.25500959 -0.011757199 0.44951639
-0.25392675 -0.011744618 0.44903541
-0.2528871 -0.011733962 0.44862798
-0.25188181 -0.011724835 0.44827902
-0.25090864 -0.011717151 0.44798523
-0.24996066 -0.011710596 0.44773462
-0.24903575 -0.011705084 0.44752386
-0.24813271 -0.011700567 0.44735116
-0.2472498 -0.011696972 0.44721374
-0.24638514 -0.011694222 0.44710857
-0.24553743 -0.011692259 0.44703352
-0.2447048 -0.011691004 0.44698554
-0.24388553 -0.011690381 0.44696173
-0.24308021 -0.011690425 0.4469634
-0.24228774 -0.011691089 0.44698879
-0.24150617 -0.011692286 0.44703454
-0.24073817 -0.011694149 0.4471058
-0.23997836 -0.011696424 0.44719279
-0.23923086 -0.011699317 0.44730338
-0.23849271 -0.011702688 0.44743228
-0.23776482 -0.011706587 0.44758135
-0.23704496 -0.011710909 0.4477466
-0.2363351 -0.011715757 0.44793195
-0.23563468 -0.011721107 0.44813651
-0.23494259 -0.011726911 0.44835839
-0.23425788 -0.011733123 0.44859591
-0.23358268 -0.011739857 0.44885337
-0.23291472 -0.011747003 0.44912657
-0.23225494 -0.011754613 0.44941753
-0.23160367 -0.011762707 0.44972703
-0.23096019 -0.011771257 0.4500539
-0.23032457 -0.011780269 0.45039845
-0.22969562 -0.011789687 0.45075852
-0.22907509 -0.011799605 0.45113772
-0.22846285 -0.011810021 0.451536
-0.22785755 -0.011820875 0.45195094
-0.22726154 -0.011832288 0.45238733
-0.22667328 -0.011844189 0.45284232
-0.22609222 -0.011856554 0.45331508
-0.22552049 -0.011869499 0.45381004
-0.22495607 -0.011882924 0.45432332
-0.2244011 -0.01189695 0.45485955
-0.22385605 -0.011911606 0.4554199
-0.22331908 -0.011926802 0.45600089
-0.22279251 -0.011942666 0.45660743
-0.22227664 -0.011959226 0.45724055
-0.22177109 -0.011976465 0.45789966
-0.22127508 -0.01199435 0.45858347
-0.22079287 -0.012013121 0.45930114
-0.22032544 -0.012032839 0.46005505
-0.21986845 -0.01205328 0.46083656
-0.21942839 -0.012074807 0.46165961
-0.21900393 -0.01209736 0.46252188
-0.21859495 -0.012120944 0.46342358
-0.21820949 -0.012146018 0.46438223
-0.21784464 -0.012172436 0.46539229
-0.2175061 -0.012200535 0.46646661
-0.21720043 -0.012230704 0.46762004
-0.21692823 -0.012262999 0.46885481
-0.21670189 -0.012298151 0.47019878
-0.21653174 -0.012336778 0.47167563
-0.216437 -0.012380026 0.47332913
-0.21645872 -0.012430303 0.47525138
-0.21667336 -0.012492102 0.47761416
-0.21737841 -0.012582782 0.48108116
-0.26359308 -0.011137735 0.45737541
-0.26145366 -0.011082022 0.45508754
-0.25981531 -0.011047265 0.45366019
-0.25839177 -0.01102145 0.45260009
-0.25709584 -0.011000932 0.45175752
-0.25588951 -0.010984127 0.45106745
-0.25475076 -0.010970128 0.45049253
-0.2536658 -0.010958363 0.45000941
-0.25262263 -0.010948332 0.44959748
-0.25161478 -0.010939773 0.44924602
-0.25063738 -0.010932487 0.44894677
-0.24969056 -0.010926492 0.44870058
-0.24876775 -0.010921511 0.44849607
-0.24786738 -0.010917487 0.44833079
-0.24698538 -0.010914247 0.44819778
-0.24612276 -0.010911847 0.4480992
-0.24527657 -0.010910161 0.44802997
-0.24444473 -0.010909104 0.44798654
-0.24362944 -0.010908782 0.44797331
-0.24282661 -0.010909015 0.44798294
-0.24203752 -0.010909871 0.44801807
-0.24126002 -0.010911257 0.448075
-0.24049455 -0.010913198 0.44815469
-0.23973997 -0.010915648 0.4482553
-0.23899668 -0.01091863 0.44837776
-0.23826264 -0.010922057 0.44851846
-0.23753998 -0.01092603 0.44868162
-0.23682515 -0.010930392 0.44886076
-0.23611988 -0.010935226 0.44905928
-0.23542401 -0.01094053 0.4492771
-0.23473732 -0.0109463 0.44951403
-0.23405831 -0.010952469 0.44976735
-0.23338914 -0.010959143 0.45004141
-0.23272766 -0.010966225 0.45033225
-0.23207305 -0.010973683 0.4506385
-0.2314285 -0.010981669 0.45096648
-0.23079181 -0.010990086 0.45131212
-0.23016334 -0.010998956 0.45167637
-0.22954345 -0.0110083 0.4520601
-0.2289314 -0.011018089 0.45246208
-0.22832751 -0.011028341 0.45288309
-0.22773239 -0.011039092 0.45332459
-0.22714563 -0.011050328 0.45378599
-0.22656646 -0.011062015 0.45426592
-0.22599633 -0.011074231 0.45476755
-0.22543615 -0.011087024 0.45529291
-0.22488537 -0.011100375 0.45584118
-0.2243443 -0.011114305 0.45641321
-0.22381242 -0.011128794 0.45700824
-0.22329189 -0.011143957 0.4576309
-0.22278124 -0.011159728 0.45827854
-0.22228312 -0.011176246 0.45895687
-0.22179744 -0.011193516 0.45966604
-0.22132428 -0.011211549 0.46040657
-0.22086415 -0.01123038 0.46117991
-0.22041948 -0.011250144 0.46199149
-0.21999381 -0.011271031 0.46284923
-0.21958475 -0.01129293 0.46374851
-0.219198 -0.011316149 0.46470204
-0.21883461 -0.011340757 0.46571258
-0.21849558 -0.011366822 0.46678293
-0.21818961 -0.011394816 0.46793249
-0.21791992 -0.011424928 0.46916908
-0.21770082 -0.011457939 0.47052467
-0.21753895 -0.01149423 0.47201502
-0.21746179 -0.011535301 0.4737016
-0.21750776 -0.011583254 0.47567078
-0.21778758 -0.011644089 0.47816899
-0.21881996 -0.011745803 0.48234594
-0.26467595 -0.010387597 0.46069631
-0.2615808 -0.010298457 0.45674291
-0.25979352 -0.010260408 0.45505542
-0.25830349 -0.010233895 0.45387954
-0.25696576 -0.010213265 0.45296463
-0.25573629 -0.010196822 0.45223534
-0.25457835 -0.010183134 0.4516283
-0.25347996 -0.010171748 0.4511233
-0.2524243 -0.010162008 0.45069134
-0.2514126 -0.010153982 0.45033535
-0.25043306 -0.010147206 0.45003486
-0.24948081 -0.010141497 0.44978163
-0.2485555 -0.010136847 0.44957542
-0.24765353 -0.010133123 0.44941026
-0.24677074 -0.010130161 0.44927892
-0.24590795 -0.010128004 0.44918326
-0.24506263 -0.010126555 0.44911897
-0.24423295 -0.010125744 0.449083
-0.24341805 -0.010125543 0.44907409
-0.24261715 -0.010125924 0.44909099
-0.2418309 -0.010126922 0.44913524
-0.2410554 -0.010128378 0.44919983
-0.24029346 -0.010130416 0.44929019
-0.23954111 -0.010132873 0.44939917
-0.23880142 -0.010135883 0.44953269
-0.23807117 -0.010139317 0.44968498
-0.23735133 -0.010143219 0.44985804
-0.23664202 -0.0101476 0.45005229
-0.23594327 -0.010152465 0.45026806
-0.23525171 -0.010157673 0.45049906
-0.23457006 -0.010163347 0.45075074
-0.23389818 -0.010169487 0.45102298
-0.23323445 -0.010176023 0.4513129
-0.23257969 -0.010182999 0.45162228
-0.23193319 -0.010190386 0.45194992
-0.23129596 -0.010198235 0.45229799
-0.23066722 -0.010206514 0.45266521
-0.23004651 -0.010215209 0.45305082
-0.22943507 -0.01022438 0.45345753
-0.2288329 -0.01023403 0.45388553
-0.22823858 -0.010244101 0.45433223
-0.22765376 -0.010254674 0.45480111
-0.22707796 -0.01026573 0.45529148
-0.22651272 -0.010277346 0.45580664
-0.22595644 -0.010289455 0.45634368
-0.22540918 -0.010302065 0.45690292
-0.22487327 -0.010315288 0.45748937
-0.22434804 -0.010329099 0.45810193
-0.22383337 -0.010343501 0.45874065
-0.22333144 -0.010358601 0.45941034
-0.22284296 -0.010374439 0.46011278
-0.22236751 -0.010391005 0.4608475
-0.22190666 -0.01040838 0.46161807
-0.22146115 -0.010426608 0.46242648
-0.22103579 -0.010445926 0.46328327
-0.22062626 -0.010466142 0.46417984
-0.22023967 -0.010487603 0.46513167
-0.21987849 -0.010510444 0.46614468
-0.21954568 -0.010534821 0.46722582
-0.21924403 -0.010560888 0.46838188
-0.2189866 -0.010589294 0.46964172
-0.21877971 -0.010620374 0.47102016
-0.21863793 -0.01065487 0.47255006
-0.21859558 -0.0106945 0.47430766
-0.21870854 -0.01074207 0.47641742
-0.21913581 -0.010805513 0.47923118
-0.26219895 -0.0095269764 0.45926878
-0.25999126 -0.0094767017 0.45684519
-0.2583572 -0.0094470838 0.45541739
-0.25694919 -0.0094255684 0.45438018
-0.25566936 -0.0094086323 0.45356375
-0.25448278 -0.0093950303 0.45290804
-0.25336397 -0.0093838507 0.45236909
-0.25229341 -0.0093743913 0.45191309
-0.25126651 -0.0093664983 0.4515326
-0.25027904 -0.0093600294 0.45122075
-0.24932052 -0.0093546035 0.45095918
-0.24838893 -0.0093501564 0.45074478
-0.24748303 -0.00934665 0.45057574
-0.24659848 -0.0093439296 0.45044461
-0.24573401 -0.0093419533 0.45034936
-0.24488765 -0.0093406569 0.45028684
-0.24405788 -0.0093399854 0.45025447
-0.24324526 -0.0093399677 0.45025364
-0.24244583 -0.0093404585 0.4502773
-0.24166064 -0.0093415035 0.45032766
-0.24088795 -0.0093430402 0.45040175
-0.24012795 -0.0093450816 0.45050013
-0.23937908 -0.0093475701 0.45062011
-0.23864327 -0.0093505885 0.45076561
-0.23791695 -0.009354 0.45093006
-0.23720211 -0.0093578873 0.45111749
-0.23649622 -0.0093621565 0.4513233
-0.23580213 -0.0093669239 0.45155311
-0.23511653 -0.009372063 0.45180082
-0.23444161 -0.009377664 0.45207086
-0.23377521 -0.0093836477 0.45235929
-0.23311855 -0.0093900645 0.45266864
-0.23247054 -0.0093968762 0.452997
-0.23183273 -0.0094041498 0.45334765
-0.23120266 -0.0094117895 0.45371595
-0.23058333 -0.0094199227 0.45410803
-0.22997256 -0.0094284648 0.45451981
-0.22937191 -0.0094374847 0.45495462
-0.22877982 -0.0094469227 0.45540962
-0.22819816 -0.0094568608 0.45588869
-0.22762544 -0.0094672423 0.45638919
-0.22706406 -0.0094781732 0.45691612
-0.22651318 -0.0094896229 0.45746809
-0.22597128 -0.0095015345 0.45804232
-0.2254418 -0.0095140571 0.458646
-0.2249257 -0.0095272399 0.45928147
-0.22442122 -0.0095410123 0.45994544
-0.22392853 -0.009555392 0.46063861
-0.22345249 -0.0095705912 0.46137133
-0.22299033 -0.0095865 0.46213827
-0.22254509 -0.0096032592 0.46294615
-0.22211923 -0.0096209841 0.46380061
-0.22171219 -0.0096396608 0.46470097
-0.22133082 -0.0096595995 0.46566218
-0.22097462 -0.0096807936 0.46668386
-0.22064991 -0.0097035337 0.46778011
-0.22036041 -0.0097280033 0.46895972
-0.22011769 -0.0097547341 0.47024834
-0.21993662 -0.0097844144 0.47167915
-0.21983388 -0.0098178238 0.47328973
-0.21985304 -0.0098569589 0.47517633
-0.22008786 -0.0099061076 0.47754562
-0.22103091 -0.0099876439 0.48147628
-0.26059216 -0.0087002153 0.45935705
-0.25860977 -0.0086615719 0.45731673
-0.25706434 -0.0086373622 0.4560385
-0.25571206 -0.0086195078 0.4550958
-0.25447294 -0.0086053656 0.45434913
-0.2533184 -0.0085940007 0.45374909
-0.25222522 -0.0085846502 0.45325541
-0.2511811 -0.0085769156 0.45284703
-0.25017866 -0.0085705575 0.45251134
-0.24920984 -0.0085653132 0.45223445
-0.24827121 -0.0085610757 0.45201072
-0.24735856 -0.0085577099 0.45183298
-0.24646957 -0.0085551422 0.45169741
-0.24560276 -0.0085533299 0.45160174
-0.24475314 -0.0085521061 0.45153713
-0.24392256 -0.0085515426 0.45150736
-0.24310845 -0.0085515538 0.45150796
-0.24230897 -0.0085520819 0.45153582
-0.2415245 -0.0085531445 0.45159194
-0.24075511 -0.0085547501 0.45167673
-0.23999746 -0.008556786 0.45178419
-0.23925219 -0.0085592773 0.45191577
-0.23851846 -0.0085622007 0.45207012
-0.23779751 -0.0085656056 0.45224985
-0.23708645 -0.0085693896 0.45244965
-0.23638733 -0.0085736336 0.45267373
-0.23569725 -0.0085782362 0.45291674
-0.23501863 -0.0085832886 0.45318353
-0.23434933 -0.0085887183 0.4534702
-0.23369069 -0.0085945791 0.45377961
-0.23304105 -0.0086008124 0.45410872
-0.23240222 -0.00860749 0.45446128
-0.23177353 -0.0086145913 0.45483622
-0.2311545 -0.0086221043 0.45523289
-0.23054446 -0.0086300066 0.45565015
-0.22994585 -0.008638395 0.45609304
-0.22935541 -0.0086471522 0.4565554
-0.22877763 -0.0086564505 0.45704636
-0.22821049 -0.0086662211 0.45756221
-0.22765395 -0.0086764665 0.45810315
-0.2271082 -0.0086871982 0.45866978
-0.22657536 -0.0086985053 0.45926678
-0.22605476 -0.0087103667 0.45989302
-0.22554769 -0.0087228389 0.46055153
-0.22505356 -0.0087359054 0.46124142
-0.22457476 -0.0087496657 0.46196795
-0.22411427 -0.0087642446 0.46273771
-0.2236702 -0.0087795779 0.46354726
-0.2232462 -0.0087958165 0.46440464
-0.22284479 -0.0088130711 0.46531564
-0.22246748 -0.0088314125 0.46628404
-0.22212103 -0.008851123 0.4673247
-0.22181091 -0.0088724364 0.46845004
-0.22154078 -0.0088955192 0.46966875
-0.22132422 -0.0089209378 0.47101083
-0.22117695 -0.0089493562 0.47251129
-0.22113608 -0.0089823166 0.47425151
-0.2212711 -0.0090227043 0.47638395
-0.221821 -0.0090803914 0.47942972
-0.25927347 -0.0078819133 0.45995754
-0.25738364 -0.0078495815 0.45807078
-0.25588712 -0.0078290747 0.45687407
-0.25456649 -0.0078138337 0.45598468
-0.25335917 -0.0078019844 0.45529318
-0.25222808 -0.0077924123 0.45473459
-0.25115937 -0.0077847107 0.45428517
-0.25013337 -0.0077782879 0.45391035
-0.24914925 -0.0077731293 0.45360932
-0.24819735 -0.0077689453 0.45336515
-0.24727623 -0.0077656996 0.45317575
-0.24638136 -0.00776326 0.45303339
-0.24550906 -0.0077615175 0.4529317
-0.24465613 -0.0077603781 0.45286521
-0.24382395 -0.007759891 0.45283678
-0.2430079 -0.0077599161 0.45283824
-0.24220908 -0.0077604931 0.45287192
-0.2414252 -0.0077615548 0.45293388
-0.24065648 -0.0077631124 0.45302477
-0.23989999 -0.0077650766 0.45313939
-0.23915766 -0.0077675139 0.45328161
-0.23842913 -0.0077704177 0.45345107
-0.23771244 -0.007773729 0.45364431
-0.23700634 -0.0077774101 0.45385912
-0.23631158 -0.0077814907 0.45409724
-0.23562926 -0.0077860099 0.45436099
-0.23495607 -0.0077908644 0.45464426
-0.23429561 -0.0077961762 0.45495424
-0.23364434 -0.0078018322 0.4552843
-0.23300473 -0.0078079184 0.45563948
-0.2323754 -0.0078143934 0.45601735
-0.23175691 -0.0078212805 0.45641926
-0.23114829 -0.0078285513 0.45684355
-0.23055188 -0.0078362897 0.45729509
-0.22996773 -0.0078445002 0.45777425
-0.22939354 -0.0078531122 0.45827681
-0.22883084 -0.0078621805 0.45880601
-0.22828047 -0.0078717405 0.45936388
-0.2277437 -0.0078818398 0.45995325
-0.2272201 -0.0078924717 0.46057367
-0.2267102 -0.0079036588 0.46122649
-0.2262156 -0.0079154633 0.46191534
-0.2257383 -0.0079279626 0.46264479
-0.22527646 -0.0079410998 0.46341139
-0.22483683 -0.0079551209 0.46422961
-0.22441696 -0.0079699485 0.46509489
-0.22402252 -0.007985794 0.46601957
-0.22365613 -0.0080027618 0.46700978
-0.22332303 -0.0080210539 0.46807724
-0.22302936 -0.0080409069 0.46923575
-0.2227852 -0.0080627026 0.47050768
-0.22260895 -0.0080871321 0.47193331
-0.22252809 -0.0081152283 0.47357285
-0.22260095 -0.0081491675 0.47555345
-0.22299534 -0.008195186 0.47823891
-0.25816432 -0.0070672999 0.46093988
-0.25628456 -0.0070385099 0.45906216
-0.25480282 -0.0070204991 0.45788744
-0.25350562 -0.0070074722 0.45703781
-0.25231367 -0.0069972794 0.45637304
-0.25120321 -0.0069892877 0.45585179
-0.25014853 -0.0069828001 0.45542866
-0.24914144 -0.0069776024 0.45508966
-0.24817374 -0.0069734771 0.4548206
-0.24723849 -0.0069702393 0.45460942
-0.24633402 -0.006967851 0.45445365
-0.24545126 -0.0069660624 0.454337
-0.24459495 -0.0069650155 0.45426872
-0.24375825 -0.0069645215 0.45423651
-0.24294001 -0.0069645536 0.45423859
-0.24213974 -0.0069651026 0.45427442
-0.2413566 -0.0069661494 0.45434269
