# .PCD v0.7 - Point Cloud Data file format
VERSION 0.7
FIELDS x y z
SIZE 4 4 4
TYPE F F F
COUNT 1 1 1
WIDTH 1301
HEIGHT 1
VIEWPOINT 0 0 0 1 0 0 0
POINTS 1301
DATA ascii
0.015783675 -0.83335215 -0.20368463
-0.05492172 -0.83418232 -0.20238282
-0.053071577 -0.8287878 -0.20107405
-0.051332317 -0.82486236 -0.20012169
-0.049653426 -0.82170159 -0.19935484
-0.048014969 -0.81903601 -0.19870815
-0.046407126 -0.81674004 -0.19815111
-0.044822764 -0.81472021 -0.19766107
-0.043257963 -0.81293112 -0.19722702
-0.041709304 -0.8113305 -0.19683869
-0.040174663 -0.80989599 -0.19649066
-0.038652092 -0.80860579 -0.19617765
-0.037140355 -0.80744994 -0.19589722
-0.035637818 -0.80640787 -0.19564441
-0.034143656 -0.8054747 -0.195418
-0.032657076 -0.80464536 -0.19521679
-0.031177042 -0.80390763 -0.19503781
-0.029702883 -0.80325687 -0.19487993
-0.028234221 -0.80269563 -0.19474377
-0.026770169 -0.80221188 -0.19462641
-0.025310328 -0.80180627 -0.194528
-0.0238543 -0.80147958 -0.19444874
-0.022401387 -0.80122209 -0.19438627
-0.020951403 -0.80104113 -0.19434236
-0.019503824 -0.80093217 -0.19431593
-0.018058186 -0.80089176 -0.19430612
-0.016614284 -0.80092806 -0.19431493
-0.015171495 -0.80103004 -0.19433968
-0.01372968 -0.80121028 -0.19438341
-0.012288291 -0.8014608 -0.19444418
-0.01084706 -0.80178976 -0.19452399
-0.0094055533 -0.80219638 -0.19462265
-0.0079633342 -0.80267912 -0.19473976
-0.0065201032 -0.80325174 -0.19487868
-0.0050753453 -0.80390972 -0.19503832
-0.0036286106 -0.80465567 -0.19521929
-0.0021794704 -0.80550724 -0.1954259
-0.00072735775 -0.8064692 -0.19565928
0.0007283247 -0.80754131 -0.19591939
0.0021882325 -0.80874562 -0.19621158
0.0036531235 -0.81009144 -0.19653808
0.0051238914 -0.81159914 -0.19690387
0.006601634 -0.81329602 -0.19731556
0.0080876946 -0.81521428 -0.19778095
0.0095839621 -0.81741285 -0.19831434
0.011092874 -0.81995976 -0.19893226
0.012618286 -0.8229835 -0.19966586
0.014167367 -0.82675201 -0.20058013
0.01575572 -0.83187616 -0.20182332
0.017508352 -0.84402859 -0.20477165
-0.054878652 -0.83352816 -0.20072059
-0.053025328 -0.82806557 -0.19940515
-0.051285546 -0.82411081 -0.19845282
-0.049607165 -0.82093602 -0.1976883
-0.047969591 -0.81826198 -0.19704437
-0.046362892 -0.81596154 -0.19649041
-0.04477939 -0.81393188 -0.19600165
-0.043215837 -0.81213951 -0.19557002
-0.041668393 -0.81053472 -0.19518358
-0.040135052 -0.80909747 -0.19483748
-0.038613699 -0.80780262 -0.19452566
-0.037103251 -0.80664325 -0.19424649
-0.035602041 -0.80559826 -0.19399484
-0.034109313 -0.80466449 -0.19376998
-0.032624032 -0.80383122 -0.19356932
-0.031145301 -0.8030892 -0.19339064
-0.029672556 -0.80243671 -0.1932335
-0.028205272 -0.80187261 -0.19309767
-0.026742548 -0.80138415 -0.19298005
-0.025284132 -0.8009764 -0.19288185
-0.02382949 -0.80064595 -0.19280228
-0.022377929 -0.80038309 -0.19273898
-0.020929404 -0.80020005 -0.1926949
-0.019483207 -0.80008548 -0.19266732
-0.01803904 -0.80004269 -0.19265701
-0.016596548 -0.80007309 -0.19266433
-0.015155239 -0.80017173 -0.19268808
-0.013714872 -0.8003462 -0.1927301
-0.012274931 -0.80058944 -0.19278868
-0.010835226 -0.80091494 -0.19286706
-0.0093952036 -0.8013137 -0.19296308
-0.0079545332 -0.80179203 -0.19307826
-0.0065128352 -0.8023563 -0.19321415
-0.0050696391 -0.80300587 -0.19337057
-0.003624497 -0.80374342 -0.19354817
-0.0021769847 -0.80458856 -0.19375169
-0.0007265181 -0.80553824 -0.19398038
0.00072747457 -0.80659872 -0.19423576
0.002185645 -0.80778933 -0.19452247
0.0036487433 -0.80912012 -0.19484293
0.0051176553 -0.81061137 -0.19520204
0.0065934681 -0.81229001 -0.19560626
0.0080774445 -0.81418109 -0.19606166
0.0095715374 -0.81635314 -0.1965847
0.011077942 -0.81885606 -0.19718742
0.01260061 -0.82183069 -0.19790374
0.014145982 -0.82550395 -0.1987883
0.01572888 -0.83045906 -0.19998153
0.017426681 -0.84009141 -0.20230107
-0.054835647 -0.83287501 -0.19906096
-0.052979209 -0.82734531 -0.19773933
-0.051238853 -0.8233605 -0.19678695
-0.049561117 -0.82017398 -0.19602536
-0.047924303 -0.81748945 -0.19538374
-0.046318736 -0.81518441 -0.19483283
-0.044736154 -0.813146 -0.19434564
-0.043173797 -0.81134945 -0.19391626
-0.041627564 -0.80974048 -0.19353171
-0.040095516 -0.8083005 -0.19318753
-0.038575437 -0.80700219 -0.19287723
-0.037066266 -0.80583918 -0.19259927
-0.035566371 -0.80479115 -0.19234879
-0.03407504 -0.80385602 -0.19212529
-0.03259106 -0.80301881 -0.1919252
-0.031113658 -0.80227327 -0.19174701
-0.029642319 -0.80161905 -0.19159064
-0.028176382 -0.80105132 -0.19145495
-0.026714981 -0.80055809 -0.19133706
-0.025257992 -0.80014831 -0.19123913
-0.023804707 -0.79981327 -0.19115905
-0.022354594 -0.79954845 -0.19109575
-0.020907454 -0.79936081 -0.19105092
-0.019462634 -0.79924065 -0.19102219
-0.018019935 -0.79919535 -0.19101137
-0.016578849 -0.79921991 -0.19101724
-0.015139018 -0.79931527 -0.19104002
-0.013700097 -0.79948395 -0.19108035
-0.012261635 -0.79972219 -0.19113728
-0.010823415 -0.80004191 -0.1912137
-0.0093848743 -0.80043268 -0.1913071
-0.0079457555 -0.80090725 -0.19142053
-0.0065055816 -0.80146271 -0.19155328
-0.0050639422 -0.80210352 -0.19170643
-0.0036204071 -0.80283648 -0.19188161
-0.0021745048 -0.80367202 -0.19208132
-0.00072568044 -0.80460942 -0.19230536
0.00072662637 -0.80565828 -0.19255604
0.0021830641 -0.80683541 -0.19283737
0.0036443784 -0.8081522 -0.1931521
0.0051114433 -0.80962747 -0.19350469
0.0065853279 -0.81128716 -0.19390136
0.0080672866 -0.81315726 -0.19434834
0.0095591443 -0.81529611 -0.19485952
0.011063064 -0.81775618 -0.19544749
0.012583015 -0.82068312 -0.19614704
0.014125006 -0.82427996 -0.1970067
0.015702447 -0.82906348 -0.19814998
0.017374808 -0.83759081 -0.20018806
-0.054792929 -0.83222616 -0.19740471
-0.052933164 -0.8266263 -0.19607641
-0.051192965 -0.82262307 -0.19512685
-0.04951524 -0.81941479 -0.19436584
-0.047879316 -0.8167221 -0.19372714
-0.046274669 -0.81440884 -0.19317843
-0.044693176 -0.81236482 -0.19269358
-0.043131839 -0.81056094 -0.1922657
-0.041586883 -0.80894917 -0.19188339
-0.040056132 -0.8075065 -0.19154118
-0.038537297 -0.80620432 -0.19123231
-0.037029356 -0.80503672 -0.19095536
-0.035530873 -0.80398792 -0.19070658
-0.034040838 -0.80304915 -0.1904839
-0.032558158 -0.80220807 -0.19028439
-0.031082081 -0.80145901 -0.19010672
-0.029612146 -0.80080307 -0.18995112
-0.028147554 -0.8002317 -0.1898156
-0.026687469 -0.79973364 -0.18969746
-0.025231911 -0.79932207 -0.18959983
-0.023779977 -0.79898238 -0.18951926
-0.022331305 -0.79871553 -0.18945596
-0.020885548 -0.79852331 -0.18941036
-0.019442139 -0.79839903 -0.18938088
-0.018000871 -0.7983498 -0.1893692
-0.01656119 -0.79836857 -0.18937366
-0.015122831 -0.7984606 -0.18939549
-0.013685354 -0.79862362 -0.18943416
-0.012248384 -0.79885799 -0.18948975
-0.010811629 -0.79917073 -0.18956393
-0.0093745673 -0.79955363 -0.18965475
-0.0079369973 -0.80002445 -0.18976644
-0.0064983447 -0.80057114 -0.18989611
-0.0050582583 -0.80120319 -0.19004603
-0.0036163263 -0.80193156 -0.19021881
-0.0021720279 -0.80275661 -0.1904145
-0.00072484463 -0.80368274 -0.19063419
0.00072578026 -0.8047201 -0.19088025
0.0021804888 -0.80588365 -0.19115624
0.0036400279 -0.8071875 -0.19146551
0.0051052482 -0.80864614 -0.1918115
0.0065772161 -0.81028783 -0.19220091
0.0080571612 -0.81213659 -0.19263944
0.0095467847 -0.81424201 -0.19313885
0.011048397 -0.81667215 -0.19371529
0.012565618 -0.81954849 -0.19439755
0.014104097 -0.8230598 -0.19523044
0.015676497 -0.82769328 -0.1963295
0.017331116 -0.8354845 -0.19817759
-0.054751851 -0.83160222 -0.19575666
-0.052887775 -0.82591748 -0.19441849
-0.05114723 -0.82188821 -0.19347
-0.049469527 -0.81865829 -0.1927097
-0.047834523 -0.81595796 -0.19207405
-0.046230681 -0.81363469 -0.19152716
-0.044650342 -0.81158626 -0.19104496
-0.043090042 -0.80977547 -0.19061871
-0.04154636 -0.8081609 -0.19023864
-0.040016823 -0.80671406 -0.18989806
-0.038499244 -0.80540818 -0.18959066
-0.036992539 -0.80423629 -0.1893148
-0.035495449 -0.8031863 -0.18906763
-0.034006704 -0.80224389 -0.1888458
-0.03252532 -0.80139899 -0.18864691
-0.031050567 -0.80064642 -0.18846975
-0.029582031 -0.79998869 -0.18831493
-0.028118782 -0.79941374 -0.18817958
-0.026660079 -0.79891288 -0.18806168
-0.025205892 -0.7984978 -0.18796398
-0.023755299 -0.79815322 -0.18788287
-0.022308068 -0.7978844 -0.18781959
-0.020863689 -0.79768759 -0.18777326
-0.019421725 -0.79756069 -0.18774338
-0.017981851 -0.79750627 -0.18773058
-0.016543576 -0.79751951 -0.18773369
-0.015106683 -0.79760802 -0.18775453
-0.013670643 -0.79776514 -0.18779151
-0.012235167 -0.79799592 -0.18784584
-0.010799869 -0.79830152 -0.18791777
-0.0093643134 -0.79867905 -0.18800664
-0.0079282578 -0.79914355 -0.18811598
-0.0064911237 -0.79968154 -0.18824263
-0.0050526094 -0.80030841 -0.1883902
-0.0036122536 -0.80102843 -0.18855968
-0.0021695558 -0.80184287 -0.1887514
-0.00072401081 -0.80275822 -0.18896687
0.00072493654 -0.80378461 -0.18920848
0.0021779302 -0.80493802 -0.18947999
0.0036357071 -0.80622929 -0.18978395
0.0050990833 -0.8076697 -0.19012301
0.0065691248 -0.80929101 -0.19050467
0.0080470638 -0.81111884 -0.19093493
0.0095345508 -0.81319857 -0.19142449
0.011033793 -0.81559259 -0.19198804
0.012548302 -0.8184191 -0.19265339
0.014083336 -0.82184827 -0.19346061
0.015650818 -0.82633752 -0.19451736
0.017291423 -0.83357108 -0.19622011
-0.054710831 -0.83097923 -0.19411108
-0.052842915 -0.82521695 -0.19276506
-0.051101577 -0.82115459 -0.19181611
-0.049424287 -0.8179096 -0.1910581
-0.047789805 -0.8151952 -0.19042404
-0.046186805 -0.81286246 -0.18987912
-0.044607736 -0.81081182 -0.18940011
-0.043048497 -0.80899477 -0.18897566
-0.041505918 -0.80737424 -0.18859711
-0.039977591 -0.80592316 -0.18825816
-0.038461257 -0.80461353 -0.18795224
-0.036955908 -0.80343992 -0.18767808
-0.035460092 -0.80238628 -0.18743196
-0.03397264 -0.80144024 -0.18721098
-0.032492552 -0.80059159 -0.18701273
-0.031019209 -0.79983789 -0.18683667
-0.029551981 -0.79917604 -0.18668208
-0.028090067 -0.7985974 -0.18654691
-0.026632782 -0.79809487 -0.18642952
-0.025179943 -0.79767579 -0.18633163
-0.023730693 -0.79732651 -0.18625003
-0.022284903 -0.79705584 -0.18618681
-0.020841883 -0.79685384 -0.18613963
-0.019401366 -0.79672468 -0.18610945
-0.017962884 -0.79666507 -0.18609552
-0.016526062 -0.79667515 -0.18609788
-0.015090577 -0.7967577 -0.18611716
-0.013655967 -0.79690868 -0.18615243
-0.012221985 -0.79713625 -0.1862056
-0.010788141 -0.79743457 -0.18627527
-0.0093541089 -0.79780871 -0.18636267
-0.0079195425 -0.7982651 -0.18646929
-0.0064839288 -0.79879516 -0.1865931
-0.0050469772 -0.79941636 -0.18673821
-0.0036081909 -0.80012751 -0.18690433
-0.0021670891 -0.80093127 -0.18709208
-0.00072317891 -0.80183583 -0.18730338
0.00072409824 -0.80285513 -0.18754148
0.0021753819 -0.80399615 -0.18780802
0.0036313976 -0.80527365 -0.18810643
0.005092951 -0.80669838 -0.18843924
0.0065610791 -0.80829978 -0.18881331
0.0080370074 -0.8101052 -0.18923505
0.0095223729 -0.8121599 -0.18971501
0.011019261 -0.81451845 -0.19026595
0.012531049 -0.81729376 -0.19091424
0.014063015 -0.82066238 -0.19170113
0.01562576 -0.82501453 -0.19271776
0.017254025 -0.83176816 -0.19429536
-0.054669961 -0.83035845 -0.19246826
-0.052798137 -0.82451767 -0.19111443
-0.051056005 -0.82042229 -0.19016516
-0.049379062 -0.8171612 -0.18940929
-0.04774525 -0.81443518 -0.18877742
-0.046143066 -0.81209272 -0.18823446
-0.044565212 -0.81003886 -0.1877584
-0.043007072 -0.80821627 -0.18733594
-0.041465625 -0.80659044 -0.18695909
-0.039938468 -0.80513448 -0.18662162
-0.038423475 -0.80382311 -0.18631765
-0.036919359 -0.80264533 -0.18604465
-0.035424806 -0.80158782 -0.18579954
-0.033938643 -0.80063826 -0.18557943
-0.032459866 -0.79978627 -0.18538196
-0.03098792 -0.79903108 -0.18520691
-0.029522022 -0.79836583 -0.18505271
-0.02806141 -0.79778266 -0.18491754
-0.02660555 -0.79727882 -0.18480076
-0.025154056 -0.79685569 -0.18470268
-0.023706181 -0.79650289 -0.1846209
-0.022261783 -0.79622895 -0.18455741
-0.020820122 -0.79602182 -0.1845094
-0.01938105 -0.79589039 -0.18447894
-0.017943958 -0.79582566 -0.18446393
-0.016508585 -0.79583263 -0.18446554
-0.015074507 -0.79590923 -0.1844833
-0.013641357 -0.79605615 -0.18451735
-0.012208833 -0.79627842 -0.18456887
-0.010776448 -0.79657024 -0.18463652
-0.0093439259 -0.79694027 -0.18472229
-0.0079108458 -0.79738849 -0.18482618
-0.0064767567 -0.79791158 -0.18494743
-0.0050413595 -0.79852653 -0.18508996
-0.0036041385 -0.79922891 -0.18525277
-0.0021646305 -0.80002254 -0.18543673
-0.0007223537 -0.80092084 -0.18564494
0.00072326272 -0.80192876 -0.18587856
0.0021728412 -0.80305713 -0.18614011
0.0036270961 -0.8043198 -0.18643278
0.0050868336 -0.80572939 -0.1867595
0.0065530776 -0.80731404 -0.18712682
0.0080269789 -0.80909431 -0.18753946
0.00951022 -0.81112337 -0.18800977
0.011004768 -0.81344718 -0.18854842
0.012513899 -0.81617528 -0.18918076
0.014042769 -0.81948096 -0.18994698
0.015601078 -0.82371128 -0.19092752
0.017219145 -0.83008671 -0.19240527
-0.054629426 -0.82974279 -0.19082886
-0.052753493 -0.82382047 -0.18946682
-0.051010516 -0.8196913 -0.18851717
-0.049333945 -0.81641459 -0.18776357
-0.047700893 -0.81367856 -0.18713433
-0.046099417 -0.81132448 -0.18659292
-0.04452274 -0.80926687 -0.18611969
-0.042965729 -0.80743927 -0.18569937
-0.041425481 -0.80580956 -0.18532456
-0.039899521 -0.80434936 -0.18498874
-0.038385782 -0.8030346 -0.18468636
-0.036882937 -0.80185348 -0.18441473
-0.035389625 -0.8007918 -0.18417056
-0.033904746 -0.7998386 -0.18395133
-0.032427277 -0.79898334 -0.18375464
-0.0309567 -0.79822606 -0.18358047
-0.029492121 -0.79755723 -0.18342665
-0.028032811 -0.79696959 -0.18329149
-0.026578384 -0.79646474 -0.1831754
-0.025128212 -0.79603696 -0.18307701
-0.023681758 -0.79568231 -0.18299544
-0.022238713 -0.79540378 -0.18293139
-0.020798406 -0.79519153 -0.18288258
-0.019360777 -0.79505789 -0.18285184
-0.017925069 -0.79498798 -0.18283576
-0.016491145 -0.79499185 -0.18283665
-0.01505847 -0.79506248 -0.18285289
-0.013626794 -0.79520631 -0.18288597
-0.012195709 -0.79542243 -0.18293567
-0.010764782 -0.79570794 -0.18300134
-0.0093337661 -0.79607373 -0.18308547
-0.0079021696 -0.79651392 -0.18318669
-0.0064696204 -0.79703242 -0.18330595
-0.0050357548 -0.79763877 -0.18344541
-0.0036000949 -0.79833221 -0.18360488
-0.0021621818 -0.79911757 -0.1837855
-0.00072153041 -0.80000806 -0.1839903
0.0007224296 -0.80100501 -0.18421958
0.0021703069 -0.80212051 -0.18447614
0.0036228059 -0.80336845 -0.18476315
0.0050807362 -0.80476362 -0.18508402
0.0065450952 -0.80633062 -0.1854444
0.0080170408 -0.80809259 -0.18584964
0.0094980886 -0.81008869 -0.18630871
0.010990409 -0.8123858 -0.186837
0.012497007 -0.81507355 -0.18745515
0.014022603 -0.81830412 -0.18819813
0.015576485 -0.82241285 -0.18914308
0.017185772 -0.82847786 -0.19053794
-0.054590609 -0.82915318 -0.18919763
-0.052708998 -0.8231256 -0.18782224
-0.050965115 -0.81896174 -0.18687212
-0.049289066 -0.81567192 -0.18612145
-0.047656618 -0.81292331 -0.18549427
-0.046055872 -0.81055814 -0.18495458
-0.044480208 -0.80849379 -0.18448353
-0.042924426 -0.8066631 -0.1840658
-0.041385416 -0.80503023 -0.18369322
-0.039860658 -0.80356592 -0.18335909
-0.038348161 -0.80224752 -0.18305825
-0.036846604 -0.8010636 -0.1827881
-0.035354536 -0.79999775 -0.18254489
-0.033870917 -0.79904056 -0.18232648
-0.032394808 -0.79818326 -0.18213086
-0.030925544 -0.79742271 -0.18195732
-0.029462283 -0.79675031 -0.18180388
-0.028004305 -0.79615915 -0.181669
-0.026551273 -0.79565233 -0.18155335
-0.02510242 -0.7952199 -0.18145467
-0.023657387 -0.79486346 -0.18137334
-0.022215689 -0.79458028 -0.18130872
-0.020776797 -0.79436541 -0.18125969
-0.019340547 -0.79422712 -0.18122815
-0.017906222 -0.79415208 -0.18121101
-0.016473738 -0.7941528 -0.18121117
-0.015042468 -0.79421759 -0.18122597
-0.013612262 -0.79435825 -0.18125807
-0.012182612 -0.79456824 -0.18130597
-0.010753177 -0.79485011 -0.18137029
-0.0093236202 -0.79520839 -0.18145205
-0.0078935111 -0.79564118 -0.1815508
-0.0064625 -0.79615521 -0.18166809
-0.0050301636 -0.79675311 -0.18180452
-0.0035960602 -0.79743749 -0.18196069
-0.0021597464 -0.79821748 -0.18213867
-0.0007207091 -0.79909742 -0.18233944
0.00072159839 -0.8000834 -0.18256444
0.0021677786 -0.80118603 -0.18281603
0.0036185284 -0.8024199 -0.18309759
0.0050746608 -0.80380124 -0.18341278
0.0065371385 -0.80535042 -0.18376628
0.0080071129 -0.80709195 -0.18416366
0.0094859879 -0.80905664 -0.18461196
0.010976117 -0.81132936 -0.18513055
0.012480148 -0.81397396 -0.185734
0.014002699 -0.81714261 -0.18645704
0.01555267 -0.82115543 -0.18737268
0.017153272 -0.82691121 -0.18868606
-0.054552365 -0.82857233 -0.1875705
-0.052664578 -0.82243192 -0.18618044
-0.050919887 -0.81823498 -0.18523036
-0.049244262 -0.81493044 -0.18448228
-0.047612429 -0.81216949 -0.18385726
-0.046012599 -0.80979657 -0.18332009
-0.044437759 -0.80772221 -0.18285049
-0.042883191 -0.80588818 -0.1824353
-0.041345455 -0.80425292 -0.18206513
-0.039821908 -0.80278474 -0.18173276
-0.038310617 -0.80146211 -0.18143335
-0.036810338 -0.80027521 -0.18116465
-0.035319511 -0.79920524 -0.18092245
-0.033837158 -0.79824412 -0.18070486
-0.032362461 -0.79738623 -0.18051066
-0.03089446 -0.7966212 -0.18033747
-0.029432504 -0.79594499 -0.18018439
-0.027975908 -0.7953518 -0.1800501
-0.026524216 -0.79484153 -0.17993459
-0.02507668 -0.79440451 -0.17983566
-0.023633072 -0.79404652 -0.17975461
-0.022192713 -0.79375857 -0.17968944
-0.020755243 -0.79354131 -0.17964025
-0.019320359 -0.79339808 -0.17960782
-0.017887445 -0.79331934 -0.17959
-0.016456369 -0.79331547 -0.17958912
-0.015026501 -0.7933746 -0.17960252
-0.013597761 -0.79351205 -0.17963363
-0.012169544 -0.79371589 -0.17967978
-0.010741591 -0.79399377 -0.17974268
-0.0093134958 -0.79434484 -0.17982216
-0.0078848731 -0.79477054 -0.17991853
-0.0064553949 -0.79527992 -0.18003383
-0.0050245845 -0.79586947 -0.1801673
-0.0035920378 -0.79654551 -0.18032034
-0.0021573163 -0.79731935 -0.18049552
-0.00071988965 -0.79818881 -0.18069234
0.00072076905 -0.79916388 -0.18091308
0.0021652556 -0.80025363 -0.18115978
0.0036142659 -0.80147469 -0.1814362
0.0050685988 -0.80284107 -0.18174551
0.0065292022 -0.80437267 -0.18209223
0.0079972176 -0.80609453 -0.18248202
0.009474067 -0.8080399 -0.18292241
0.010961865 -0.81027585 -0.18342859
0.012463319 -0.8128764 -0.18401729
0.013982904 -0.81598747 -0.18472157
0.01552893 -0.819902 -0.18560773
0.017122313 -0.82541877 -0.18685661
-0.054514095 -0.82799107 -0.18594538
-0.05262059 -0.82174498 -0.18454267
-0.050874904 -0.81751215 -0.18359208
-0.049199481 -0.81418937 -0.18284588
-0.047568314 -0.81141704 -0.18222329
-0.045969408 -0.80903643 -0.18168867
-0.04439541 -0.80695248 -0.18122065
-0.042842042 -0.80511492 -0.18080799
-0.041305587 -0.80347741 -0.18044025
-0.039783228 -0.80200493 -0.18010956
-0.038273148 -0.80067825 -0.17981163
-0.036774151 -0.79948843 -0.17954442
-0.03528456 -0.79841435 -0.17930321
-0.033803463 -0.79744923 -0.17908648
-0.032330174 -0.79659075 -0.17889369
-0.030863462 -0.79582191 -0.17872103
-0.029402779 -0.79514116 -0.17856814
-0.027947567 -0.79454613 -0.17843451
-0.026497215 -0.79403239 -0.17831914
-0.025050994 -0.79359078 -0.17821997
-0.023608809 -0.79323131 -0.17813924
-0.022169793 -0.79293877 -0.17807354
-0.020733742 -0.79271924 -0.17802425
-0.019300211 -0.79257071 -0.17799088
-0.017868731 -0.79248935 -0.17797261
-0.016439047 -0.79248035 -0.17797059
-0.015010601 -0.79253507 -0.17798288
-0.013583297 -0.79266793 -0.17801271
-0.012156509 -0.79286575 -0.17805715
-0.010730034 -0.79313946 -0.17811862
-0.0093033994 -0.79348373 -0.17819592
-0.0078762881 -0.7939052 -0.17829058
-0.0064483061 -0.79440659 -0.17840318
-0.0050190166 -0.7949875 -0.17853363
-0.0035880399 -0.79565895 -0.17868443
-0.0021548914 -0.79642308 -0.17885603
-0.00071907206 -0.79728228 -0.17904899
0.00071994157 -0.79824638 -0.1792655
0.0021627387 -0.79932338 -0.17950736
0.0036100228 -0.80053377 -0.17977919
0.0050625689 -0.80188596 -0.18008284
0.0065212846 -0.80339724 -0.18042225
0.0079873558 -0.80510044 -0.18080474
0.009462188 -0.8070268 -0.18123735
0.01094766 -0.80922592 -0.18173121
0.012446584 -0.81178492 -0.1823059
0.013963204 -0.81483781 -0.1829915
0.015505388 -0.81865901 -0.18384965
0.017091969 -0.82395589 -0.18503918
-0.054475706 -0.82740802 -0.18432195
-0.052577246 -0.82106811 -0.18290961
-0.050830346 -0.81679612 -0.18195795
-0.049154781 -0.81344962 -0.18121244
-0.047524288 -0.81066602 -0.18059234
-0.045926355 -0.80827868 -0.18006051
-0.04435325 -0.80618614 -0.17959435
-0.042800978 -0.80434322 -0.17918381
-0.041265797 -0.80270338 -0.17881849
-0.039744601 -0.80122626 -0.17848943
-0.038235754 -0.79989594 -0.17819308
-0.036738034 -0.79870325 -0.17792739
-0.035249677 -0.79762506 -0.1776872
-0.033769887 -0.79665715 -0.17747158
-0.032297958 -0.79579699 -0.17727996
-0.030832527 -0.79502422 -0.17710781
-0.029373124 -0.79433918 -0.17695521
-0.027919305 -0.79374266 -0.17682232
-0.026470259 -0.79322457 -0.1767069
-0.025025439 -0.79278123 -0.17660815
-0.023584589 -0.79241759 -0.17652713
-0.02214691 -0.79212034 -0.17646091
-0.020712292 -0.79189914 -0.17641163
-0.019280104 -0.79174501 -0.1763773
-0.017850056 -0.79166108 -0.1763586
-0.01642176 -0.79164702 -0.17635547
-0.014994769 -0.79169917 -0.17636709
-0.013568863 -0.79182565 -0.17639527
-0.012143504 -0.79201752 -0.176438
-0.010718503 -0.79228711 -0.17649806
-0.0092933271 -0.79262471 -0.17657328
-0.0078677237 -0.79304188 -0.1766662
-0.0064412332 -0.79353523 -0.17677611
-0.0050134631 -0.79410785 -0.17690367
-0.003584048 -0.79477376 -0.17705201
-0.002152472 -0.79552895 -0.17722024
-0.00071825658 -0.79637814 -0.17740943
0.00071911595 -0.79733098 -0.17762169
0.0021602395 -0.79839969 -0.17785977
0.0036058018 -0.79959774 -0.17812665
0.0050565805 -0.80093747 -0.1784251
0.0065134256 -0.80242908 -0.1787574
0.0079775257 -0.80410957 -0.17913176
0.0094503406 -0.80601633 -0.17955652
0.010933536 -0.80818182 -0.18003893
0.012430095 -0.81070948 -0.18060201
0.013943755 -0.81370288 -0.18126886
0.015482164 -0.81743282 -0.18209977
0.017062517 -0.82253611 -0.18323664
-0.05443969 -0.82686096 -0.18270859
-0.052533973 -0.82039237 -0.18127924
-0.050785862 -0.81608135 -0.18032666
-0.049110163 -0.81271124 -0.17958197
-0.047480471 -0.80991858 -0.1789649
-0.045883439 -0.80752343 -0.17843564
-0.044311225 -0.80542225 -0.17797135
-0.042760082 -0.80357462 -0.17756309
-0.041226074 -0.80193067 -0.17719983
-0.039706051 -0.80044913 -0.17687246
-0.03819843 -0.79911518 -0.1765777
-0.036701988 -0.79791957 -0.17631352
-0.035214875 -0.79683757 -0.17607443
-0.03373646 -0.79586858 -0.17586032
-0.032265782 -0.79500419 -0.17566931
-0.030801646 -0.79422796 -0.17549779
-0.029343573 -0.79354006 -0.17534579
-0.027891114 -0.79294115 -0.17521346
-0.026443364 -0.79241866 -0.175098
-0.024999946 -0.79197365 -0.17499967
-0.023560422 -0.79160553 -0.17491832
-0.022124078 -0.79130369 -0.17485163
-0.020690886 -0.79108071 -0.17480235
-0.019260041 -0.79092109 -0.17476708
-0.017831421 -0.79083455 -0.17474796
-0.01640451 -0.79081547 -0.17474374
-0.014978971 -0.79086506 -0.17475471
-0.013554459 -0.79098511 -0.17478123
-0.012130567 -0.79117376 -0.17482291
-0.010706996 -0.79143655 -0.17488098
-0.0092832781 -0.7917676 -0.17495413
-0.0078591779 -0.79218048 -0.17504537
-0.0064341798 -0.79266632 -0.17515272
-0.005007938 -0.79323274 -0.17527787
-0.0035800652 -0.79389054 -0.17542323
-0.002150058 -0.79463679 -0.17558813
-0.00071744242 -0.79547542 -0.17577344
0.00071829557 -0.79642135 -0.17598246
0.0021577498 -0.79747957 -0.17621629
0.0036015909 -0.79866391 -0.17647798
0.0050505879 -0.79998827 -0.17677063
0.0065055988 -0.80146486 -0.1770969
0.0079677636 -0.80312562 -0.17746387
0.0094385277 -0.80500877 -0.17787999
0.010919561 -0.80714881 -0.17835286
0.012413651 -0.80963695 -0.17890266
0.013924512 -0.81257993 -0.17955296
0.015459037 -0.81621176 -0.18035547
0.017033406 -0.82113272 -0.18144284
0.018737586 -0.83102363 -0.1836284
-0.054404069 -0.82631993 -0.18109852
-0.05249064 -0.81971568 -0.17965111
-0.05074146 -0.81536782 -0.17869823
-0.049065985 -0.81198019 -0.17795578
-0.047436859 -0.80917466 -0.17734091
-0.04584061 -0.80676967 -0.17681383
-0.044269528 -0.80466437 -0.17635243
-0.04271926 -0.80280751 -0.17594548
-0.041186407 -0.80115908 -0.1755842
-0.039667577 -0.7996735 -0.17525862
-0.038161185 -0.79833597 -0.17496549
-0.036665998 -0.7971372 -0.17470275
-0.035180107 -0.79605085 -0.17446466
-0.033703111 -0.79508185 -0.1742523
-0.032233663 -0.79421282 -0.17406183
-0.030770827 -0.79343331 -0.17389099
-0.029314142 -0.7927441 -0.17373995
-0.027862979 -0.79214126 -0.17360783
-0.026416535 -0.79161465 -0.17349242
-0.024974504 -0.79116768 -0.17339446
-0.0235363 -0.79079509 -0.1733128
-0.022101359 -0.79049116 -0.17324619
-0.020669525 -0.79026401 -0.17319641
-0.01924002 -0.79009891 -0.17316023
-0.017812822 -0.79000974 -0.17314067
-0.016387297 -0.78998566 -0.1731354
-0.014963206 -0.79003268 -0.17314571
-0.013540085 -0.79014629 -0.17317061
-0.012117656 -0.79033172 -0.17321125
-0.010695513 -0.79058778 -0.17326736
-0.0092732683 -0.79091388 -0.17333883
-0.0078506498 -0.79132092 -0.17342804
-0.0064271446 -0.7917996 -0.17353295
-0.0050024367 -0.79236132 -0.17365606
-0.0035760922 -0.79300952 -0.17379811
-0.0021476496 -0.79374665 -0.17395967
-0.00071663136 -0.79457611 -0.17414145
0.00071747735 -0.79551417 -0.17434704
0.002155266 -0.7965616 -0.17457661
0.0035973904 -0.79773247 -0.17483321
0.0050446172 -0.79904252 -0.17512032
0.0064977976 -0.80050373 -0.17544056
0.0079580564 -0.80214721 -0.17580076
0.0094267428 -0.80400366 -0.17620762
0.010905621 -0.80611843 -0.1766711
0.01239725 -0.80856729 -0.1772078
0.013905311 -0.81145942 -0.17784165
0.015436294 -0.81501096 -0.17862001
0.017005242 -0.8197751 -0.17966413
0.018678939 -0.82842255 -0.18155934
-0.054368567 -0.82578069 -0.17949079
-0.052447222 -0.81903762 -0.17802513
-0.050697159 -0.81465596 -0.17707273
-0.049022026 -0.81125271 -0.17633301
-0.047393322 -0.80843204 -0.1757199
-0.045797862 -0.80601728 -0.17519504
-0.044227913 -0.80390793 -0.17473654
-0.04267852 -0.80204189 -0.17433095
-0.041146819 -0.80038905 -0.17397168
-0.039629199 -0.79889977 -0.17364798
-0.038124021 -0.79755849 -0.17335644
-0.036630072 -0.79635614 -0.17309511
-0.03514551 -0.795268 -0.17285858
-0.033669826 -0.79429662 -0.17264745
-0.032201611 -0.793423 -0.17245756
-0.030740069 -0.79264021 -0.1722874
-0.029284768 -0.79194975 -0.17213733
-0.027834902 -0.79134303 -0.17200546
-0.026389757 -0.79081225 -0.17189009
-0.024949115 -0.79036337 -0.17179252
-0.023512231 -0.78998637 -0.17171058
-0.022078687 -0.78968024 -0.17164403
-0.020648206 -0.78944892 -0.17159376
-0.019220093 -0.78928059 -0.17155717
-0.017794264 -0.78918666 -0.17153674
-0.01637012 -0.78915763 -0.17153044
-0.014947473 -0.78920203 -0.1715401
-0.013525742 -0.78930926 -0.1715634
-0.012104772 -0.78949142 -0.17160299
-0.010684054 -0.78974074 -0.17165719
-0.0092633003 -0.79006374 -0.17172739
-0.0078421403 -0.79046321 -0.17181422
-0.0064201257 -0.79093486 -0.17191674
-0.0049969461 -0.79149169 -0.17203777
-0.003572128 -0.79213047 -0.17217661
-0.0021452466 -0.79285854 -0.17233486
-0.0007158246 -0.79368162 -0.17251377
0.00071666116 -0.79460919 -0.17271538
0.002152788 -0.79564571 -0.17294069
0.0035931999 -0.79680324 -0.17319228
0.0050386605 -0.79809904 -0.17347394
0.0064900164 -0.79954517 -0.17378826
0.0079483753 -0.80117136 -0.17414173
0.0094150519 -0.80300653 -0.17454062
0.010891717 -0.80509067 -0.17499363
0.012380893 -0.80750042 -0.17551741
0.013886143 -0.81034088 -0.17613481
0.015413858 -0.81382638 -0.17689241
0.016977329 -0.81842947 -0.17789294
0.018630467 -0.82627285 -0.17959777
-0.054334484 -0.82526302 -0.17788965
-0.052403878 -0.81836075 -0.17640182
-0.050653059 -0.81394732 -0.17545049
-0.048978142 -0.81052649 -0.17471312
-0.04734987 -0.8076908 -0.17410187
-0.045755178 -0.80526608 -0.17357922
-0.044186324 -0.80315202 -0.17312351
-0.042637911 -0.80127871 -0.17271972
-0.041107297 -0.79962027 -0.17236222
-0.039590891 -0.79812753 -0.17204046
-0.038086928 -0.79678255 -0.17175055
-0.036594216 -0.79557657 -0.17149058
-0.035111014 -0.79448742 -0.17125581
-0.033636607 -0.793513 -0.17104578
-0.032169618 -0.79263473 -0.17085646
-0.030709375 -0.79184872 -0.17068703
-0.029255453 -0.79115701 -0.17053793
-0.027806882 -0.79054642 -0.17040631
-0.026363071 -0.79001254 -0.17029123
-0.024923779 -0.78956074 -0.17019384
-0.023488209 -0.78917927 -0.17011161
-0.022056069 -0.78887129 -0.17004523
-0.020626942 -0.78863591 -0.16999449
-0.019200243 -0.78846544 -0.16995774
-0.017775763 -0.78836614 -0.16993634
-0.016353041 -0.78833425 -0.16992947
-0.014931787 -0.78837383 -0.169938
-0.013511447 -0.7884751 -0.16995983
-0.012091927 -0.78865361 -0.1699983
-0.010672633 -0.78889644 -0.17005065
-0.0092533594 -0.78921586 -0.17011951
-0.0078336541 -0.78960776 -0.17020398
-0.0064131347 -0.79007363 -0.1703044
-0.0049914685 -0.79062402 -0.17042305
-0.0035681729 -0.79125339 -0.17055871
-0.0021428529 -0.79197377 -0.17071399
-0.00071501971 -0.79278916 -0.17088975
0.00071584759 -0.79370713 -0.17108762
0.0021503156 -0.79473191 -0.17130852
0.0035890192 -0.79587615 -0.17155516
0.0050327186 -0.79715782 -0.17183143
0.0064822556 -0.79858905 -0.17213994
0.0079387156 -0.80019772 -0.17248669
0.0094034011 -0.80201286 -0.17287797
0.010877853 -0.80406594 -0.17332052
0.012364727 -0.80644608 -0.17383356
0.013867275 -0.8092398 -0.17443576
0.015391503 -0.81264597 -0.17516999
0.016950015 -0.81711268 -0.1761328
0.018587491 -0.82436675 -0.17769645
-0.05430204 -0.82477027 -0.17629571
-0.052361336 -0.81769639 -0.17478366
-0.050609037 -0.81323993 -0.17383109
-0.048934311 -0.80980116 -0.17309605
-0.047306567 -0.80695218 -0.17248707
-0.045712568 -0.8045162 -0.17196637
-0.04414482 -0.80239761 -0.17151353
-0.042597547 -0.80052018 -0.17111222
-0.04106788 -0.79885352 -0.17075597
-0.039552629 -0.79735625 -0.17043592
-0.03804991 -0.79600811 -0.17014776
-0.036558531 -0.79480076 -0.16988969
-0.035076588 -0.79370838 -0.16965619
-0.033603456 -0.79273093 -0.16944726
-0.032137688 -0.791848 -0.16925853
-0.030678777 -0.79105973 -0.16909003
-0.029226199 -0.79036587 -0.16894172
-0.027778927 -0.78975171 -0.16881044
-0.026336523 -0.789217 -0.16869615
-0.024898527 -0.78876078 -0.16859864
-0.023464287 -0.7883755 -0.16851628
-0.022033541 -0.78806549 -0.16845001
-0.020605741 -0.78782535 -0.16839868
-0.019180452 -0.78765279 -0.1683618
-0.017757321 -0.78754824 -0.16833946
-0.016336018 -0.78751367 -0.16833207
-0.014916142 -0.78754783 -0.16833937
-0.013497237 -0.78764582 -0.16836031
-0.012079117 -0.78781813 -0.16839714
-0.010661247 -0.78805488 -0.16844775
-0.0092434483 -0.78837049 -0.16851521
-0.007825193 -0.78875494 -0.16859739
-0.006406181 -0.78921694 -0.16869614
-0.0049860114 -0.78975964 -0.16881214
-0.003564236 -0.79038036 -0.16894482
-0.002140475 -0.79109496 -0.16909757
-0.00071421772 -0.79189998 -0.16926964
0.00071503618 -0.79280746 -0.16946362
0.0021478485 -0.79382014 -0.16968007
0.0035848485 -0.79495126 -0.16992186
0.0050267898 -0.79621875 -0.17019279
0.0064745131 -0.7976352 -0.17049555
0.0079290727 -0.79922575 -0.17083554
0.0093917791 -0.80102164 -0.17121941
0.010864101 -0.80304939 -0.17165284
0.012348601 -0.80539429 -0.17215407
0.013848493 -0.80814373 -0.17274177
0.015369372 -0.8114776 -0.17345439
0.016922981 -0.81580949 -0.17438033
0.018548016 -0.82261598 -0.17583522
-0.054268807 -0.82426548 -0.17470099
-0.052319705 -0.81704628 -0.17317091
-0.050565142 -0.81253457 -0.17221466
-0.048890457 -0.80907542 -0.17148149
-0.047263347 -0.80621493 -0.17087522
-0.045670096 -0.80376869 -0.17035675
-0.044103403 -0.8016448 -0.1699066
-0.042557258 -0.79976308 -0.16950777
-0.04102863 -0.79808998 -0.16915317
-0.039514471 -0.79658699 -0.16883461
-0.038013052 -0.795237 -0.16854848
-0.036522929 -0.79402673 -0.16829197
-0.035042275 -0.79293197 -0.16805993
-0.033570375 -0.79195052 -0.16785192
-0.032105863 -0.7910639 -0.16766401
-0.030648366 -0.79027557 -0.16749692
-0.02919705 -0.7895776 -0.16734898
-0.027751056 -0.78895932 -0.16721794
-0.026310051 -0.78842372 -0.16710442
-0.024873333 -0.78796268 -0.1670067
-0.023440439 -0.78757429 -0.16692439
-0.022011057 -0.78726131 -0.16685805
-0.020584583 -0.78701645 -0.16680616
-0.019160703 -0.78684175 -0.16676913
-0.017738918 -0.78673202 -0.16674587
-0.016319031 -0.78669477 -0.16673797
-0.014900531 -0.78672355 -0.16674408
-0.013483067 -0.78681892 -0.16676429
-0.01206634 -0.7869848 -0.16679944
-0.010649909 -0.78721684 -0.16684863
-0.0092335586 -0.78752702 -0.16691437
-0.0078167506 -0.78790402 -0.16699427
-0.0063992422 -0.78836209 -0.16709135
-0.004980566 -0.78889716 -0.16720477
-0.0035603088 -0.78950953 -0.16733456
-0.0021381034 -0.79021847 -0.16748482
-0.00071341917 -0.79101455 -0.16765355
0.00071422791 -0.79191124 -0.1678436
0.002145391 -0.79291189 -0.16805568
0.0035807113 -0.79403383 -0.16829348
0.0050209169 -0.7952885 -0.1685594
0.0064668343 -0.79668921 -0.16885628
0.007919454 -0.79825616 -0.16918838
0.0093801869 -0.80003291 -0.16956496
0.010850426 -0.80203855 -0.16999005
0.012332532 -0.8043462 -0.17047915
0.013829766 -0.80705088 -0.1710524
0.015347546 -0.81032521 -0.17174639
0.016896611 -0.81453824 -0.17263933
0.018510558 -0.82095474 -0.17399929
-0.054236986 -0.82378215 -0.1731126
-0.052278142 -0.81639719 -0.1715607
-0.050521821 -0.81183845 -0.17060271
-0.048846684 -0.80835104 -0.16986986
-0.047220215 -0.80547917 -0.16926636
-0.04562784 -0.80302501 -0.16875063
-0.044062071 -0.80089349 -0.1683027
-0.042517047 -0.79900742 -0.16790636
-0.040989496 -0.79732877 -0.1675536
-0.039476521 -0.79582196 -0.16723695
-0.037976336 -0.79446888 -0.16695261
-0.036487415 -0.79325467 -0.16669746
-0.03500808 -0.79215819 -0.16646703
-0.033537425 -0.79117322 -0.16626005
-0.032074157 -0.79028267 -0.16607291
-0.030618023 -0.7894932 -0.16590701
-0.029167956 -0.78879082 -0.1657594
-0.027723256 -0.78816897 -0.16562872
-0.026283633 -0.78763205 -0.1655159
-0.024848193 -0.78716624 -0.16541801
-0.023416689 -0.78677624 -0.16533606
-0.021988617 -0.78645873 -0.16526933
-0.02056347 -0.78620923 -0.16521689
-0.019140996 -0.7860325 -0.16517976
-0.017720552 -0.78591752 -0.16515559
-0.016302079 -0.78587759 -0.1651472
-0.014884952 -0.78590101 -0.16515213
-0.013468928 -0.78599381 -0.16517162
-0.012053595 -0.78615355 -0.1652052
-0.010638616 -0.78638208 -0.16525322
-0.0092236903 -0.78668541 -0.16531697
-0.0078083267 -0.78705484 -0.16539459
-0.0063923178 -0.78750908 -0.16549005
-0.0049751322 -0.78803647 -0.16560088
-0.0035564061 -0.78864408 -0.16572857
-0.0021357369 -0.78934383 -0.16587561
-0.00071262231 -0.79013103 -0.16604105
0.00071342138 -0.791017 -0.16622722
0.0021429504 -0.79200989 -0.16643587
0.0035765967 -0.7931214 -0.16666944
0.0050150654 -0.79436165 -0.16693008
0.0064591886 -0.79574728 -0.16722126
0.0079099424 -0.79729742 -0.167547
0.0093686217 -0.79904652 -0.16791457
0.010836785 -0.80103022 -0.16833143
0.012316536 -0.80330294 -0.16880903
0.013811116 -0.80596256 -0.16936794
0.015325781 -0.80917603 -0.17004323
0.016870415 -0.8132754 -0.17090468
0.018474286 -0.81934607 -0.1721804
-0.054209277 -0.82336134 -0.17153899
-0.052236415 -0.81574559 -0.16995233
-0.05047857 -0.81114346 -0.16899352
-0.04880308 -0.80762941 -0.16826141
-0.047177166 -0.80474484 -0.16766043
-0.045585819 -0.80228543 -0.16714804
-0.044020806 -0.80014348 -0.16670179
-0.042476915 -0.79825318 -0.16630796
-0.040950481 -0.79656988 -0.16595726
-0.039438661 -0.79505873 -0.16564243
-0.037939738 -0.79370332 -0.16536005
-0.036452025 -0.7924853 -0.16510628
-0.034973968 -0.79138637 -0.16487733
-0.03350452 -0.79039693 -0.1646712
-0.032042511 -0.78950298 -0.16448495
-0.030587742 -0.78871238 -0.16432023
-0.029138923 -0.78800565 -0.16417299
-0.027695512 -0.78738022 -0.1640427
-0.026257256 -0.78684163 -0.16393048
-0.024823099 -0.78637135 -0.1638325
-0.023392985 -0.78597981 -0.16375093
-0.021966225 -0.78565782 -0.16368385
-0.020542463 -0.78540605 -0.16363139
-0.019121332 -0.78522497 -0.16359366
-0.017702227 -0.78510481 -0.16356863
-0.016285162 -0.78506207 -0.16355973
-0.014869406 -0.78508019 -0.1635635
-0.013454799 -0.7851693 -0.16358207
-0.012040878 -0.7853241 -0.16361432
-0.010627343 -0.78554881 -0.16366114
-0.0092138443 -0.78584564 -0.16372298
-0.0077999546 -0.78621095 -0.16379909
-0.0063854083 -0.78665781 -0.16389218
-0.00496971 -0.78717762 -0.16400048
-0.0035525137 -0.78778094 -0.16412617
-0.0021333755 -0.7884711 -0.16426997
-0.00071182731 -0.78924954 -0.16443214
0.00071261817 -0.79012644 -0.16461484
0.0021405178 -0.79111081 -0.16481993
0.0035724915 -0.79221106 -0.16504915
0.0050092274 -0.79343694 -0.16530454
0.0064515672 -0.79480833 -0.16559026
0.0079004848 -0.79634416 -0.16591024
0.009357159 -0.79806888 -0.16626957
0.010823179 -0.80002451 -0.166677
0.012300688 -0.80226934 -0.16714469
0.013792704 -0.80488813 -0.16769029
0.01530409 -0.80803084 -0.16834503
0.016844455 -0.81202394 -0.16917697
0.018439723 -0.81781322 -0.1703831
-0.054181889 -0.82294536 -0.16996789
-0.052194647 -0.81509328 -0.16834615
-0.050435454 -0.81045061 -0.16738728
-0.048759591 -0.80690974 -0.16665596
-0.047134198 -0.80401188 -0.16605745
-0.045543876 -0.80154729 -0.16554841
-0.043979637 -0.7993952 -0.16510394
-0.042436857 -0.79750037 -0.16471258
-0.040911611 -0.79581374 -0.16436423
-0.039400961 -0.79429871 -0.16405132
-0.037903242 -0.79293978 -0.16377066
-0.036416709 -0.79171747 -0.16351821
-0.034939885 -0.79061514 -0.16329053
-0.033471659 -0.78962177 -0.16308537
-0.032011032 -0.78872734 -0.16290064
-0.030557521 -0.78793311 -0.16273659
-0.029109936 -0.78722179 -0.16258968
-0.027667915 -0.78659564 -0.16246037
-0.026230915 -0.78605223 -0.16234814
-0.024798069 -0.78557837 -0.16225027
-0.023369327 -0.78518498 -0.16216901
-0.021943891 -0.78485906 -0.1621017
-0.020521522 -0.78460538 -0.16204931
-0.019101743 -0.78442055 -0.16201113
-0.017684041 -0.78429818 -0.16198586
-0.016268322 -0.78425026 -0.16197596
-0.014853931 -0.78426313 -0.16197862
-0.013440738 -0.78434867 -0.16199629
-0.012028215 -0.78449821 -0.16202717
-0.010616121 -0.78471929 -0.16207282
-0.0092040412 -0.7850095 -0.16213277
-0.0077916174 -0.78537059 -0.16220735
-0.006378524 -0.7858097 -0.16229804
-0.0049643037 -0.78632128 -0.1624037
-0.0035486268 -0.786919 -0.16252714
-0.0021310193 -0.78760028 -0.16266786
-0.00071103399 -0.78836995 -0.16282682
0.00071181857 -0.78923988 -0.1630065
0.0021380908 -0.79021376 -0.16320764
0.0035683957 -0.7913028 -0.16343257
0.0050034043 -0.79251462 -0.16368285
0.0064439639 -0.79387164 -0.16396312
0.0078910505 -0.79539317 -0.16427737
0.0093457801 -0.79709834 -0.16462955
0.01080964 -0.79902375 -0.16502722
0.012284915 -0.80124056 -0.16548507
0.013774342 -0.80381656 -0.1660171
0.015282771 -0.80690521 -0.16665502
0.016818995 -0.81079656 -0.16745873
0.01840616 -0.81632465 -0.16860047
-0.054158766 -0.82259411 -0.16841154
-0.052153002 -0.81444293 -0.16674273
-0.050392512 -0.80976057 -0.16578411
-0.048716471 -0.80619615 -0.16505435
-0.04709148 -0.80328321 -0.16445798
-0.045501936 -0.80080914 -0.16395146
-0.043938559 -0.79864848 -0.1635091
-0.042396966 -0.79675078 -0.16312058
-0.040872831 -0.79505938 -0.16277429
-0.039363332 -0.79354012 -0.16246325
-0.037866831 -0.79217803 -0.16218439
-0.036381457 -0.79095113 -0.16193321
-0.034905817 -0.78984427 -0.1617066
-0.033438865 -0.7888481 -0.16150264
-0.03197962 -0.78795338 -0.16131946
-0.030527359 -0.78715539 -0.16115609
-0.029081013 -0.7864396 -0.16100955
-0.027640387 -0.78581303 -0.16088127
-0.026204685 -0.78526622 -0.16076933
-0.024773156 -0.7847892 -0.16067167
-0.023345808 -0.78439474 -0.1605909
-0.021921672 -0.78406435 -0.16052327
-0.020500675 -0.78380835 -0.16047084
-0.019082241 -0.78361964 -0.16043222
-0.017665925 -0.78349477 -0.16040665
-0.016251547 -0.78344154 -0.16039576
-0.014838554 -0.78345126 -0.16039774
-0.013426726 -0.78353107 -0.16041408
-0.012015605 -0.78367579 -0.16044371
-0.010604942 -0.78389293 -0.16048816
-0.0091942763 -0.78417671 -0.16054626
-0.0077833161 -0.78453386 -0.16061938
-0.0063716755 -0.78496599 -0.16070786
-0.0049589411 -0.78547186 -0.16081142
-0.0035447644 -0.78606248 -0.16093235
-0.0021286765 -0.7867344 -0.1610699
-0.00071024586 -0.78749609 -0.16122584
0.00071102183 -0.78835648 -0.161402
0.0021356696 -0.78931892 -0.16159904
0.0035643093 -0.79039663 -0.16181968
0.0049975952 -0.79159451 -0.16206492
0.0064363796 -0.79293728 -0.16233984
0.00788162 -0.79444259 -0.16264802
0.0093344282 -0.79613018 -0.16299352
0.010796214 -0.79803133 -0.16338275
0.012269206 -0.80021608 -0.16383004
0.013756074 -0.80275053 -0.16434892
0.01526151 -0.80578268 -0.1649697
0.016793763 -0.80958027 -0.1657472
0.018373448 -0.81487387 -0.16683096
-0.054136347 -0.82225364 -0.16685866
-0.052112926 -0.81381708 -0.16514663
-0.05034956 -0.80907035 -0.16418339
-0.048673607 -0.8054868 -0.16345619
-0.04704899 -0.80255842 -0.16286193
-0.045460101 -0.80007291 -0.16235755
-0.043897577 -0.7979036 -0.16191733
-0.042357165 -0.79600281 -0.16153161
-0.040834118 -0.79430634 -0.16118735
-0.039325785 -0.7927832 -0.16087826
-0.037830487 -0.79141772 -0.16060117
-0.036346279 -0.79018635 -0.16035129
-0.03487182 -0.78907496 -0.16012575
-0.033406142 -0.78807616 -0.15992306
-0.031948317 -0.78718209 -0.15974164
-0.03049732 -0.78638083 -0.15957904
-0.029052269 -0.78566229 -0.15943323
-0.02761298 -0.78503382 -0.15930569
-0.026178544 -0.7844829 -0.15919389
-0.024748368 -0.78400391 -0.15909669
-0.023322335 -0.78360605 -0.15901595
-0.021899499 -0.78327125 -0.15894802
-0.020479871 -0.78301293 -0.1588956
-0.019062754 -0.78281939 -0.15885632
-0.017647849 -0.78269309 -0.15883069
-0.016234808 -0.78263456 -0.15881881
-0.014823209 -0.78264111 -0.15882014
-0.013412756 -0.78271586 -0.15883531
-0.012003055 -0.78285724 -0.15886401
-0.010593787 -0.78306836 -0.15890685
-0.0091845337 -0.78334576 -0.15896313
-0.0077750371 -0.78369933 -0.15903489
-0.0063648405 -0.78412396 -0.15912105
-0.004953593 -0.78462476 -0.15922268
-0.0035409101 -0.78520781 -0.15934099
-0.0021263408 -0.78587109 -0.15947559
-0.00070946192 -0.78662694 -0.15962897
0.0007102291 -0.78747755 -0.15980159
0.0021332633 -0.78842962 -0.1599948
0.0035602441 -0.78949517 -0.16021103
0.0049918103 -0.7906782 -0.1604511
0.0064288131 -0.79200512 -0.16072036
0.0078722108 -0.79349416 -0.16102253
0.0093231043 -0.79516435 -0.16136146
0.010782876 -0.79704541 -0.16174318
0.01225357 -0.79919624 -0.16217965
0.013737922 -0.80169129 -0.16268596
0.015240386 -0.80466735 -0.16328989
0.016768865 -0.80838001 -0.16404329
0.01834194 -0.81347644 -0.16507751
-0.054118231 -0.82197845 -0.16532011
-0.052072994 -0.8131935 -0.16355324
-0.050306607 -0.80838013 -0.16258515
-0.048630755 -0.80477768 -0.16186062
-0.047006629 -0.80183583 -0.16126893
-0.045418426 -0.79933941 -0.16076685
-0.043856934 -0.79716486 -0.16032949
-0.042317439 -0.7952562 -0.15994561
-0.040795427 -0.79355371 -0.15960319
-0.039288331 -0.79202813 -0.15929636
-0.03779421 -0.79065883 -0.15902098
-0.036311205 -0.78942376 -0.15877257
-0.034838002 -0.78830969 -0.1585485
-0.033373713 -0.78731114 -0.15834767
-0.031917144 -0.78641397 -0.15816723
-0.030467361 -0.78560835 -0.15800519
-0.029023582 -0.78488648 -0.15786001
-0.027585626 -0.78425616 -0.15773323
-0.026152488 -0.78370208 -0.1576218
-0.024723664 -0.7832213 -0.15752509
-0.023298908 -0.78281897 -0.15744418
-0.021877371 -0.78247982 -0.15737598
-0.02045911 -0.78221917 -0.15732354
-0.019043304 -0.78202069 -0.15728362
-0.01762981 -0.78189301 -0.15725794
-0.0162181 -0.78182918 -0.15724511
-0.014807897 -0.78183264 -0.1572458
-0.01339882 -0.78190255 -0.15725987
-0.01199053 -0.78204036 -0.15728758
-0.010582654 -0.78224546 -0.15732883
-0.0091748452 -0.7825194 -0.15738393
-0.0077667753 -0.7828666 -0.15745376
-0.0063580205 -0.78328377 -0.15753767
-0.004948257 -0.78377956 -0.15763737
-0.0035370642 -0.78435493 -0.1577531
-0.0021240108 -0.78501004 -0.15788485
-0.00070867984 -0.78575975 -0.15803564
0.00070943846 -0.78660089 -0.15820482
0.0021308623 -0.78754228 -0.15839416
0.0035561926 -0.78859675 -0.15860623
0.0049860692 -0.78976882 -0.15884197
0.0064213201 -0.79108202 -0.15910609
0.0078628454 -0.79255021 -0.15940137
0.0093118083 -0.7942009 -0.15973337
0.01076957 -0.79606187 -0.16010766
0.01223799 -0.7981801 -0.16053368
0.013720039 -0.80064768 -0.16102996
0.015219538 -0.80356663 -0.16161704
0.0167441 -0.80718613 -0.16234502
0.018310795 -0.81209511 -0.16333233
0.02003493 -0.82274222 -0.16547373
-0.054105569 -0.82178617 -0.16379909
-0.052033048 -0.81256968 -0.16196206
-0.050263878 -0.80769354 -0.16099015
-0.048587978 -0.80406976 -0.16026784
-0.046964426 -0.80111593 -0.15967909
-0.045376852 -0.79860777 -0.15917917
-0.04381638 -0.79642773 -0.15874463
-0.042277783 -0.79451102 -0.1583626
-0.040756807 -0.79280251 -0.15802205
-0.039250974 -0.79127502 -0.15771759
-0.037758093 -0.78990322 -0.15744416
-0.036276352 -0.78866607 -0.15719758
-0.034804355 -0.78754836 -0.15697479
-0.033341363 -0.78654796 -0.15677539
-0.031886026 -0.78564727 -0.15659587
-0.030437462 -0.78483737 -0.15643443
-0.028995028 -0.7841143 -0.15629031
-0.027558342 -0.78348047 -0.15616398
-0.026126482 -0.78292274 -0.15605281
-0.024699006 -0.78244019 -0.15595663
-0.023275528 -0.78203344 -0.15587555
-0.021855362 -0.78169262 -0.15580761
-0.020438394 -0.78142715 -0.1557547
-0.019023895 -0.78122365 -0.15571414
-0.017611809 -0.78109467 -0.15568843
-0.016201425 -0.78102529 -0.15567461
-0.014792616 -0.78102583 -0.15567471
-0.013384914 -0.78109109 -0.15568772
-0.01197803 -0.78122509 -0.15571444
-0.010571545 -0.78142428 -0.15575413
-0.0091651781 -0.78169489 -0.15580808
-0.0077585313 -0.78203559 -0.15587598
-0.0063512237 -0.78244644 -0.15595788
-0.0049429387 -0.78293717 -0.15605569
-0.0035332267 -0.78350395 -0.15616865
-0.0021216942 -0.78415382 -0.15629819
-0.00070789939 -0.78489447 -0.15644582
0.00070865033 -0.78572708 -0.15661177
0.002128467 -0.78665692 -0.15679711
0.0035521612 -0.78770274 -0.15700556
0.0049803634 -0.78886503 -0.15723723
0.0064138728 -0.79016453 -0.15749624
0.0078535806 -0.79161638 -0.15778562
0.0093005933 -0.79324442 -0.15811013
0.010756329 -0.79508311 -0.15847662
0.012222609 -0.79717696 -0.15889397
0.013702173 -0.79960507 -0.15937795
0.015198838 -0.80247366 -0.15994972
0.016719535 -0.80600196 -0.16065298
0.018280577 -0.81075495 -0.16160035
0.019960862 -0.81970054 -0.16338339
-0.054100849 -0.82171446 -0.16230258
-0.051992822 -0.8119415 -0.16037227
-0.050221853 -0.80701822 -0.15939984
-0.048545379 -0.80336481 -0.15867822
-0.0469223 -0.80039734 -0.1580921
-0.045335386 -0.79787797 -0.15759447
-0.04377589 -0.79569173 -0.15716265
-0.042238206 -0.79376721 -0.15678254
-0.040718373 -0.79205489 -0.15644433
-0.039213862 -0.79052687 -0.1561425
-0.037722077 -0.78914982 -0.15587053
-0.036241565 -0.78790981 -0.1556256
-0.034770824 -0.7867896 -0.15540433
-0.033309069 -0.78578615 -0.15520614
-0.031854969 -0.78488201 -0.15502755
-0.030407619 -0.78406787 -0.15486676
-0.028966555 -0.78334433 -0.15472384
-0.027531127 -0.78270674 -0.15459791
-0.026100529 -0.78214502 -0.15448695
-0.024674421 -0.78166133 -0.15439142
-0.023252249 -0.78125125 -0.15431042
-0.021833466 -0.78090948 -0.15424292
-0.020417817 -0.78064036 -0.15418977
-0.019004697 -0.78043526 -0.15414925
-0.017593939 -0.78030211 -0.15412295
-0.016184898 -0.78022861 -0.15410843
-0.014777469 -0.78022611 -0.15410794
-0.01337111 -0.78028554 -0.15411967
-0.011965632 -0.78041643 -0.15414552
-0.010560529 -0.78061008 -0.15418378
-0.0091555836 -0.78087658 -0.15423642
-0.0077503477 -0.78121072 -0.15430242
-0.0063444907 -0.78161693 -0.15438265
-0.0049376558 -0.78210038 -0.15447813
-0.0035294108 -0.7826578 -0.15458824
-0.0021193884 -0.78330159 -0.15471539
-0.00070712139 -0.78403181 -0.15485963
0.000707864 -0.78485519 -0.15502226
0.0021260821 -0.78577548 -0.15520403
0.0035481455 -0.78681225 -0.15540881
0.0049746702 -0.78796327 -0.15563616
0.0064064427 -0.78924918 -0.15589015
0.0078443382 -0.79068476 -0.15617369
0.0092894668 -0.79229546 -0.15649183
0.010743169 -0.79411036 -0.15685031
0.012207348 -0.79618156 -0.1572594
0.013684332 -0.79856396 -0.15772997
0.015178193 -0.80138367 -0.15828691
0.016695486 -0.80484259 -0.1589701
0.01825089 -0.80943829 -0.15987784
0.019906929 -0.81748581 -0.16146736
-0.054108892 -0.82183659 -0.16084428
-0.051952675 -0.81131458 -0.15878499
-0.050179996 -0.80634564 -0.15781249
-0.048502896 -0.80266178 -0.15709151
-0.046880253 -0.79968011 -0.15650797
-0.045293994 -0.79714954 -0.1560127
-0.043735486 -0.79495734 -0.15558365
-0.042198986 -0.7930302 -0.15520649
-0.040680159 -0.79131156 -0.15487012
