# .PCD v0.7 - Point Cloud Data file format
VERSION 0.7
FIELDS x y z
SIZE 4 4 4
TYPE F F F
COUNT 1 1 1
WIDTH 1296
HEIGHT 1
VIEWPOINT 0 0 0 1 0 0 0
POINTS 1296
DATA ascii
0.012071737 -0.09302339 0.78733677
0.013542074 -0.093369037 0.79026228
0.01503326 -0.093778908 0.79373139
0.016568249 -0.09436699 0.7987088
-0.052233908 -0.09230376 0.79335827
-0.050539814 -0.091825858 0.78925067
-0.048933171 -0.091483757 0.78631026
-0.047367107 -0.091199353 0.78386581
-0.045827258 -0.090949483 0.78171813
-0.044306684 -0.090723217 0.77977335
-0.042802081 -0.090515874 0.77799124
-0.041310921 -0.09032388 0.77634102
-0.039831568 -0.090145126 0.77480465
-0.038362537 -0.089977585 0.7733646
-0.036903068 -0.089820676 0.77201599
-0.035452619 -0.089674272 0.77075762
-0.034010369 -0.089537509 0.76958209
-0.032576393 -0.089411803 0.7685017
-0.031149914 -0.089296415 0.76750994
-0.02973122 -0.089193657 0.76662672
-0.028319566 -0.089103021 0.76584768
-0.026914166 -0.089023776 0.76516658
-0.025514444 -0.08895576 0.76458198
-0.024120012 -0.088899471 0.76409817
-0.022729969 -0.088853508 0.76370311
-0.021343771 -0.088817634 0.76339471
-0.019961093 -0.088792443 0.76317823
-0.018581307 -0.088777356 0.76304853
-0.017203916 -0.088772207 0.7630043
-0.01582847 -0.088777073 0.76304609
-0.014454496 -0.088791899 0.76317358
-0.01308159 -0.088817112 0.76339024
-0.01170925 -0.08885254 0.76369476
-0.010337081 -0.088898897 0.76409322
-0.0089646587 -0.088956997 0.76459259
-0.007591431 -0.089026779 0.76519239
-0.0062169312 -0.089109346 0.76590204
-0.0048406101 -0.089205533 0.76672876
-0.0034618883 -0.089316718 0.7676844
-0.0020800787 -0.089443386 0.76877314
-0.0006944834 -0.089588359 0.77001917
0.00069574208 -0.08975073 0.77141476
0.0020914508 -0.089932382 0.7729761
0.0034935302 -0.090133078 0.77470112
0.004902822 -0.090352006 0.77658278
0.0063202148 -0.090589747 0.7786262
0.0077467733 -0.090848528 0.78085041
0.0091836024 -0.091129586 0.78326619
0.01063257 -0.091440096 0.78593504
0.012095605 -0.091784298 0.78889346
0.013576151 -0.092174917 0.79225087
0.015083784 -0.092657536 0.796399
-0.052491236 -0.091320366 0.79726666
-0.050681032 -0.090654805 0.79145598
-0.04904142 -0.090264641 0.7880497
-0.047453534 -0.089949235 0.78529608
-0.045896653 -0.089675002 0.78290188
-0.044362683 -0.089429535 0.78075886
-0.042844884 -0.089201644 0.77876925
-0.041342419 -0.088991307 0.77693295
-0.03985272 -0.088794656 0.7752161
-0.038374174 -0.088609464 0.77359927
-0.0369059 -0.088434897 0.77207524
-0.035447568 -0.088271394 0.77064782
-0.033999294 -0.088120617 0.76933146
-0.03256119 -0.087984495 0.76814306
-0.031132532 -0.087862924 0.76708168
-0.029712345 -0.087755069 0.76614004
-0.028300012 -0.087661013 0.76531887
-0.026894504 -0.087579541 0.76460761
-0.025495075 -0.087510124 0.76400155
-0.024101142 -0.087452717 0.76350039
-0.022711765 -0.087405883 0.7630915
-0.021326462 -0.087369695 0.7627756
-0.019944657 -0.087343842 0.76254988
-0.018565865 -0.08732833 0.76241446
-0.017189503 -0.087322675 0.76236504
-0.015815059 -0.087326623 0.76239955
-0.01444215 -0.087340623 0.76252174
-0.01307033 -0.087364838 0.76273316
-0.011699148 -0.087399513 0.76303589
-0.010328108 -0.087444648 0.76342994
-0.0089568235 -0.08750128 0.76392436
-0.0075848144 -0.087570131 0.76452547
-0.0062115118 -0.087651335 0.76523441
-0.0048364722 -0.087747425 0.76607335
-0.0034589649 -0.087857708 0.76703614
-0.0020784016 -0.087985665 0.76815325
-0.00069395959 -0.088132866 0.76943839
0.00069528766 -0.088301532 0.77091092
0.0020904129 -0.088494152 0.77259254
0.0034926424 -0.088713117 0.77450424
0.0049030688 -0.088955678 0.77662188
0.0063228202 -0.089222021 0.77894717
0.0077531561 -0.089513712 0.78149378
0.0091951117 -0.089829162 0.78424782
0.010651088 -0.090179212 0.78730386
0.012123854 -0.09057232 0.7907359
0.013619125 -0.091033101 0.79475868
0.015157585 -0.091667302 0.80029553
-0.050867964 -0.089556269 0.79437518
-0.049172606 -0.089080803 0.79015774
-0.047554407 -0.08872091 0.78696543
-0.04597621 -0.088415787 0.78425896
-0.044423211 -0.088141292 0.78182417
-0.042890117 -0.087889582 0.77959144
-0.041373186 -0.087655053 0.77751112
-0.039870277 -0.087434821 0.77555764
-0.03837901 -0.08722502 0.77369672
-0.036900233 -0.087028854 0.77195668
-0.035434723 -0.086849816 0.77036858
-0.03398212 -0.086689085 0.76894289
-0.03254135 -0.086546145 0.76767498
-0.031111276 -0.086420208 0.76655793
-0.029690858 -0.086310633 0.76558596
-0.028278539 -0.086215056 0.7647382
-0.026873536 -0.08613313 0.7640115
-0.025474897 -0.086063839 0.76339686
-0.024081664 -0.086005941 0.76288331
-0.022693269 -0.085959353 0.76247007
-0.02130891 -0.085923024 0.76214784
-0.019928111 -0.085897028 0.76191723
-0.01855029 -0.085880972 0.76177484
-0.01717498 -0.0858749 0.76172096
-0.015801614 -0.085878335 0.76175141
-0.014429797 -0.085891649 0.76186955
-0.013059047 -0.085914783 0.76207471
-0.011688954 -0.085948192 0.76237106
-0.01031907 -0.085992254 0.76276189
-0.008948924 -0.086047344 0.76325059
-0.0075780721 -0.086114459 0.76384586
-0.0062059802 -0.086194165 0.76455289
-0.0048321122 -0.086287715 0.76538271
-0.0034558591 -0.086396478 0.76634741
-0.0020765446 -0.086522691 0.76746696
-0.00069335621 -0.086669527 0.76876938
0.00069471059 -0.086838819 0.77027106
0.0020888606 -0.087035865 0.77201885
0.0034906499 -0.087266251 0.7740624
0.0049018734 -0.087533459 0.77643257
0.00632426 -0.087836944 0.77912456
0.0077591804 -0.088172503 0.78210098
0.0092078643 -0.088537164 0.78533554
0.010673366 -0.088944718 0.78895062
0.01215991 -0.089411102 0.79308754
0.013678441 -0.089989737 0.7982201
-0.051195078 -0.088690065 0.79948354
-0.049341485 -0.087956555 0.79287148
-0.047677241 -0.08752688 0.78899819
-0.046068527 -0.087175824 0.78583366
-0.044491936 -0.086865209 0.78303367
-0.042938318 -0.086580545 0.78046757
-0.041401938 -0.086312518 0.7780515
-0.039881278 -0.0860596 0.77577162
-0.038375154 -0.085820802 0.773619
-0.036887132 -0.085605986 0.77168256
-0.035415959 -0.085414961 0.76996058
-0.03396038 -0.085247487 0.76845092
-0.032518625 -0.085101932 0.76713884
-0.031088512 -0.084975265 0.76599705
-0.029668178 -0.084864788 0.76500118
-0.028256657 -0.084769972 0.76414645
-0.026852358 -0.084688202 0.76340938
-0.025454631 -0.084619448 0.76278961
-0.024062354 -0.084561981 0.76227158
-0.02267492 -0.084515616 0.76185358
-0.021291623 -0.08447966 0.76152951
-0.019911822 -0.08445359 0.76129448
-0.018535003 -0.084437236 0.76114708
-0.017160716 -0.084430717 0.76108831
-0.015788408 -0.08443366 0.76111484
-0.014417659 -0.084446289 0.76122868
-0.013047965 -0.084468409 0.76142806
-0.011678963 -0.08450073 0.76171941
-0.010310199 -0.084543638 0.76210618
-0.0089411689 -0.084597215 0.76258916
-0.0075714146 -0.084662177 0.76317477
-0.006200477 -0.084739849 0.76387495
-0.0048277657 -0.084830746 0.76469427
-0.0034527276 -0.084937103 0.76565301
-0.0020746456 -0.08506047 0.76676512
-0.0006927175 -0.085204251 0.76806122
0.00069407636 -0.08537139 0.76956785
0.0020870261 -0.085568078 0.77134085
0.0034879164 -0.085802741 0.77345622
0.0048991051 -0.086084276 0.77599406
0.006323861 -0.086426102 0.77907538
0.0077647441 -0.086823955 0.7826618
0.0092225764 -0.087259762 0.78659028
0.010701584 -0.087752983 0.79103637
0.012209933 -0.088342458 0.79635012
0.013810646 -0.08940576 0.80593508
-0.049593579 -0.086968452 0.79692239
-0.047834884 -0.086388372 0.79160696
-0.046181239 -0.085968152 0.78775632
-0.044570994 -0.085604608 0.78442502
-0.042988729 -0.085272722 0.78138387
-0.04142664 -0.084959716 0.7785157
-0.039883394 -0.084664755 0.7758128
-0.038363855 -0.084400482 0.77339119
-0.036868084 -0.084170535 0.7712841
-0.035393827 -0.083973594 0.76947945
-0.033936992 -0.083803594 0.76792169
-0.03249516 -0.083657756 0.76658535
-0.031065328 -0.083531216 0.7654258
-0.029645652 -0.083421484 0.76442033
-0.028235031 -0.08332777 0.76356161
-0.026831657 -0.083246931 0.76282084
-0.025434772 -0.083178572 0.76219445
-0.024043502 -0.083121821 0.7616744
-0.022656955 -0.083075501 0.76124996
-0.021274647 -0.083039753 0.76092237
-0.019895846 -0.083013698 0.76068366
-0.018520022 -0.082997136 0.76053184
-0.01714669 -0.082989976 0.76046628
-0.015775425 -0.082992449 0.76048893
-0.014405724 -0.083004408 0.76059848
-0.013037101 -0.083025746 0.76079404
-0.011669151 -0.083056889 0.76107943
-0.010301457 -0.083098419 0.76145995
-0.0089335162 -0.083150417 0.76193643
-0.0075648767 -0.083213642 0.76251578
-0.0061950767 -0.083289362 0.76320964
-0.004823532 -0.083378196 0.76402366
-0.0034496502 -0.083481535 0.7649706
-0.0020727771 -0.083602011 0.76607454
-0.00069208181 -0.083741903 0.7673564
0.00069343025 -0.083905064 0.76885152
0.0020850799 -0.084098227 0.77062154
0.003484722 -0.084330276 0.77274787
0.0048952312 -0.08461757 0.77538043
0.0063211583 -0.084984466 0.77874243
0.0077690212 -0.085459232 0.78309292
0.009241092 -0.086013243 0.7881695
0.010741878 -0.086651154 0.79401487
0.012299353 -0.087542452 0.8021822
-0.048066724 -0.085372239 0.79544359
-0.046327319 -0.08481463 0.79024816
-0.044666898 -0.084370807 0.7861129
-0.043044478 -0.083972014 0.78239721
-0.041445732 -0.083593927 0.77887446
-0.039877489 -0.083253004 0.77569795
-0.03834594 -0.08296667 0.77303004
-0.036845971 -0.082729638 0.77082151
-0.035369959 -0.082529902 0.76896054
-0.033913188 -0.082360603 0.7673831
-0.032471698 -0.082215577 0.76603186
-0.03104239 -0.082089871 0.76486063
-0.029623747 -0.081982002 0.76385552
-0.02821381 -0.081888862 0.76298773
-0.026811359 -0.081809022 0.76224381
-0.025415294 -0.08174108 0.76161081
-0.024024984 -0.081684947 0.76108778
-0.022639394 -0.081639029 0.76065993
-0.021257982 -0.081603222 0.76032633
-0.019880161 -0.081577212 0.76008397
-0.018505314 -0.081560455 0.75992787
-0.017132953 -0.081552856 0.75985706
-0.015762711 -0.081554897 0.75987607
-0.014394019 -0.08156611 0.7599805
-0.013026418 -0.081586517 0.76017064
-0.011659518 -0.081616625 0.7604512
-0.010292893 -0.081656955 0.76082695
-0.0089260358 -0.08170756 0.76129848
-0.0075584897 -0.081769116 0.76187199
-0.0061897803 -0.081842653 0.76255715
-0.0048193517 -0.081928983 0.76336151
-0.0034466235 -0.082029641 0.76429939
-0.0020709438 -0.082147442 0.76539701
-0.00069145946 -0.082283676 0.76666635
0.00069279619 -0.082442746 0.76814848
0.0020831246 -0.082630605 0.76989883
0.0034814358 -0.082858175 0.77201915
0.0048906491 -0.083141036 0.77465469
0.0063166381 -0.083519995 0.77818555
0.0077712564 -0.084070861 0.78331822
0.00926759 -0.084834091 0.79042947
0.010816705 -0.085812531 0.79954594
-0.046546295 -0.083783336 0.79398346
-0.044796206 -0.083192952 0.78838861
-0.043109067 -0.082684599 0.78357118
-0.041458897 -0.082215101 0.77912188
-0.039865177 -0.081828527 0.77545846
-0.038325224 -0.081528209 0.77261245
-0.036822651 -0.081287734 0.77033359
-0.03534608 -0.081088066 0.76844138
-0.033889759 -0.080920443 0.76685292
-0.03244869 -0.080776528 0.76548904
-0.031020364 -0.080652945 0.76431793
-0.029602321 -0.08054585 0.76330304
-0.028193044 -0.080453321 0.76242614
-0.026791485 -0.080374449 0.76167876
-0.025396278 -0.080307148 0.76104093
-0.024006743 -0.080251113 0.76050991
-0.022622092 -0.080205597 0.76007855
-0.021241602 -0.080169916 0.75974041
-0.019864716 -0.080143854 0.75949347
-0.018490871 -0.080127105 0.75933474
-0.017119497 -0.080119245 0.75926024
-0.015750209 -0.080120631 0.75927335
-0.014382502 -0.080131084 0.75937241
-0.013015951 -0.080150858 0.75955981
-0.011650065 -0.080179855 0.75983465
-0.010284465 -0.080218829 0.76020396
-0.00891867 -0.080268033 0.76067024
-0.0075521995 -0.080327943 0.76123798
-0.0061845887 -0.080399655 0.76191759
-0.0048152721 -0.080483831 0.76271528
-0.0034436791 -0.08058209 0.76364648
-0.0020691496 -0.080696836 0.76473385
-0.00069085206 -0.080829695 0.76599288
0.00069217919 -0.080984965 0.76746434
0.0020812326 -0.081168078 0.76919961
0.003478168 -0.081389129 0.77129447
0.0048859464 -0.081665099 0.77390975
0.0063107046 -0.082039163 0.77745456
0.0077709365 -0.082654506 0.78328598
0.0093210144 -0.083889127 0.79498601
-0.044997942 -0.082139097 0.79193908
-0.043192044 -0.081427626 0.78507942
-0.041463189 -0.080818087 0.77920258
-0.039848801 -0.080396704 0.77513987
-0.038303342 -0.080088802 0.77217126
-0.036799703 -0.079848409 0.76985353
-0.035323359 -0.079650715 0.76794744
-0.033867162 -0.07948415 0.76634157
-0.032426577 -0.07934162 0.76496738
-0.030998798 -0.079219148 0.76378655
-0.029581286 -0.079112746 0.76276064
-0.028172852 -0.079021417 0.7618801
-0.026771963 -0.078942969 0.76112378
-0.025377644 -0.078876458 0.76048255
-0.023988893 -0.078820646 0.75994444
-0.02260508 -0.078775279 0.759507
-0.021225508 -0.078739785 0.75916481
-0.019849502 -0.078713544 0.75891179
-0.018476609 -0.078696668 0.75874907
-0.017106229 -0.078688651 0.75867182
-0.015737895 -0.078689471 0.75867969
-0.01437117 -0.078699261 0.7587741
-0.013005626 -0.078718267 0.75895733
-0.011640766 -0.078746356 0.75922817
-0.010276175 -0.078784004 0.75959116
-0.0089114215 -0.078831807 0.76005203
-0.0075459923 -0.078889921 0.76061231
-0.0061794743 -0.078959949 0.76128751
-0.0048112557 -0.079042062 0.76207918
-0.003440782 -0.079137981 0.763004
-0.0020673855 -0.079249777 0.76408184
-0.00069025479 -0.079379305 0.76533067
0.00069157401 -0.079531014 0.76679337
0.0020793772 -0.079709463 0.76851386
0.0034749892 -0.079924755 0.77058959
0.0048813382 -0.080193415 0.77317989
0.006304462 -0.080557011 0.77668548
0.0077672955 -0.081203543 0.78291899
-0.043329328 -0.080265805 0.78757477
-0.041464273 -0.079414621 0.77922291
-0.039830524 -0.078962274 0.77478439
-0.038282342 -0.078652814 0.77174795
-0.036777876 -0.078413203 0.7693969
-0.035301227 -0.078216441 0.76746625
-0.033845264 -0.078051321 0.76584607
-0.032405056 -0.077910028 0.76445973
-0.030977646 -0.077788308 0.76326537
-0.029560808 -0.077683054 0.7622326
-0.028153017 -0.077592462 0.76134372
-0.026752772 -0.07751444 0.76057816
-0.025359306 -0.077448696 0.75993305
-0.023971362 -0.077393249 0.75938904
-0.022588432 -0.07734827 0.75894767
-0.021209704 -0.07731279 0.75859958
-0.019834556 -0.077286378 0.75834036
-0.018462535 -0.077269129 0.75817114
-0.01709312 -0.077260904 0.75809044
-0.015725747 -0.077261284 0.75809413
-0.014359973 -0.077270329 0.75818294
-0.012995428 -0.077288598 0.75836217
-0.011631585 -0.07731583 0.75862938
-0.01026798 -0.077352121 0.75898546
-0.0089042876 -0.077398807 0.75944358
-0.0075399294 -0.07745564 0.76000118
-0.0061744698 -0.077523902 0.76067096
-0.004807312 -0.07760375 0.76145446
-0.0034379386 -0.077697411 0.76237351
-0.0020656593 -0.077806495 0.76344383
-0.00068967236 -0.077932976 0.76468486
0.00069098407 -0.078081205 0.76613927
0.0020775653 -0.07825496 0.7678442
0.0034719047 -0.078465044 0.76990557
0.0048768665 -0.07872656 0.77247155
0.0062983767 -0.079079621 0.77593583
0.0077600335 -0.079716705 0.78218699
-0.041462332 -0.078005403 0.77918643
-0.039813608 -0.077531762 0.77445531
-0.038262699 -0.077221081 0.77135193
-0.036756773 -0.076981165 0.76895547
-0.035279773 -0.076785386 0.76699984
-0.033823896 -0.07662148 0.76536256
-0.032384004 -0.076481372 0.7639631
-0.030956943 -0.076360457 0.76275527
-0.029540814 -0.076256521 0.76171708
-0.028133605 -0.076166585 0.76081872
-0.026734041 -0.076089196 0.76004565
-0.025341257 -0.076023772 0.75939214
-0.023954138 -0.075968839 0.75884342
-0.022572003 -0.075924009 0.75839567
-0.021194175 -0.07588882 0.75804412
-0.019819925 -0.075862467 0.75778091
-0.018448779 -0.075844981 0.75760627
-0.017080264 -0.075836375 0.75752026
-0.015713833 -0.075836323 0.75751978
-0.014348986 -0.075844638 0.75760281
-0.012985422 -0.075862207 0.75777829
-0.011622552 -0.075888425 0.75804019
-0.010259949 -0.075923622 0.75839174
-0.0088972868 -0.075969145 0.75884646
-0.0075339447 -0.076024346 0.75939792
-0.0061695245 -0.076090805 0.76006174
-0.0048034317 -0.076168701 0.76083982
-0.0034351421 -0.076260157 0.76175338
-0.002063961 -0.076366559 0.76281619
-0.00068910222 -0.076490343 0.76405269
0.00069040322 -0.076634757 0.76549524
0.0020758093 -0.076804943 0.76719517
0.0034689268 -0.077010177 0.76924521
0.0048725372 -0.077264525 0.77178586
0.0062925303 -0.077607878 0.77521557
0.0077516818 -0.078221522 0.78134519
-0.041462954 -0.076601051 0.77919811
-0.039798532 -0.076105967 0.77416205
-0.038243987 -0.075792633 0.77097476
-0.036736708 -0.075552851 0.76853567
-0.035259455 -0.07535845 0.76655817
-0.033803225 -0.075194933 0.76489484
-0.03236362 -0.075056054 0.76348215
-0.030936968 -0.074936211 0.76226312
-0.029521139 -0.074832655 0.76120973
-0.028114475 -0.07474336 0.76030141
-0.026715728 -0.074667037 0.759525
-0.025323553 -0.074601814 0.7588616
-0.023937223 -0.07454735 0.75830758
-0.0225558 -0.07450249 0.75785124
-0.021178791 -0.074467361 0.75749391
-0.019805437 -0.07444112 0.757227
-0.018435182 -0.074423507 0.75704783
-0.017067539 -0.074414469 0.75695586
-0.015702056 -0.074414089 0.75695205
-0.014338174 -0.07442195 0.75703198
-0.012975533 -0.074438587 0.75720119
-0.011613638 -0.074463919 0.75745887
-0.010252023 -0.074498035 0.75780594
-0.0088903578 -0.074542232 0.75825548
-0.0075280298 -0.074595936 0.75880176
-0.0061646388 -0.074660622 0.75945979
-0.0047996175 -0.074736901 0.76023567
-0.0034323938 -0.074826188 0.76114392
-0.0020623044 -0.074930392 0.76220393
-0.00068854174 -0.075051047 0.76343125
0.00068983505 -0.075192019 0.76486528
0.0020740861 -0.075358465 0.76655835
0.0034659938 -0.075558662 0.7685948
0.0048683784 -0.075807609 0.7711271
0.0062870085 -0.076142661 0.7745353
0.0077438084 -0.076734103 0.78055155
-0.041468699 -0.075205944 0.77930605
-0.039785553 -0.074685164 0.77390957
-0.038226325 -0.074367575 0.77061868
-0.03671775 -0.074128285 0.76813906
-0.035239469 -0.073933788 0.76612359
-0.03378338 -0.073771872 0.76444578
-0.03234366 -0.073633432 0.76301128
-0.030917307 -0.073514491 0.76177871
-0.029501971 -0.073411882 0.76071548
-0.028095827 -0.073323257 0.7597971
-0.026697619 -0.073247313 0.7590102
-0.025306184 -0.073182747 0.75834113
-0.023920581 -0.073128633 0.75778037
-0.022539997 -0.073084235 0.75732028
-0.021163695 -0.073048882 0.75695395
-0.019791167 -0.073022582 0.75668144
-0.018421769 -0.07300479 0.75649709
-0.01705499 -0.072995357 0.75639933
-0.015690411 -0.072994515 0.75639063
-0.014327466 -0.073001854 0.75646663
-0.01296573 -0.07301753 0.75662911
-0.01160482 -0.073042102 0.75688374
-0.010244203 -0.073075309 0.75722784
-0.0088835172 -0.07311818 0.75767207
-0.0075222235 -0.073170722 0.7582165
-0.0061598569 -0.073233858 0.75887072
-0.0047958698 -0.073308297 0.75964206
-0.0034296894 -0.073395357 0.76054424
-0.0020606653 -0.073497057 0.76159811
-0.00068798946 -0.073614873 0.76281893
0.00068928086 -0.073753051 0.76425076
0.0020723953 -0.073915437 0.76593345
0.0034631421 -0.074111246 0.76796246
0.004864343 -0.074354954 0.7704879
0.0062817247 -0.074682727 0.77388436
0.0077366484 -0.075256489 0.77982986
-0.041486438 -0.073831797 0.77963948
-0.039774995 -0.073269732 0.77370423
-0.038210925 -0.072948135 0.77030826
-0.036699601 -0.072706752 0.76775938
-0.035220496 -0.072512783 0.76571113
-0.033763956 -0.072351336 0.76400626
-0.032324154 -0.072213531 0.76255113
-0.030897871 -0.072095029 0.76129979
-0.02948316 -0.071993761 0.76023042
-0.028077558 -0.071905941 0.75930303
-0.026679911 -0.071830526 0.75850672
-0.025289068 -0.071766272 0.75782824
-0.02390407 -0.071712211 0.75725734
-0.022524308 -0.071668252 0.75679314
-0.021148818 -0.071633093 0.75642186
-0.019777093 -0.071606718 0.75614333
-0.018408582 -0.071588926 0.75595552
-0.017042657 -0.071579166 0.7558524
-0.015678983 -0.071577966 0.75583977
-0.014316958 -0.071584791 0.75591183
-0.012956116 -0.071599595 0.75606811
-0.011596166 -0.071623378 0.75631928
-0.010236524 -0.071655668 0.75666028
-0.0088767838 -0.071697101 0.75709778
-0.0075164884 -0.071748294 0.75763839
-0.0061551179 -0.071809709 0.75828689
-0.0047921548 -0.071882322 0.75905365
-0.0034270219 -0.07196746 0.75995266
-0.0020590532 -0.072066858 0.7610023
-0.00068745093 -0.07218235 0.76222181
0.00068873516 -0.072317198 0.76364577
0.0020707506 -0.072476268 0.76532555
0.0034603854 -0.072668098 0.76735115
0.0048604035 -0.072906055 0.7698639
0.0062765959 -0.073226951 0.77325249
0.0077304379 -0.073790543 0.77920383
-0.041523337 -0.072489887 0.78033286
-0.039766863 -0.071859419 0.77354598
-0.038195901 -0.071530506 0.77000535
-0.03668236 -0.071288362 0.76739872
-0.035202298 -0.071094841 0.76531553
-0.033745114 -0.070933603 0.76357991
-0.032305334 -0.070796795 0.76210719
-0.030879337 -0.070679374 0.76084316
-0.029464718 -0.070578277 0.7597549
-0.028059455 -0.070490822 0.7588135
-0.026662515 -0.070416383 0.75801218
-0.025272248 -0.07035248 0.75732422
-0.023887984 -0.070298925 0.75674772
-0.022508875 -0.070254967 0.75627458
-0.021134157 -0.070219934 0.75589746
-0.019763153 -0.070193268 0.75561041
-0.018395482 -0.07017535 0.75541753
-0.017030424 -0.070165351 0.75530982
-0.015667595 -0.070163578 0.75529075
-0.014306494 -0.070169948 0.75535935
-0.012946588 -0.070184134 0.75551206
-0.011587583 -0.070207119 0.75575948
-0.010228878 -0.070238292 0.75609505
-0.0088701006 -0.070278488 0.75652778
-0.0075108162 -0.070328549 0.75706667
-0.0061504529 -0.070388518 0.75771219
-0.0047885124 -0.070459537 0.75847667
-0.0034244065 -0.070542775 0.75937271
-0.0020574664 -0.070639677 0.76041585
-0.00068691804 -0.070752554 0.76163095
0.00068819849 -0.070884444 0.76305068
0.0020691338 -0.071040258 0.76472801
0.0034576731 -0.071228065 0.76674968
0.0048566111 -0.071461566 0.76926321
0.006271665 -0.071775727 0.77264506
0.0077248341 -0.072332539 0.77863902
-0.039761323 -0.070454277 0.77343827
-0.038182724 -0.070117362 0.76973969
-0.036666568 -0.069874026 0.76706833
-0.035184845 -0.069679789 0.76493609
-0.033726953 -0.069518827 0.76316899
-0.032286912 -0.069382519 0.76167262
-0.030860992 -0.069265783 0.76039112
-0.029446706 -0.06916552 0.75929046
-0.028041851 -0.069078706 0.75833744
-0.026645362 -0.069004655 0.75752455
-0.025255609 -0.06894099 0.75682557
-0.023872059 -0.068887942 0.75624323
-0.022493616 -0.068844095 0.75576192
-0.021119693 -0.068809323 0.75538021
-0.019749509 -0.068782769 0.75508869
-0.018382637 -0.068764679 0.75489008
-0.017018458 -0.068754569 0.7547791
-0.015656441 -0.068752199 0.75475311
-0.014296236 -0.068758085 0.75481772
-0.01293725 -0.068771698 0.75496709
-0.011579134 -0.068793677 0.75520843
-0.010221398 -0.068824083 0.75554222
-0.0088635664 -0.068863094 0.75597048
-0.0075052348 -0.068911701 0.75650406
-0.006145848 -0.068970069 0.75714487
-0.0047849007 -0.069039285 0.75790465
-0.0034218016 -0.069120392 0.75879508
-0.0020558964 -0.069215186 0.75983566
-0.00068639545 -0.069325939 0.76105154
0.00068767392 -0.069455065 0.76246905
0.0020675377 -0.069607109 0.76413816
0.0034550154 -0.06979131 0.76616031
0.0048529119 -0.070020586 0.76867729
0.0062669553 -0.070329167 0.77206481
0.0077196318 -0.070880257 0.77811462
-0.039759222 -0.06905549 0.77339739
-0.038171172 -0.068708114 0.76950687
-0.03665141 -0.068462074 0.76675129
-0.035168052 -0.06826739 0.76457095
-0.033709366 -0.068106681 0.76277101
-0.032269016 -0.067970909 0.76125044
-0.030843124 -0.067854874 0.75995088
-0.029428935 -0.067754991 0.75883222
-0.028024556 -0.067669049 0.75786972
-0.026628479 -0.06759537 0.75704455
-0.025239376 -0.067532383 0.75633913
-0.023856387 -0.067479499 0.75574678
-0.022478607 -0.067435816 0.75525761
-0.021105349 -0.067400955 0.75486714
-0.019735971 -0.067374527 0.75457114
-0.018369837 -0.067356065 0.75436443
-0.017006502 -0.067345746 0.7542488
-0.015645364 -0.067343086 0.75421906
-0.014285999 -0.067348279 0.75427723
-0.01292795 -0.067361429 0.75442445
-0.011570727 -0.067382462 0.75466007
-0.010213938 -0.067411989 0.7549907
-0.0088570593 -0.067449912 0.7554155
-0.0074996925 -0.067497231 0.75594544
-0.0061412854 -0.067554139 0.7565828
-0.0047813356 -0.067621745 0.75733995
-0.0034192572 -0.067701295 0.75823087
-0.0020543635 -0.067793995 0.75926906
-0.00068587856 -0.067901976 0.76047844
0.00068715221 -0.06802807 0.76189059
0.0020659866 -0.068177558 0.76356488
0.0034524216 -0.068357944 0.76558512
0.0048492784 -0.068582654 0.76810175
0.006262389 -0.06888628 0.77150226
0.0077155889 -0.069440298 0.7777071
-0.039760891 -0.067663275 0.77342987
-0.038161278 -0.067302614 0.76930737
-0.036637302 -0.067053176 0.76645613
-0.035152059 -0.066857837 0.76422328
-0.033692449 -0.066697299 0.76238823
-0.032251649 -0.066561915 0.76084071
-0.030825753 -0.066446625 0.75952286
-0.029411728 -0.066347383 0.75838852
-0.028007619 -0.066261932 0.75741172
-0.026611803 -0.066188335 0.75657046
-0.025223223 -0.066125751 0.75585508
-0.023840828 -0.066073149 0.75525385
-0.0224638 -0.066029958 0.75476015
-0.021091208 -0.065995067 0.75436133
-0.019722639 -0.065968826 0.75406134
-0.018357258 -0.065950148 0.7538479
-0.01699472 -0.065939516 0.75372636
-0.015634445 -0.065936573 0.75369269
-0.014275918 -0.065941148 0.75374496
-0.012918773 -0.065953739 0.75388891
-0.011562451 -0.065973982 0.75412035
-0.010206581 -0.066002555 0.75444692
-0.0088506341 -0.066039346 0.75486749
-0.007494228 -0.066085465 0.75539464
-0.0061367895 -0.06614095 0.75602889
-0.0047778124 -0.066206828 0.75678188
-0.0034167222 -0.066284411 0.75766867
-0.002052834 -0.066374972 0.75870383
-0.00068536901 -0.066480793 0.75991344
0.00068664592 -0.066604652 0.76132923
0.0020644602 -0.066750884 0.76300073
0.0034498828 -0.066927724 0.76502216
0.0048457887 -0.067148782 0.76754898
0.0062581059 -0.067448474 0.77097458
0.007712184 -0.068007439 0.7773639
-0.039768141 -0.066280231 0.77357084
-0.038152907 -0.065900475 0.76913863
-0.036624104 -0.065646976 0.76617998
-0.035136592 -0.065450519 0.76388705
-0.033676017 -0.065290242 0.76201642
-0.032234829 -0.065155506 0.76044393
-0.030808706 -0.065040596 0.75910282
-0.029394599 -0.064941555 0.75794685
-0.027990829 -0.064856797 0.75695765
-0.026595507 -0.064783931 0.75610715
-0.025207428 -0.064721778 0.75538176
-0.023825567 -0.0646694 0.75477046
-0.022449138 -0.064626306 0.75426751
-0.021077214 -0.06459146 0.75386083
-0.019709343 -0.064565092 0.75355303
-0.018344745 -0.064546324 0.75333405
-0.016982988 -0.064535357 0.75320601
-0.015623555 -0.064532071 0.75316769
-0.01426587 -0.064536072 0.75321442
-0.012909619 -0.064548098 0.75335473
-0.011554211 -0.064567655 0.75358295
-0.010199246 -0.064595222 0.75390476
-0.0088442294 -0.064630911 0.75432122
-0.0074887821 -0.064675845 0.75484568
-0.0061323233 -0.064730078 0.75547868
-0.0047743316 -0.064794496 0.75623053
-0.0034142253 -0.064870283 0.75711501
-0.0020513332 -0.064958885 0.75814909
-0.00068486587 -0.065062255 0.7593556
0.00068613963 -0.06518326 0.76076788
0.0020629643 -0.065327205 0.76244783
0.0034474046 -0.065500684 0.7644726
0.0048423414 -0.065717489 0.76700294
0.0062539577 -0.066013999 0.77046359
0.0077097421 -0.06658414 0.77711779
-0.039781917 -0.064907342 0.77383888
-0.03814657 -0.064502381 0.76901084
-0.03661231 -0.064244241 0.76593328
-0.035122249 -0.06404645 0.7635752
-0.033660319 -0.063885912 0.76166117
-0.032218393 -0.063751288 0.7600562
-0.030791987 -0.063636772 0.75869089
-0.02937801 -0.063538492 0.75751913
-0.027974395 -0.063454114 0.75651324
-0.026579378 -0.063381597 0.75564861
-0.025191657 -0.063319571 0.75490916
-0.023810433 -0.063267723 0.754291
-0.022434572 -0.063224703 0.7537781
-0.021063389 -0.063190162 0.75336635
-0.019696172 -0.063163586 0.75304949
-0.018332388 -0.063144892 0.75282663
-0.016971404 -0.06313362 0.75269222
-0.015612791 -0.063129984 0.75264883
-0.01425597 -0.063133582 0.75269175
-0.012900572 -0.063144907 0.75282675
-0.011546049 -0.063163683 0.75305063
-0.010191995 -0.063190363 0.75336874
-0.0088379262 -0.063225165 0.75378358
-0.0074834037 -0.063268773 0.75430357
-0.006127893 -0.063321561 0.75493288
-0.0047708689 -0.063384399 0.75568205
-0.0034117443 -0.063458443 0.7565648
-0.0020498412 -0.063545078 0.75759768
-0.00068436889 -0.063646309 0.75880456
0.00068564696 -0.063765168 0.76022166
0.0020614865 -0.063906081 0.76190162
0.0034449482 -0.064076036 0.76392788
0.0048390366 -0.064290054 0.76647949
0.0062499088 -0.064582393 0.76996475
0.0077089816 -0.065175936 0.77704114
-0.03980653 -0.063550778 0.77431762
-0.038143333 -0.063109882 0.76894563
-0.036601592 -0.062844239 0.76570904
-0.03510863 -0.062644809 0.76327914
-0.033645019 -0.062483609 0.76131499
-0.032202337 -0.062349208 0.75967741
-0.030775586 -0.062235072 0.75828677
-0.02936155 -0.062137235 0.75709468
-0.027958049 -0.06205323 0.75607115
-0.026563419 -0.061981313 0.7551949
-0.02517624 -0.061919942 0.75444716
-0.023795458 -0.061868191 0.7538166
-0.022420153 -0.061825268 0.75329363
-0.021049639 -0.061790872 0.75287455
-0.019683069 -0.06176411 0.75254846
-0.018320058 -0.061745379 0.75232023
-0.016959868 -0.06173392 0.75218064
-0.015602043 -0.061729822 0.75213069
-0.014246097 -0.061733086 0.75217044
-0.012891537 -0.061743677 0.75229949
-0.011537899 -0.0617617 0.75251907
-0.010184753 -0.061787497 0.75283343
-0.0088316323 -0.061821423 0.75324678
-0.0074780504 -0.061863873 0.75376397
-0.0061234874 -0.06191526 0.75439012
-0.0047674356 -0.061976664 0.75513828
-0.0034092909 -0.062049095 0.75602078
-0.0020483627 -0.062133674 0.75705129
-0.00068387599 -0.062232714 0.75825804
0.00068515673 -0.06234926 0.75967807
0.0020600236 -0.062487379 0.76136094
0.0034425652 -0.062654689 0.76339948
0.0048357914 -0.062865287 0.76596546
0.0062461235 -0.063155249 0.76949841
0.0077103577 -0.063785687 0.77717984
-0.03985272 -0.062226176 0.7752161
-0.03814169 -0.061720189 0.76891249
-0.036592294 -0.061447438 0.76551455
-0.035095621 -0.061245296 0.76299626
-0.033630323 -0.061083645 0.76098239
-0.032186702 -0.060949288 0.75930858
-0.030759383 -0.060835224 0.75788754
-0.029345341 -0.060738031 0.75667673
-0.027942041 -0.060654674 0.75563824
-0.026547667 -0.060583137 0.75474703
-0.025160838 -0.060522016 0.75398558
-0.023780508 -0.060470432 0.75334299
-0.022405865 -0.060427938 0.75281358
-0.02103596 -0.060393561 0.75238532
-0.019670142 -0.060366984 0.75205421
-0.018307844 -0.060348075 0.75181866
-0.016948443 -0.060336459 0.75167394
-0.015591419 -0.060332015 0.75161856
-0.014236316 -0.060334861 0.75165403
-0.012882592 -0.060344774 0.75177753
-0.011529852 -0.060362168 0.75199419
-0.010177595 -0.06038706 0.75230432
-0.0088253934 -0.060419999 0.75271469
-0.00747274 -0.06046126 0.75322872
-0.0061191148 -0.060511246 0.75385141
-0.0047640232 -0.060571156 0.75459778
-0.0034068383 -0.060641721 0.75547689
-0.0020468938 -0.060724515 0.75650835
-0.00068338751 -0.060821485 0.75771642
0.0006846718 -0.060935792 0.75914043
0.002058578 -0.061071146 0.76082671
0.003440199 -0.06123554 0.76287472
0.0048326533 -0.061443735 0.76546842
0.0062424731 -0.061731122 0.76904869
-0.038143903 -0.060336716 0.76895708
-0.036584001 -0.060052983 0.76534104
-0.035083756 -0.059848759 0.76273835
-0.03361626 -0.059686013 0.76066422
-0.032171443 -0.059551392 0.75894856
-0.030743768 -0.059437953 0.75750285
-0.029329486 -0.059341054 0.75626791
-0.02792622 -0.059258074 0.7552104
-0.026532091 -0.059186973 0.75430423
-0.025145598 -0.059126135 0.75352889
-0.023765815 -0.059075024 0.75287753
-0.022391699 -0.05903266 0.75233763
-0.021022389 -0.058998313 0.7518999
-0.01965729 -0.058971867 0.75156283
-0.018295655 -0.058952667 0.75131816
-0.016937055 -0.058940947 0.75116879
-0.015580814 -0.058936127 0.75110734
-0.014226539 -0.058938518 0.75113785
-0.012873663 -0.058947824 0.75125641
-0.011521819 -0.058964603 0.75147027
-0.010170451 -0.05898862 0.75177634
-0.0088191712 -0.059020605 0.75218397
-0.0074674506 -0.059060745 0.75269556
-0.0061147669 -0.059109416 0.75331581
-0.0047606411 -0.05916797 0.75406206
-0.0034044164 -0.059236847 0.75493985
-0.0020454398 -0.059317753 0.75597095
-0.0006829031 -0.059412569 0.75717932
0.00068418781 -0.059524335 0.75860375
0.0020571491 -0.059657324 0.76029861
0.003437872 -0.059818972 0.76235873
0.0048295264 -0.060024112 0.7649731
0.0062390221 -0.060310546 0.76862353
-0.038149957 -0.058959026 0.76907915
-0.03657781 -0.058662526 0.76521152
-0.03507242 -0.058454033 0.76249188
-0.0336027 -0.058290396 0.76035738
-0.032156792 -0.058155898 0.75860292
-0.030728193 -0.058042143 0.75711906
-0.02931379 -0.057945866 0.75586319
-0.027910599 -0.057863437 0.75478798
-0.026516587 -0.057792559 0.75386345
-0.025130535 -0.05773231 0.75307751
-0.023751179 -0.057681434 0.75241387
-0.022377552 -0.057639152 0.75186235
-0.02100894 -0.057605162 0.75141895
-0.01964449 -0.057578675 0.75107348
-0.018283581 -0.057559427 0.75082237
-0.016925737 -0.057547502 0.75066686
-0.015570293 -0.057542387 0.7506001
-0.014216833 -0.057544325 0.75062537
-0.012864805 -0.057553075 0.75073951
-0.011513836 -0.057569176 0.75094956
-0.010163347 -0.057592303 0.75125122
-0.0088129854 -0.057623364 0.75165641
-0.0074621807 -0.057662304 0.75216436
-0.0061104386 -0.057709701 0.75278258
-0.0047572651 -0.057766791 0.75352728
-0.003401998 -0.057833966 0.75440353
-0.002043989 -0.057913024 0.75543481
-0.00068242342 -0.058005989 0.75664747
0.00068371114 -0.058115449 0.7580753
0.0020557349 -0.058245819 0.75977588
0.0034355742 -0.058404759 0.76184916
0.0048264805 -0.058607262 0.76449066
0.0062357769 -0.05889345 0.76822376
-0.038161129 -0.057588615 0.76930439
-0.036572609 -0.057274088 0.76510274
-0.035061985 -0.057061661 0.76226503
-0.03358971 -0.056896854 0.76006341
-0.032142393 -0.056762099 0.75826329
-0.030713243 -0.056648869 0.7567507
-0.029298441 -0.056552805 0.75546741
-0.027895149 -0.056470666 0.75437015
-0.026501315 -0.056400236 0.75342929
-0.02511562 -0.056340445 0.75263059
-0.023736667 -0.056289807 0.75195414
-0.022363618 -0.05624789 0.75139415
-0.020995578 -0.056213964 0.75094098
-0.01963174 -0.056187391 0.75058597
-0.01827158 -0.056168191 0.75032949
-0.016914459 -0.056156002 0.75016665
-0.015559814 -0.056150634 0.75009495
-0.01420715 -0.056152072 0.75011414
-0.012855984 -0.056160353 0.75022477
-0.01150587 -0.056175716 0.75043005
-0.010156263 -0.056197986 0.75072753
-0.0088068238 -0.056228179 0.75113088
-0.0074569401 -0.056266006 0.75163615
-0.006106141 -0.056312189 0.75225312
-0.0047539072 -0.056367759 0.75299543
-0.0033996012 -0.05643338 0.75387204
-0.0020425508 -0.056510575 0.75490326
-0.00068194594 -0.056601513 0.75611806
0.00068323727 -0.056708694 0.75754988
0.0020543351 -0.056836605 0.75925857
0.0034333142 -0.056993015 0.76134801
0.0048234817 -0.057192713 0.76401567
0.0062326323 -0.057478718 0.76783633
-0.038180243 -0.056229085 0.76968968
-0.036569986 -0.055889979 0.76504785
-0.035052825 -0.055672135 0.76206589
-0.03357736 -0.055505436 0.75978404
-0.032128405 -0.05537023 0.75793332
-0.030698309 -0.055256959 0.75638276
-0.02928322 -0.055161413 0.75507492
-0.027879881 -0.055079766 0.75395727
-0.026486231 -0.055009864 0.75300044
-0.025100762 -0.054950319 0.75218534
-0.023722241 -0.054900043 0.75149715
-0.022349767 -0.054858521 0.75092876
-0.020982232 -0.054824542 0.75046366
-0.019619059 -0.054798059 0.75010115
-0.018259615 -0.054778844 0.74983811
-0.016903214 -0.054766413 0.74966794
-0.015549369 -0.054760821 0.74959141
-0.014197511 -0.054761827 0.74960518
-0.012847203 -0.054769654 0.74971235
-0.011497944 -0.05478432 0.7499131
-0.010149227 -0.054805826 0.75020748
-0.0088006817 -0.054835014 0.75060701
-0.0074517173 -0.054871734 0.75110966
-0.0061018509 -0.054916658 0.7517246
-0.0047505531 -0.054970689 0.75246418
-0.0033972093 -0.055034794 0.75334167
-0.0020411219 -0.055110294 0.75437516
-0.00068147044 -0.055199105 0.75559086
0.00068276597 -0.055304047 0.75702733
0.0020529416 -0.055429421 0.75874352
0.0034310583 -0.055583142 0.76084775
0.0048205433 -0.055780571 0.76355022
0.006229674 -0.056067068 0.76747191
-0.0382105 -0.054884173 0.77029967
-0.036569122 -0.054508694 0.76502979
-0.035044506 -0.054284628 0.76188505
-0.03356551 -0.054115824 0.75951588
-0.032114625 -0.0539799 0.75760818
-0.030684013 -0.053867489 0.7560305
-0.029268239 -0.05377188 0.75468862
-0.027864743 -0.053690605 0.75354791
-0.026471253 -0.053621255 0.75257462
-0.02508603 -0.053562064 0.75174385
-0.023707999 -0.053512342 0.751046
-0.022335939 -0.053470884 0.75046414
-0.020968983 -0.053437088 0.74998981
-0.019606505 -0.053410824 0.74962121
-0.018247711 -0.053391449 0.7493493
-0.016892053 -0.053378887 0.74917299
-0.015538964 -0.053372964 0.74908984
-0.014187907 -0.053373553 0.74909812
-0.012838453 -0.053380936 0.74920171
-0.01149003 -0.053394847 0.74939698
-0.010142223 -0.053415708 0.74968976
-0.0087945629 -0.053443883 0.75008518
-0.0074465182 -0.053479537 0.75058562
-0.0060975784 -0.053523187 0.75119823
-0.0047472259 -0.053575836 0.75193715
-0.0033948289 -0.053638294 0.75281376
-0.0020396961 -0.053711995 0.75384814
-0.00068099628 -0.053798705 0.75506514
0.00068229577 -0.053901367 0.75650597
0.0020515644 -0.054024529 0.75823456
0.0034288173 -0.054175314 0.76035082
0.0048176241 -0.054370329 0.76308787
0.0062268367 -0.054657791 0.76712239
-0.038269635 -0.05357749 0.77149183
-0.036571588 -0.053132311 0.76508141
-0.035037257 -0.05289939 0.76172745
-0.033554465 -0.052728444 0.7592659
-0.032101698 -0.052592147 0.7573033
-0.03066959 -0.052479077 0.75567514
-0.029253472 -0.052384123 0.75430787
-0.027849887 -0.052303445 0.75314611
-0.026456418 -0.052234467 0.75215286
-0.025071474 -0.052175771 0.75130767
-0.023693804 -0.052126367 0.75059628
-0.022322208 -0.052085154 0.7500028
-0.020955836 -0.052051593 0.74951959
-0.019593984 -0.052025404 0.74914247
-0.018235831 -0.052005887 0.74886143
-0.016880928 -0.051993255 0.74867952
-0.015528602 -0.051987059 0.74859029
-0.014178357 -0.051987309 0.74859393
-0.01282972 -0.051994126 0.7486921
-0.011482136 -0.052007325 0.74888211
-0.010135237 -0.05202755 0.74917334
-0.0087884581 -0.052054714 0.74956453
-0.0074413293 -0.052089304 0.75006258
-0.0060933116 -0.052131664 0.75067258
-0.0047439048 -0.052182954 0.75141108
-0.0033924577 -0.052243851 0.75228798
-0.0020382763 -0.05231576 0.75332344
-0.00068052619 -0.052400514 0.7545439
0.00068182976 -0.052500892 0.75598925
0.0020501884 -0.052621502 0.75772601
0.0034266189 -0.052769933 0.75986332
0.0048148269 -0.052963097 0.76264483
0.0062243147 -0.05325247 0.76681167
-0.036576945 -0.051759824 0.7651934
-0.035031255 -0.051516555 0.76159698
-0.033544149 -0.051343087 0.75903255
-0.032088984 -0.051205825 0.75700331
-0.030655833 -0.051093053 0.75533617
-0.029238973 -0.050998211 0.75393403
-0.027835095 -0.050917856 0.75274611
-0.026441675 -0.050849374 0.75173372
-0.025056947 -0.050791107 0.75087231
-0.023679616 -0.050742038 0.75014687
-0.022308555 -0.050701261 0.74954408
-0.020942757 -0.05066796 0.74905175
-0.0195815 -0.050641812 0.74866521
-0.018224033 -0.050622314 0.74837697
-0.01686985 -0.050609551 0.74818826
-0.015518265 -0.05060304 0.748092
-0.014168848 -0.050603032 0.74809188
-0.012821009 -0.050609246 0.74818379
-0.011474291 -0.050621871 0.74837041
-0.010128274 -0.050641369 0.74865866
-0.0087823747 -0.050667547 0.74904567
-0.0074361572 -0.050701074 0.74954128
-0.0060890708 -0.050742257 0.75015014
-0.0047405954 -0.050792091 0.75088686
-0.0033900901 -0.050851353 0.75176293
-0.00203686 -0.0509215 0.75279999
-0.00068005599 -0.051004201 0.7540226
0.0006813677 -0.051102579 0.75547695
0.0020488265 -0.051220663 0.75722265
0.0034244466 -0.051366698 0.75938159
0.0048120469 -0.051557645 0.76220447
0.0062219077 -0.051849231 0.76651514
-0.036586624 -0.0503929 0.76539594
-0.035026938 -0.0501366 0.7615031
-0.033534095 -0.049958955 0.75880498
-0.032076638 -0.049821161 0.75671208
-0.030642213 -0.049708478 0.75500059
-0.029224759 -0.049614128 0.75356752
-0.027820559 -0.049534164 0.75235301
-0.026427142 -0.049466189 0.75132054
-0.025042614 -0.049408399 0.7504428
-0.023665635 -0.049359754 0.74970394
-0.022294952 -0.049319137 0.74908704
-0.020929705 -0.049286079 0.74858493
-0.019569034 -0.049259983 0.74818856
-0.018212285 -0.049240623 0.74789453
-0.016858784 -0.049227655 0.74769753
-0.015507951 -0.049220886 0.74759477
-0.014159354 -0.049220614 0.7475906
-0.012812324 -0.049226295 0.74767691
-0.011466471 -0.04923838 0.74786043
-0.01012131 -0.049257044 0.74814391
-0.0087762978 -0.049282286 0.74852735
-0.0074309902 -0.049314752 0.74902046
-0.0060848384 -0.049354799 0.74962872
-0.0047372947 -0.049403217 0.75036407
-0.0033877264 -0.049460806 0.75123876
-0.00203545 -0.049529281 0.7522788
-0.00067958958 -0.049610037 0.75350541
0.00068090734 -0.049706236 0.7549665
0.0020474757 -0.049821906 0.7567234
0.0034222943 -0.049965497 0.75890434
0.0048093111 -0.050154246 0.76177114
0.0062197424 -0.050449021 0.76624835
-0.036602579 -0.049033646 0.76572973
-0.035024051 -0.048758972 0.76144034
-0.033525158 -0.048577271 0.7586028
-0.032065038 -0.048438672 0.75643837
-0.030628996 -0.048325747 0.75467491
-0.029210677 -0.048231583 0.75320441
-0.027806172 -0.048152152 0.75196397
-0.026412774 -0.048084795 0.75091207
-0.0250284 -0.048027471 0.75001687
-0.023651676 -0.047979113 0.74926174
-0.022281444 -0.047938861 0.74863315
-0.020916676 -0.047905937 0.74811894
-0.019556666 -0.047880109 0.74771565
-0.018200567 -0.047860753 0.74741334
-0.016847752 -0.047847617 0.74720824
-0.015497709 -0.047840752 0.74710101
-0.014149866 -0.047840022 0.74708962
-0.012803659 -0.047845252 0.74717128
-0.011458657 -0.047856744 0.74735075
-0.010114361 -0.047874641 0.74763024
-0.0087702349 -0.047898978 0.74801028
-0.0074258395 -0.047930419 0.7485013
-0.0060806088 -0.047969248 0.74910766
-0.0047340002 -0.048016287 0.74984223
-0.0033853697 -0.048072249 0.75071615
-0.0020340427 -0.04813901 0.75175875
-0.00067912386 -0.048217796 0.75298905
0.00068044622 -0.048311684 0.75445527
0.0020461357 -0.048425213 0.75622821
0.0034201448 -0.048566058 0.75842768
0.0048066708 -0.048753373 0.7613529
0.0062179184 -0.049052466 0.76602364
-0.036628917 -0.047686704 0.76628071
-0.035023022 -0.047384091 0.76141798
-0.033517286 -0.047197811 0.75842464
-0.032053601 -0.047057413 0.7561686
-0.030616043 -0.0469446 0.75435579
-0.029196929 -0.046850886 0.75284988
-0.027791912 -0.046771754 0.75157833
-0.026398392 -0.046704847 0.75050318
-0.025014192 -0.046648089 0.74959111
-0.023637772 -0.046600178 0.74882126
-0.022267971 -0.046560302 0.74818051
-0.020903781 -0.046527769 0.74765772
-0.019544316 -0.046501994 0.74724352
-0.018188866 -0.046482656 0.7469328
-0.016836759 -0.046469457 0.74672067
-0.015487479 -0.046462439 0.7466079
-0.01414039 -0.04646128 0.7465893
-0.012795007 -0.046466079 0.74666637
-0.011450854 -0.046476997 0.74684185
-0.010107425 -0.046494156 0.74711758
-0.008764185 -0.046517599 0.74749428
-0.0074206986 -0.04654802 0.7479831
-0.0060763839 -0.046585608 0.74858713
-0.0047307112 -0.046631295 0.74932128
-0.0033830248 -0.046685744 0.75019622
-0.0020326381 -0.046750676 0.7512396
-0.00067865837 -0.046827428 0.75247294
0.00067998614 -0.046919044 0.75394511
0.002044796 -0.047030307 0.75573301
0.0034180316 -0.047168836 0.75795907
0.0048040343 -0.047354054 0.76093531
0.0062165991 -0.047660593 0.76586115
-0.036675338 -0.046363164 0.76725185
-0.035024535 -0.046012621 0.76145083
-0.033510238 -0.045820121 0.75826514
-0.03204285 -0.045678105 0.75591499
-0.030603275 -0.045564875 0.75404119
-0.029183317 -0.045471679 0.75249892
-0.027777884 -0.045393128 0.75119895
-0.026384234 -0.045326762 0.75010067
-0.025000129 -0.045270506 0.74916971
-0.023624035 -0.045223154 0.74838609
-0.022254597 -0.045183577 0.74773115
-0.020890897 -0.045151293 0.74719691
-0.019531989 -0.04512563 0.74677223
-0.01817718 -0.045106333 0.74645287
-0.016825816 -0.045093186 0.74623531
-0.015477248 -0.045085896 0.74611467
-0.014130943 -0.045084439 0.74609053
-0.012786376 -0.045088798 0.74616271
-0.011443076 -0.04509918 0.74633449
-0.010100495 -0.045115545 0.74660534
-0.0087581454 -0.045138132 0.74697912
-0.0074155568 -0.045167483 0.74746484
-0.0060721654 -0.045203898 0.74806744
-0.0047274265 -0.045248225 0.74880099
-0.0033806835 -0.045301158 0.749677
-0.002031235 -0.045364249 0.75072104
-0.00067819579 -0.045439117 0.75196004
0.00067952991 -0.045528501 0.75343925
0.0020434607 -0.045637291 0.75523955
0.0034159299 -0.045773458 0.75749296
0.0048014796 -0.045957018 0.76053065
0.0062158257 -0.046273369 0.76576585
-0.035028849 -0.044644613 0.76154464
-0.03350452 -0.044444773 0.7581358
-0.032032773 -0.044300642 0.75567722
-0.030591125 -0.044187181 0.7537418
-0.029170012 -0.044094205 0.75215584
-0.027764048 -0.044016175 0.75082481
-0.026370149 -0.043950249 0.74970025
-0.024986185 -0.043894649 0.74875182
-0.023610286 -0.043847676 0.74795055
-0.022241255 -0.043808531 0.74728286
-0.020878034 -0.043776523 0.74673682
-0.019519689 -0.043751027 0.74630195
-0.01816557 -0.043731928 0.74597615
-0.016814874 -0.043718673 0.74575007
-0.015467034 -0.043711182 0.74562228
-0.014121511 -0.043709438 0.74559253
-0.012777761 -0.043713391 0.74565995
-0.011435307 -0.043723229 0.74582779
-0.010093572 -0.043738812 0.74609357
-0.0087521123 -0.043760564 0.74646461
-0.0074104196 -0.043788843 0.74694699
-0.0060679498 -0.04382408 0.7475481
-0.0047241459 -0.043867067 0.74828136
-0.0033783456 -0.043918494 0.74915856
-0.0020298369 -0.043979801 0.75020432
-0.0006777331 -0.044052649 0.75144702
0.00067907444 -0.04413984 0.75293428
0.0020421271 -0.044246085 0.75474662
0.0034138379 -0.04437989 0.75702906
0.0047989371 -0.044561557 0.7601279
0.0062156795 -0.044891018 0.76574785
-0.035037458 -0.043281566 0.7617318
-0.033499826 -0.043071203 0.75802952
-0.032023389 -0.042924967 0.75545585
-0.030579289 -0.042811006 0.75345021
-0.02915689 -0.042718232 0.75181746
-0.027750367 -0.042640809 0.75045484
-0.026356231 -0.042575452 0.74930459
-0.024972282 -0.042520374 0.74833524
-0.023596562 -0.042473812 0.7475158
-0.022227945 -0.042435165 0.74683565
-0.020865234 -0.042403538 0.746279
-0.01950747 -0.042378295 0.74583477
-0.018153965 -0.042359252 0.74549961
-0.016803922 -0.042345885 0.74526435
-0.015456825 -0.042338263 0.74513018
-0.014112096 -0.042336289 0.74509543
-0.012769158 -0.042339839 0.74515796
-0.01142752 -0.042349044 0.74531996
-0.010086648 -0.042363923 0.74558181
-0.008746082 -0.042384855 0.74595022
-0.0074052946 -0.042412139 0.7464304
-0.0060637407 -0.042446185 0.74702954
-0.0047208699 -0.04248783 0.7477625
-0.0033760089 -0.042537715 0.74864042
-0.0020284404 -0.042597245 0.74968815
-0.0006772707 -0.042668052 0.7509343
0.00067861797 -0.042752933 0.75242817
0.0020408079 -0.042856965 0.75425905
0.0034117694 -0.042988297 0.7565704
0.0047964994 -0.043168493 0.75974178
0.0062171035 -0.043519724 0.76592326
-0.035051353 -0.041924167 0.76203388
-0.033496372 -0.041699562 0.75795138
-0.032014649 -0.041550927 0.75524968
-0.030567875 -0.041436452 0.75316894
-0.029143926 -0.041343708 0.7514832
-0.027736809 -0.041266959 0.75008816
-0.026342448 -0.041202288 0.74891269
-0.024958491 -0.041147783 0.74792194
-0.023583023 -0.041101839 0.74708688
-0.022214735 -0.041063603 0.74639183
-0.020852452 -0.041032247 0.74582189
-0.019495241 -0.041007232 0.74536723
-0.018142359 -0.040988296 0.74502301
-0.016792988 -0.040974893 0.74477941
-0.015446654 -0.040967211 0.74463981
-0.014102683 -0.040964935 0.74459845
-0.012760562 -0.04096812 0.74465632
-0.011419739 -0.040976711 0.74481243
-0.010079733 -0.040990915 0.74507064
-0.00874006 -0.04101105 0.74543661
-0.0074001774 -0.041037347 0.74591464
-0.0060595428 -0.041070234 0.74651241
-0.0047175917 -0.041110441 0.74724323
-0.0033736692 -0.041158766 0.74812156
-0.0020270415 -0.041216511 0.7491712
-0.00067681004 -0.041285411 0.75042355
0.00067816547 -0.041368093 0.75192642
0.0020394889 -0.041469608 0.7537716
0.0034097179 -0.041598558 0.7561155
0.0047941208 -0.041777339 0.75936508
0.0062220269 -0.042171516 0.7665298
-0.035074592 -0.040576492 0.76253915
-0.033495203 -0.040330958 0.75792491
-0.032006443 -0.040178299 0.75505608
-0.030556895 -0.040063482 0.7528984
-0.029131303 -0.039970856 0.7511577
-0.02772342 -0.039894678 0.74972612
-0.026328741 -0.039830659 0.748523
-0.024944643 -0.039776593 0.74750698
-0.023569467 -0.039731387 0.74665743
-0.022201529 -0.039693642 0.74594814
-0.020839682 -0.039662622 0.74536514
-0.019483043 -0.039637916 0.74490082
-0.018130748 -0.039619043 0.74454618
-0.016782083 -0.039605714 0.74429572
-0.015436483 -0.039597936 0.74414951
-0.014093275 -0.039595392 0.7441017
-0.012751955 -0.039598174 0.74415404
-0.011411957 -0.039606206 0.74430496
-0.010072818 -0.039619751 0.74455947
-0.0087340372 -0.039639089 0.74492294
-0.0073950519 -0.039664369 0.74539798
-0.0060553439 -0.039696142 0.7459951
-0.0047143167 -0.039734956 0.74672449
-0.0033713365 -0.039781768 0.74760425
-0.0020256431 -0.039837647 0.74865437
-0.00067634881 -0.03990458 0.74991214
0.00067771313 -0.039985076 0.75142491
0.0020381729 -0.040084068 0.75328523
