# .PCD v0.7 - Point Cloud Data file format
VERSION 0.7
FIELDS x y z
SIZE 4 4 4
TYPE F F F
COUNT 1 1 1
WIDTH 1300
HEIGHT 1
VIEWPOINT 0 0 0 1 0 0 0
POINTS 1300
DATA ascii
-0.027469277 -0.055885769 0.35008028
-0.026850969 -0.055913191 0.35025206
-0.02623299 -0.055942643 0.35043654
-0.02561521 -0.055973977 0.35063282
-0.024997743 -0.056007601 0.35084346
-0.024380276 -0.056042973 0.35106504
-0.023762943 -0.056080546 0.35130039
-0.023145625 -0.056120213 0.35154888
-0.022528181 -0.056161802 0.35180941
-0.021910641 -0.05620556 0.3520835
-0.021293039 -0.056251761 0.35237291
-0.020675302 -0.056300439 0.35267785
-0.020057274 -0.056351386 0.352997
-0.019439002 -0.056404978 0.3533327
-0.018820329 -0.056460988 0.35368356
-0.018201282 -0.056519773 0.3540518
-0.017581718 -0.056581162 0.35443637
-0.016961634 -0.056645457 0.35483912
-0.016341051 -0.05671306 0.35526261
-0.015719838 -0.056783907 0.35570639
-0.015097785 -0.056857616 0.35616812
-0.014475025 -0.056935102 0.35665351
-0.013851469 -0.057016511 0.35716349
-0.013226936 -0.057101648 0.3576968
-0.012601428 -0.057191096 0.35825711
-0.011974851 -0.057285096 0.35884595
-0.011347111 -0.057383962 0.35946527
-0.010718092 -0.057487946 0.36011666
-0.010087737 -0.057597723 0.36080432
-0.0094559398 -0.05771384 0.3615317
-0.0088226618 -0.057837453 0.36230603
-0.0081875436 -0.057967808 0.36312261
-0.0075506228 -0.058106966 0.36399433
-0.0069118189 -0.05825676 0.36493266
-0.0062707695 -0.058417171 0.3659375
-0.0056273816 -0.058590971 0.36702624
-0.0049814144 -0.058780689 0.36821467
-0.004332697 -0.058991335 0.36953419
-0.0036807649 -0.059226852 0.37100953
-0.0030252668 -0.059496917 0.37270126
-0.0023658036 -0.059821032 0.3747316
-0.0017017382 -0.060241535 0.37736571
-0.0010336676 -0.060986385 0.38203162
-0.070266038 -0.058835197 0.37276819
-0.069048941 -0.058374707 0.36985061
-0.068005376 -0.058053367 0.36781466
-0.067039937 -0.057793047 0.36616534
-0.066125847 -0.057572253 0.36476642
-0.065249592 -0.057380296 0.36355022
-0.064401031 -0.057209041 0.36246517
-0.063574061 -0.057053644 0.36148062
-0.062767096 -0.056913171 0.36059061
-0.061975151 -0.056783516 0.35976914
-0.061197232 -0.056664106 0.35901257
-0.060431357 -0.056553412 0.35831124
-0.05967588 -0.056450158 0.35765705
-0.058929704 -0.056353543 0.35704491
-0.058192167 -0.056263145 0.35647216
-0.057462819 -0.056178734 0.35593736
-0.056740679 -0.056099541 0.35543561
-0.056024916 -0.056024916 0.3549628
-0.055315219 -0.055954702 0.35451794
-0.054610997 -0.055888448 0.35409817
-0.05391217 -0.055826213 0.35370386
-0.053218249 -0.055767626 0.35333267
-0.052528992 -0.05571257 0.35298383
-0.051843755 -0.055660475 0.35265377
-0.051162671 -0.055611599 0.3523441
-0.050485399 -0.055565689 0.35205323
-0.049811605 -0.05552249 0.35177952
-0.049141239 -0.055482045 0.35152328
-0.048474085 -0.055444214 0.35128358
-0.047810055 -0.055409007 0.35106051
-0.047148798 -0.055376105 0.35085207
-0.04649023 -0.055345513 0.35065824
-0.045834459 -0.05531745 0.35048044
-0.045181084 -0.055291537 0.35031626
-0.044529911 -0.055267617 0.35016471
-0.04388098 -0.055245839 0.35002673
-0.043234177 -0.05522614 0.34990191
-0.042589329 -0.055208389 0.34978944
-0.041946363 -0.055192582 0.3496893
-0.041305099 -0.055178568 0.34960049
-0.040665921 -0.055166949 0.34952688
-0.040028289 -0.055157095 0.34946445
-0.039392039 -0.055148851 0.34941223
-0.038757291 -0.055142488 0.34937191
-0.038123883 -0.055137847 0.3493425
-0.037491705 -0.055134863 0.3493236
-0.036861047 -0.055134043 0.34931841
-0.036231522 -0.055134926 0.34932399
-0.035603084 -0.055137523 0.34934044
-0.0349757 -0.055141866 0.34936798
-0.034349259 -0.055147894 0.34940615
-0.033723637 -0.055155478 0.34945422
-0.033099033 -0.055165056 0.3495149
-0.032475308 -0.055176493 0.34958735
-0.031852283 -0.055189598 0.34967038
-0.031229991 -0.055204529 0.349765
-0.030608214 -0.055221003 0.34986937
-0.029986935 -0.055239089 0.34998396
-0.029366268 -0.055259105 0.35011077
-0.028746257 -0.055281263 0.35025117
-0.028126653 -0.055305216 0.35040292
-0.027507344 -0.055330865 0.35056543
-0.026888382 -0.055358436 0.3507401
-0.026269676 -0.055387869 0.35092661
-0.025651222 -0.055419307 0.35112578
-0.025032854 -0.055452526 0.35133624
-0.024414761 -0.055488095 0.35156161
-0.023796747 -0.055525742 0.35180014
-0.023178693 -0.055565361 0.35205114
-0.022560606 -0.055607129 0.35231578
-0.021942453 -0.055651151 0.3525947
-0.02132421 -0.055697564 0.35288876
-0.02070576 -0.055746276 0.3531974
-0.020087011 -0.055797253 0.35352036
-0.019468041 -0.055850938 0.3538605
-0.018848682 -0.055907108 0.3542164
-0.018229 -0.055966232 0.35459098
-0.017608831 -0.056028102 0.35498297
-0.016988182 -0.056093056 0.35539451
-0.016366962 -0.056161143 0.3558259
-0.015745049 -0.056232318 0.35627687
-0.015122444 -0.056306973 0.35674986
-0.014499089 -0.056385342 0.3572464
-0.01387484 -0.056467373 0.35776612
-0.013249662 -0.056553435 0.35831138
-0.012623468 -0.056643769 0.35888374
-0.011996385 -0.056739658 0.35949126
-0.011368083 -0.056840412 0.36012962
-0.010738456 -0.056946356 0.36080086
-0.010107471 -0.057058301 0.36151013
-0.0094749918 -0.057176672 0.3622601
-0.0088410452 -0.057303067 0.36306092
-0.0082053347 -0.057437342 0.36391166
-0.0075677293 -0.057580549 0.36481899
-0.0069282432 -0.057735361 0.36579984
-0.0062865783 -0.057902694 0.36686003
-0.0056425654 -0.058085233 0.36801657
-0.0049959333 -0.058285888 0.36928788
-0.0043464587 -0.05851002 0.37070793
-0.0036939597 -0.058767539 0.37233952
-0.0030378706 -0.059069708 0.37425399
-0.002378077 -0.059451923 0.37667564
-0.0017151547 -0.060030416 0.38034084
-0.069494613 -0.05808004 0.3722378
-0.068333142 -0.057666507 0.36958745
-0.067309417 -0.057362214 0.36763722
-0.066359729 -0.057115585 0.36605656
-0.06545727 -0.056905065 0.36470732
-0.06458851 -0.056719862 0.36352035
-0.063747309 -0.056555305 0.36246571
-0.062927894 -0.056406867 0.36151436
-0.062125616 -0.056270845 0.36064258
-0.061339114 -0.056146387 0.35984492
-0.060565628 -0.056031302 0.35910735
-0.059803125 -0.055924002 0.35841966
-0.059051804 -0.055824928 0.35778469
-0.058309253 -0.055732049 0.35718942
-0.05757511 -0.05564522 0.35663292
-0.056848422 -0.055563714 0.35611054
-0.056128692 -0.055487219 0.35562029
-0.055415265 -0.055415265 0.35515913
-0.054708023 -0.055347882 0.35472727
-0.054006074 -0.055284325 0.35431993
-0.053309534 -0.055224847 0.35393873
-0.052617487 -0.055168636 0.35357848
-0.051929791 -0.055115666 0.353239
-0.051246256 -0.055065852 0.35291973
-0.050566804 -0.055019226 0.3526209
-0.049891274 -0.054975733 0.35234216
-0.049218941 -0.054934688 0.35207909
-0.048550192 -0.054896623 0.35183513
-0.047884349 -0.054860879 0.35160604
-0.0472214 -0.054827534 0.35139233
-0.04656136 -0.054796703 0.35119474
-0.045903943 -0.054768153 0.35101175
-0.045248933 -0.054741718 0.35084233
-0.044596195 -0.054717317 0.35068595
-0.043945823 -0.054695159 0.35054395
-0.043297678 -0.054675169 0.35041583
-0.042651571 -0.054657198 0.35030064
-0.042007428 -0.054641239 0.35019836
-0.041365154 -0.054627266 0.3501088
-0.040724665 -0.054615248 0.35003179
-0.040085755 -0.054605007 0.34996614
-0.039448466 -0.054596677 0.34991276
-0.038812656 -0.054590158 0.34987098
-0.038178168 -0.054585312 0.34983993
-0.03754507 -0.054582328 0.34982079
-0.03691335 -0.054581277 0.34981406
-0.036282826 -0.054581992 0.34981865
-0.035653409 -0.054584425 0.34983423
-0.035025079 -0.054588638 0.34986123
-0.034397718 -0.054594543 0.34989908
-0.033771198 -0.054602031 0.34994707
-0.033145718 -0.054611515 0.35000786
-0.032521013 -0.054622672 0.35007936
-0.031897198 -0.054635793 0.35016346
-0.031274043 -0.054650605 0.35025838
-0.030651446 -0.054667015 0.35036355
-0.030029489 -0.05468528 0.35048062
-0.029407945 -0.054705102 0.35060766
-0.028787071 -0.05472707 0.35074845
-0.028166704 -0.054751009 0.35090187
-0.027546713 -0.054776795 0.35106716
-0.026927002 -0.054804366 0.35124385
-0.026307557 -0.054833826 0.35143265
-0.025688376 -0.054865297 0.35163435
-0.025069261 -0.054898508 0.3518472
-0.024450285 -0.054933757 0.35207313
-0.023831621 -0.054971606 0.35231569
-0.023212811 -0.055011183 0.35256934
-0.022594064 -0.055053145 0.35283828
-0.021975255 -0.055097379 0.35312179
-0.021356355 -0.055144023 0.35342073
-0.020737238 -0.055192955 0.35373434
-0.020117894 -0.055244375 0.3540639
-0.01949825 -0.055298313 0.35440958
-0.018878246 -0.055354856 0.35477197
-0.018257849 -0.055414174 0.35515213
-0.017637068 -0.055476598 0.35555223
-0.017015705 -0.055541828 0.35597029
-0.016393801 -0.055610348 0.35640943
-0.015771275 -0.055682257 0.35687029
-0.015148064 -0.055757768 0.35735425
-0.014524023 -0.0558368 0.35786077
-0.013899175 -0.055919934 0.35839358
-0.013273341 -0.056007024 0.35895175
-0.012646494 -0.056098547 0.35953832
-0.012018701 -0.056195546 0.36015999
-0.011389698 -0.056297652 0.36081439
-0.010759478 -0.056405745 0.36150718
-0.010127925 -0.056520358 0.36224172
-0.0094948532 -0.056641709 0.36301947
-0.0088601504 -0.056770593 0.3638455
-0.0082239211 -0.056909531 0.36473596
-0.0075856787 -0.057057496 0.36568427
-0.006945584 -0.057218384 0.3667154
-0.0063032811 -0.057393033 0.36783475
-0.0056586405 -0.057584986 0.36906499
-0.0050115762 -0.057800177 0.37044415
-0.0043616034 -0.058042876 0.37199962
-0.003708727 -0.058328159 0.37382802
-0.0030527469 -0.058680579 0.37608668
-0.0023945651 -0.059179969 0.3792873
-0.070319712 -0.058090195 0.37665731
-0.068747394 -0.057345387 0.37182796
-0.067621484 -0.056961942 0.3693417
-0.066620514 -0.056677155 0.36749515
-0.065682963 -0.056441139 0.36596483
-0.064791992 -0.056240764 0.36466557
-0.063932493 -0.056063879 0.36351866
-0.063098118 -0.055905588 0.36249229
-0.062284559 -0.055762615 0.36156526
-0.06148817 -0.055632155 0.36071935
-0.060706489 -0.055512354 0.35994256
-0.059936788 -0.055401031 0.35922074
-0.059179004 -0.055298414 0.35855538
-0.05843107 -0.055202834 0.35793564
-0.057691853 -0.055113446 0.35735604
-0.056960657 -0.055029787 0.35681361
-0.056236867 -0.054951455 0.35630569
-0.055519976 -0.054878127 0.35583022
-0.054809354 -0.054809354 0.35538432
-0.054104399 -0.054744687 0.354965
-0.053404547 -0.054683696 0.35456955
-0.052709889 -0.054626614 0.35419941
-0.052019674 -0.054572783 0.35385039
-0.05133367 -0.054522097 0.35352173
-0.050652098 -0.054474898 0.35321569
-0.049974363 -0.054430678 0.35292897
-0.049300008 -0.054389041 0.35265899
-0.048629198 -0.054350279 0.35240766
-0.047961473 -0.054313987 0.35217234
-0.047296606 -0.054279998 0.35195196
-0.046634726 -0.05424856 0.35174811
-0.045975499 -0.05421938 0.35155892
-0.045318868 -0.054192495 0.35138458
-0.044664793 -0.054167941 0.35122538
-0.04401309 -0.054145601 0.35108054
-0.043363567 -0.054125328 0.35094908
-0.042716254 -0.054107256 0.3508319
-0.042070836 -0.054091077 0.35072699
-0.041427277 -0.054076828 0.3506346
-0.040785447 -0.054064427 0.3505542
-0.040145293 -0.054053899 0.35048592
-0.03950673 -0.054045204 0.35042956
-0.038869686 -0.054038342 0.35038507
-0.038234215 -0.054033477 0.35035351
-0.037600085 -0.054030374 0.35033339
-0.036967427 -0.054029316 0.35032654
-0.036335845 -0.054029822 0.35032982
-0.035705376 -0.054032028 0.35034412
-0.03507594 -0.054035906 0.35036927
-0.03444764 -0.05404171 0.35040689
-0.033820186 -0.054049082 0.35045469
-0.033193812 -0.054058492 0.35051572
-0.032568336 -0.054069765 0.3505888
-0.031943511 -0.05408258 0.35067189
-0.031319462 -0.05409725 0.35076702
-0.030696075 -0.054113701 0.35087368
-0.030073274 -0.054131892 0.35099164
-0.029451054 -0.054151937 0.3511216
-0.028829221 -0.054173589 0.351262
-0.028208118 -0.054197617 0.35141781
-0.027587363 -0.054223441 0.35158524
-0.02696682 -0.054250892 0.35176325
-0.026346676 -0.054280505 0.35195524
-0.025726695 -0.054311909 0.35215887
-0.025106952 -0.054345425 0.35237619
-0.024487345 -0.054380987 0.35260677
-0.023867805 -0.054418594 0.35285062
-0.023248289 -0.05445832 0.3531082
-0.022628726 -0.054500174 0.35337958
-0.022009185 -0.054544501 0.35366699
-0.021389537 -0.054591209 0.35396984
-0.020769738 -0.054640386 0.35428873
-0.020149728 -0.054692119 0.35462415
-0.019529449 -0.054746486 0.35497668
-0.018908788 -0.054803435 0.35534593
-0.01828775 -0.054863248 0.35573375
-0.017666213 -0.054925863 0.35613975
-0.017044209 -0.054991696 0.35656661
-0.016421573 -0.055060569 0.3570132
-0.015798401 -0.055133197 0.3574841
-0.015174448 -0.055209164 0.35797668
-0.014549771 -0.055289131 0.35849518
-0.013924276 -0.055373281 0.35904083
-0.013297871 -0.055461854 0.35961512
-0.012670474 -0.055555157 0.3602201
-0.012041999 -0.055653565 0.36085817
-0.011412379 -0.055757623 0.3615329
-0.01078146 -0.055867568 0.36224577
-0.0101492 -0.0559843 0.36300266
-0.0095155509 -0.05610894 0.36381084
-0.0088803424 -0.056242168 0.36467469
-0.0082434649 -0.056385301 0.36560276
-0.0076046647 -0.056539029 0.36659953
-0.0069639888 -0.056706764 0.36768714
-0.006321169 -0.056890521 0.3688786
-0.0056761 -0.057094887 0.37020373
-0.0050286083 -0.057326138 0.37170315
-0.0043785498 -0.057594772 0.37344497
-0.0037260328 -0.05792287 0.37557238
-0.0030719631 -0.058367301 0.37845406
-0.06941016 -0.057221059 0.37541261
-0.068012223 -0.056621015 0.37147588
-0.066920824 -0.056266762 0.36915171
-0.065935977 -0.055995878 0.36737451
-0.065013699 -0.055773169 0.36591339
-0.064131439 -0.055580582 0.36464986
-0.063280441 -0.055411372 0.36353973
-0.062454145 -0.055260476 0.36254972
-0.061645955 -0.055122573 0.36164498
-0.060855601 -0.054997843 0.36082667
-0.06007757 -0.054881673 0.36006451
-0.059312925 -0.054775324 0.35936677
-0.058558848 -0.054676492 0.35871837
-0.057814132 -0.054584291 0.35811347
-0.057078268 -0.05449846 0.35755035
-0.056350153 -0.05441815 0.35702345
-0.055629231 -0.054343008 0.35653046
-0.054914996 -0.054272715 0.3560693
-0.05420655 -0.05420655 0.3556352
-0.053503528 -0.054144289 0.35522673
-0.052805699 -0.054085836 0.35484323
-0.052112572 -0.054030828 0.35448232
-0.051424496 -0.053979751 0.35414723
-0.05074022 -0.053931426 0.35383019
-0.050059877 -0.053886112 0.35353288
-0.04938351 -0.053843956 0.35325631
-0.048710521 -0.053804431 0.352997
-0.048040915 -0.053767648 0.35275567
-0.047374342 -0.053733315 0.35253042
-0.046710502 -0.053701188 0.35231966
-0.04604983 -0.05367187 0.35212731
-0.045391638 -0.053644661 0.3519488
-0.044736095 -0.053619862 0.35178608
-0.044082873 -0.05359716 0.35163715
-0.043431826 -0.053576488 0.35150152
-0.042782858 -0.053557802 0.35137892
-0.042135999 -0.053541232 0.35127023
-0.041491143 -0.053526744 0.35117516
-0.040847898 -0.053513911 0.35109097
-0.040206436 -0.053503055 0.35101974
-0.039566636 -0.053494092 0.35096094
-0.038928613 -0.053487282 0.35091627
-0.038291909 -0.053482085 0.35088217
-0.037656788 -0.053478967 0.35086173
-0.037022911 -0.053477537 0.35085234
-0.036390252 -0.053477854 0.3508544
-0.035758816 -0.053479999 0.35086849
-0.035128467 -0.053483881 0.35089394
-0.034499049 -0.05348935 0.35092983
-0.03387063 -0.053496603 0.35097742
-0.033243336 -0.053505942 0.35103869
-0.032616932 -0.053517099 0.35111189
-0.031991221 -0.053529862 0.35119563
-0.031366311 -0.053544514 0.35129175
-0.030742107 -0.053560991 0.35139984
-0.030118467 -0.053579167 0.35151911
-0.029495379 -0.053599127 0.35165006
-0.028872743 -0.053620808 0.35179231
-0.028250704 -0.053644594 0.35194835
-0.027629102 -0.053670324 0.35211715
-0.027007872 -0.053698003 0.35229877
-0.026386932 -0.053727608 0.35249299
-0.025766319 -0.053759355 0.35270128
-0.025145797 -0.053792909 0.3529214
-0.024525402 -0.053828482 0.35315478
-0.023905165 -0.053866304 0.35340294
-0.023285031 -0.053906444 0.35366628
-0.02266481 -0.05394863 0.35394305
-0.022044502 -0.053993057 0.35423452
-0.021424202 -0.054040153 0.35454351
-0.020803586 -0.054089319 0.35486609
-0.020182779 -0.054141104 0.35520583
-0.019561743 -0.054195654 0.3555637
-0.018940458 -0.054253176 0.35594109
-0.01831869 -0.054313309 0.35633561
-0.017696574 -0.054376747 0.35675183
-0.017073911 -0.054443225 0.35718796
-0.016450603 -0.05451278 0.35764429
-0.015826767 -0.054586194 0.35812595
-0.015202099 -0.054662868 0.35862899
-0.014576832 -0.054744102 0.35916194
-0.013950661 -0.054829344 0.35972118
-0.013323566 -0.05491909 0.36030999
-0.012695406 -0.055013426 0.36092889
-0.012066323 -0.055113748 0.36158708
-0.011436104 -0.055220045 0.36228448
-0.010804578 -0.055332538 0.36302251
-0.010171682 -0.055452067 0.36380672
-0.0095374007 -0.055580024 0.3646462
-0.0089015532 -0.055717129 0.36554572
-0.0082641551 -0.055865686 0.36652038
-0.0076247994 -0.056025699 0.36757016
-0.0069836862 -0.056202047 0.36872715
-0.0063405107 -0.056397174 0.37000731
-0.0056951619 -0.056616608 0.37144697
-0.0050476436 -0.056870118 0.37311018
-0.004398169 -0.057176195 0.37511829
-0.0037475505 -0.057576001 0.37774131
-0.0031061508 -0.058326609 0.38266584
-0.068590127 -0.056426361 0.37463233
-0.067289546 -0.055907235 0.37118569
-0.066228747 -0.055578902 0.36900577
-0.065262541 -0.055324081 0.36731395
-0.064352065 -0.05511177 0.36590433
-0.063479595 -0.054927941 0.36468384
-0.062635846 -0.054765373 0.36360452
-0.061814703 -0.054619342 0.36263496
-0.061013523 -0.054488014 0.36176303
-0.060227245 -0.054367296 0.36096156
-0.059454694 -0.054256469 0.36022574
-0.05869377 -0.054153919 0.35954487
-0.057942975 -0.054058529 0.35891154
-0.057201918 -0.053970173 0.35832492
-0.056469124 -0.053887676 0.35777721
-0.055743724 -0.053810418 0.35726425
-0.055025212 -0.053738073 0.35678393
-0.054312948 -0.053670194 0.35633326
-0.053606763 -0.053606763 0.35591212
-0.052906033 -0.053547315 0.35551745
-0.052210145 -0.053491373 0.35514602
-0.051518936 -0.053438894 0.3547976
-0.05083229 -0.053389892 0.35447225
-0.050149579 -0.053343818 0.35416636
-0.049470562 -0.053300541 0.35387903
-0.048795421 -0.05326036 0.35361224
-0.04812362 -0.053222809 0.35336295
-0.047454946 -0.053187758 0.35313022
-0.046789344 -0.05315524 0.35291433
-0.046126693 -0.053125225 0.35271505
-0.045466673 -0.053097446 0.3525306
-0.044809274 -0.053071979 0.35236153
-0.044154365 -0.053048767 0.35220742
-0.043501765 -0.053027697 0.35206753
-0.04285128 -0.05300862 0.35194087
-0.042202845 -0.052991539 0.35182747
-0.0415566 -0.052976735 0.35172918
-0.040912099 -0.052963722 0.35164279
-0.040269285 -0.052952524 0.35156843
-0.039628405 -0.05294355 0.35150886
-0.038989179 -0.052936528 0.35146222
-0.038351316 -0.052931156 0.35142657
-0.037714921 -0.052927662 0.35140336
-0.037079886 -0.052925993 0.35139227
-0.036446106 -0.052926086 0.35139289
-0.0358136 -0.052928064 0.35140604
-0.035182219 -0.052931808 0.35143089
-0.034551792 -0.05293715 0.35146636
-0.033922423 -0.05294434 0.3515141
-0.033294152 -0.052953556 0.35157529
-0.032666788 -0.052964594 0.35164857
-0.032040253 -0.052977446 0.35173389
-0.031414375 -0.052991927 0.35183004
-0.030789226 -0.053008258 0.35193846
-0.030164706 -0.053026378 0.35205877
-0.029540798 -0.053046379 0.35219157
-0.028917415 -0.053068221 0.35233659
-0.028294567 -0.053092051 0.35249481
-0.027672054 -0.053117622 0.35266456
-0.027050031 -0.053145356 0.35284871
-0.02642828 -0.053174973 0.35304534
-0.025806827 -0.053206667 0.35325578
-0.025185589 -0.053240418 0.35347986
-0.024564464 -0.053276174 0.35371724
-0.023943536 -0.053314272 0.3539702
-0.023322666 -0.053354591 0.35423788
-0.022701759 -0.053397097 0.35452008
-0.02208082 -0.053441983 0.35481811
-0.021459771 -0.053489283 0.35513213
-0.020838501 -0.053538918 0.35546169
-0.020217029 -0.053591173 0.35580862
-0.019595338 -0.053646255 0.35617432
-0.018973328 -0.053704169 0.35655883
-0.018350901 -0.053764924 0.3569622
-0.017728021 -0.053828716 0.35738575
-0.017104711 -0.053895976 0.35783231
-0.016480755 -0.053966396 0.35829985
-0.01585621 -0.054040551 0.35879219
-0.01523095 -0.054118481 0.35930958
-0.014605031 -0.054200895 0.35985675
-0.013978205 -0.054287449 0.3604314
-0.013350529 -0.054378983 0.36103913
-0.012721758 -0.054475222 0.36167809
-0.012091979 -0.054577313 0.36235592
-0.01146112 -0.054685913 0.36307696
-0.010828967 -0.054801136 0.36384195
-0.010195514 -0.054924224 0.36465916
-0.0095606446 -0.055056125 0.3655349
-0.0089241546 -0.055197548 0.36647385
-0.0082863048 -0.055352513 0.36750272
-0.0076465593 -0.055520669 0.36861914
-0.0070050699 -0.055706982 0.36985615
-0.0063616536 -0.055915587 0.37124112
-0.0057164836 -0.056156043 0.3728376
-0.0050694523 -0.056439903 0.37472224
-0.0044221473 -0.056807585 0.37716338
-0.0037804635 -0.057394311 0.38105884
-0.067809872 -0.055664819 0.37405592
-0.066583484 -0.055207409 0.37098223
-0.065548204 -0.054900784 0.36892176
-0.064597696 -0.05465959 0.36730099
-0.063696906 -0.054455906 0.36593229
-0.062834159 -0.054280818 0.36475572
-0.061998054 -0.054125287 0.36371058
-0.061183445 -0.053985395 0.36277053
-0.06038687 -0.05385856 0.36191824
-0.059605062 -0.053742271 0.36113679
-0.058837134 -0.053636059 0.36042309
-0.058079328 -0.05353681 0.35975614
-0.057332501 -0.053445552 0.3591429
-0.0565941 -0.053360149 0.35856903
-0.055863798 -0.053280503 0.35803381
-0.055140819 -0.053206056 0.35753354
-0.054424819 -0.053136658 0.3570672
-0.053714573 -0.053071283 0.35662791
-0.053010173 -0.053010173 0.35621727
-0.052311271 -0.052953128 0.35583392
-0.051616803 -0.052899208 0.35547158
-0.050927155 -0.052848935 0.35513377
-0.050241508 -0.052801583 0.35481557
-0.049560111 -0.052757539 0.35451961
-0.048882253 -0.052716155 0.35424152
-0.048208334 -0.052677978 0.35398498
-0.047537655 -0.052642372 0.3537457
-0.046869881 -0.052609049 0.35352179
-0.046205413 -0.052578572 0.35331699
-0.045543503 -0.052550197 0.35312632
-0.044884294 -0.052524172 0.35295144
-0.0442276 -0.05250039 0.35279161
-0.043573368 -0.052478872 0.35264704
-0.042921394 -0.052459478 0.35251671
-0.042271625 -0.052442241 0.35240087
-0.041623715 -0.052426815 0.35229722
-0.040977858 -0.052413538 0.35220799
-0.040333886 -0.052402291 0.35213241
-0.039691567 -0.05239287 0.35206911
-0.03905084 -0.052385274 0.35201806
-0.038411926 -0.052379899 0.35198194
-0.037774339 -0.052376185 0.35195699
-0.037137963 -0.052374046 0.35194263
-0.036503069 -0.052373968 0.35194209
-0.035869442 -0.052375734 0.35195395
-0.035236981 -0.052379295 0.35197788
-0.034605604 -0.05238463 0.35201374
-0.033975273 -0.052391779 0.35206178
-0.03334599 -0.052400839 0.35212266
-0.03271763 -0.052411735 0.35219589
-0.03209009 -0.052424405 0.352281
-0.03146328 -0.052438799 0.35237774
-0.030837333 -0.052455258 0.35248834
-0.030211974 -0.05247343 0.35261044
-0.029587168 -0.052493364 0.3527444
-0.02896297 -0.052515276 0.35289165
-0.028339298 -0.052539151 0.35305208
-0.027716022 -0.052564871 0.3532249
-0.02709314 -0.052592564 0.35341102
-0.026470656 -0.052622385 0.35361141
-0.02584834 -0.052654024 0.35382402
-0.025226269 -0.052687775 0.35405082
-0.024604404 -0.052723721 0.35429236
-0.023982842 -0.052762251 0.35455129
-0.023361159 -0.052802622 0.35482255
-0.022739572 -0.052845486 0.35511059
-0.022117933 -0.052890711 0.35541448
-0.021496071 -0.052938085 0.35573283
-0.020874171 -0.05298828 0.35607013
-0.020252138 -0.053041313 0.35642651
-0.019629762 -0.053096898 0.35680002
-0.019007036 -0.053155269 0.35719228
-0.018384049 -0.053216983 0.35760698
-0.017760525 -0.053281575 0.35804102
-0.017136646 -0.053349935 0.35850039
-0.016512049 -0.053421333 0.35898018
-0.015886862 -0.053496577 0.35948578
-0.015260999 -0.053575847 0.36001846
-0.014634319 -0.053659167 0.36057836
-0.014006895 -0.053747389 0.36117119
-0.013378708 -0.05384114 0.36180118
-0.01274934 -0.053939518 0.36246225
-0.012118897 -0.054043733 0.36316255
-0.011487456 -0.054155152 0.36391127
-0.010854789 -0.054273944 0.36470953
-0.010220764 -0.054400843 0.36556226
-0.0095853843 -0.054537527 0.36648077
-0.0089485329 -0.054685481 0.36747497
-0.0083100675 -0.054846447 0.36855662
-0.0076701101 -0.055024702 0.36975446
-0.0070284894 -0.055223845 0.37109268
-0.0063852635 -0.055450972 0.37261891
-0.0057408893 -0.055720393 0.37442937
-0.0050961473 -0.056057621 0.37669545
-0.0044563152 -0.056560926 0.38007757
-0.067070149 -0.054936852 0.37369376
-0.065893516 -0.054521032 0.37086526
-0.064880356 -0.054233324 0.3689082
-0.063941568 -0.054002464 0.36733782
-0.063052408 -0.053809125 0.36602268
-0.062196657 -0.053640503 0.36487567
-0.06136756 -0.05349151 0.36386219
-0.060558535 -0.053356979 0.36294708
-0.059766341 -0.053234503 0.36211395
-0.058989163 -0.053122837 0.36135438
-0.058223467 -0.053019136 0.36064899
-0.057469897 -0.052924257 0.36000359
-0.056725368 -0.052835628 0.35940072
-0.055989586 -0.052753195 0.35883999
-0.05526169 -0.052676346 0.35831726
-0.054541089 -0.05260472 0.35783002
-0.053826697 -0.052537434 0.35737234
-0.053118248 -0.052474391 0.35694349
-0.052415472 -0.052415472 0.35654271
-0.051717874 -0.052360334 0.35616764
-0.05102513 -0.052308783 0.35581699
-0.050336909 -0.052260611 0.35548931
-0.049652718 -0.052215438 0.35518205
-0.048972376 -0.052173182 0.35489461
-0.048295945 -0.052134033 0.35462829
-0.047622841 -0.05209747 0.35437959
-0.046952985 -0.052063517 0.35414863
-0.046286318 -0.052032206 0.35393566
-0.045622423 -0.052003182 0.35373822
-0.044961262 -0.051976494 0.35355669
-0.044302691 -0.051952075 0.35339057
-0.043646745 -0.05193007 0.35324091
-0.042993162 -0.051910263 0.35310617
-0.042341627 -0.05189237 0.35298446
-0.041692246 -0.051876612 0.35287726
-0.041044924 -0.05186297 0.35278445
-0.040399361 -0.051851146 0.35270405
-0.039755639 -0.051841352 0.35263741
-0.0391137 -0.051833604 0.35258472
-0.038473334 -0.051827714 0.35254464
-0.037834443 -0.051823646 0.35251698
-0.037197072 -0.05182156 0.35250279
-0.036560915 -0.051821124 0.35249981
-0.035926197 -0.051822744 0.35251084
-0.035292543 -0.051825985 0.35253289
-0.034660261 -0.051831398 0.3525697
-0.034028914 -0.051838439 0.35261759
-0.03339861 -0.051847368 0.35267833
-0.032769263 -0.051858153 0.3527517
-0.032140773 -0.051870752 0.35283741
-0.031513028 -0.051885091 0.35293493
-0.030886119 -0.051901419 0.353046
-0.030259952 -0.051919706 0.35317039
-0.029634299 -0.051939685 0.35330629
-0.029009199 -0.051961534 0.35345492
-0.028384699 -0.051985458 0.35361767
-0.027760725 -0.052011475 0.35379463
-0.027137091 -0.052039362 0.35398433
-0.026513791 -0.05206925 0.35418764
-0.025890812 -0.052101266 0.3544054
-0.025268013 -0.052135266 0.3546367
-0.024645485 -0.05217161 0.35488391
-0.024023019 -0.052210029 0.35514525
-0.023400692 -0.052250862 0.355423
-0.022778319 -0.052293885 0.35571566
-0.022156006 -0.05233955 0.35602629
-0.021533599 -0.052387711 0.35635388
-0.020911044 -0.052438464 0.35669911
-0.020288311 -0.052491982 0.35706314
-0.019665208 -0.052548017 0.35744432
-0.019041903 -0.05260729 0.35784751
-0.018418154 -0.052669454 0.35827038
-0.017794115 -0.052735288 0.35871819
-0.017169394 -0.052803986 0.35918549
-0.016544338 -0.052877005 0.35968217
-0.015918564 -0.05295359 0.36020312
-0.015292225 -0.053034738 0.36075512
-0.014664989 -0.053119849 0.36133406
-0.014036918 -0.053209711 0.36194533
-0.013408083 -0.053305302 0.36259556
-0.012778172 -0.053406205 0.36328194
-0.012147229 -0.053513467 0.36401156
-0.011515296 -0.053628381 0.36479321
-0.010882089 -0.053750925 0.36562678
-0.010247715 -0.053883146 0.36652619
-0.0096118366 -0.054025151 0.36749214
-0.0089747161 -0.054180693 0.36855018
-0.008336232 -0.054352231 0.36971703
-0.0076961108 -0.054542001 0.37100789
-0.0070548314 -0.054758932 0.37248349
-0.006412317 -0.05501093 0.37419766
-0.0057700519 -0.055324614 0.37633142
-0.0051321057 -0.055768885 0.37935343
-0.066359378 -0.054232791 0.37348723
-0.065218948 -0.053847443 0.37083343
-0.064224094 -0.053575538 0.36896089
-0.063298203 -0.053356078 0.36744952
-0.062417164 -0.053170178 0.36616927
-0.061567392 -0.053007219 0.36504704
-0.060742818 -0.05286267 0.36405155
-0.059939083 -0.052733291 0.36316055
-0.059150681 -0.052614696 0.36234382
-0.058376499 -0.052506234 0.36159688
-0.057614323 -0.052406248 0.3609083
-0.056863051 -0.05231401 0.36027306
-0.056120872 -0.052228093 0.3596814
-0.055387717 -0.052148666 0.35913441
-0.054661736 -0.052074201 0.35862157
-0.053942971 -0.0520049 0.35814431
-0.053229973 -0.051939551 0.35769427
-0.05252365 -0.05187919 0.35727859
-0.051822487 -0.051822487 0.35688809
-0.051126238 -0.051769335 0.35652205
-0.050434738 -0.051719699 0.35618022
-0.049747534 -0.051673245 0.35586029
-0.049064469 -0.051629931 0.355562
-0.048385259 -0.051589582 0.35528412
-0.047709547 -0.051551927 0.35502481
-0.047037438 -0.051517196 0.35478562
-0.046368472 -0.051484995 0.35456386
-0.045702539 -0.051455308 0.35435942
-0.045039415 -0.051427983 0.35417125
-0.044379029 -0.051403049 0.35399953
-0.043721333 -0.051380545 0.35384455
-0.043065738 -0.051359877 0.35370222
-0.042412601 -0.051341567 0.35357612
-0.041761648 -0.051325385 0.35346466
-0.041112766 -0.051311281 0.35336754
-0.040465791 -0.051299151 0.353284
-0.039820544 -0.051288858 0.35321313
-0.03917722 -0.051280756 0.35315731
-0.038535595 -0.051274635 0.35311517
-0.037895523 -0.05127041 0.35308608
-0.037256751 -0.051267836 0.35306835
-0.036619604 -0.051267449 0.35306567
-0.035983581 -0.051268641 0.35307389
-0.035348866 -0.051271778 0.3530955
-0.034715556 -0.051277105 0.35313219
-0.034083169 -0.051284023 0.35317981
-0.033451825 -0.051292796 0.35324025
-0.032821469 -0.051303461 0.35331368
-0.03219204 -0.051316023 0.3534002
-0.031563446 -0.051330451 0.35349956
-0.030935494 -0.05134654 0.35361037
-0.030308394 -0.05136475 0.35373577
-0.029681982 -0.051384937 0.3538748
-0.029056048 -0.051406853 0.35402572
-0.028430743 -0.051430896 0.3541913
-0.02780588 -0.051456857 0.35437009
-0.027181407 -0.051484782 0.3545624
-0.026557412 -0.051514979 0.35477036
-0.025933677 -0.051547185 0.35499215
-0.025310177 -0.051581502 0.35522848
-0.024686968 -0.051618207 0.35548127
-0.024063816 -0.051656991 0.35574836
-0.023440717 -0.051698018 0.35603091
-0.022817729 -0.051741611 0.35633111
-0.022194752 -0.051787753 0.35664889
-0.021571646 -0.051836345 0.35698351
-0.020948362 -0.051887482 0.35733569
-0.020324975 -0.0519416 0.35770839
-0.019701343 -0.05199863 0.35810113
-0.019077571 -0.052059136 0.35851783
-0.018453296 -0.05212247 0.35895398
-0.017828602 -0.052189182 0.35941342
-0.017203379 -0.052259322 0.35989645
-0.016577603 -0.052333217 0.36040536
-0.015951289 -0.052411381 0.36094365
-0.015324361 -0.052494086 0.36151323
-0.014696681 -0.052581459 0.36211494
-0.014068102 -0.052673589 0.3627494
-0.013438712 -0.052771527 0.36342388
-0.012808478 -0.052876029 0.36414355
-0.012177024 -0.05298651 0.3649044
-0.011544706 -0.053105649 0.36572489
-0.010911013 -0.053232517 0.36659861
-0.010276371 -0.05337083 0.36755112
-0.0096404878 -0.053521331 0.36858758
-0.0090030711 -0.05368498 0.36971459
-0.0083646476 -0.053868331 0.37097728
-0.00772508 -0.054075561 0.37240443
-0.0070847804 -0.054316651 0.37406474
-0.0064449045 -0.054612085 0.37609932
-0.0058091097 -0.055015687 0.37887883
-0.065675989 -0.05355119 0.37343213
-0.064563431 -0.053189564 0.37091038
-0.063579597 -0.052927516 0.36908302
-0.062662676 -0.052716222 0.36760959
-0.061788023 -0.052536342 0.36635521
-0.060944304 -0.052379157 0.36525911
-0.060124211 -0.052239068 0.36428222
-0.059323665 -0.052113052 0.36340347
-0.05853878 -0.051998131 0.36260208
-0.057766609 -0.051892038 0.36186224
-0.057008069 -0.051795904 0.36119187
-0.056258805 -0.051706068 0.36056542
-0.055518966 -0.051622897 0.35998544
-0.054787487 -0.051545624 0.35944659
-0.05406313 -0.051473279 0.35894209
-0.05334596 -0.051406104 0.35847366
-0.052635208 -0.051343545 0.35803741
-0.051930062 -0.051284969 0.35762894
-0.051230047 -0.051230047 0.35724595
-0.050534789 -0.051178545 0.3568868
-0.049844716 -0.051131029 0.35655546
-0.049158484 -0.051086266 0.35624331
-0.048476592 -0.051044889 0.35595477
-0.047798488 -0.051006444 0.35568666
-0.047123738 -0.050970573 0.35543653
-0.046452403 -0.050937463 0.35520566
-0.045784038 -0.050906729 0.35499132
-0.04511885 -0.050878704 0.3547959
-0.044456452 -0.050853062 0.35461709
-0.043796521 -0.050829541 0.35445306
-0.043139357 -0.050808579 0.35430688
-0.042484332 -0.050789542 0.35417414
-0.041831795 -0.050772943 0.35405838
-0.041181218 -0.050758246 0.35395589
-0.040532857 -0.05074586 0.35386953
-0.039886184 -0.050735228 0.35379538
-0.03924156 -0.050726894 0.35373726
-0.038598455 -0.050720286 0.35369119
-0.037957076 -0.050715756 0.3536596
-0.037317127 -0.050713021 0.35364053
-0.036678836 -0.050712477 0.35363674
-0.036041722 -0.050713573 0.35364437
-0.035405885 -0.050716538 0.35366505
-0.03477136 -0.050721526 0.35369983
-0.034137897 -0.050728276 0.35374692
-0.033505514 -0.050736923 0.35380721
-0.03287426 -0.05074764 0.35388196
-0.032243825 -0.050760083 0.35396871
-0.031614266 -0.050774425 0.35406873
-0.030985508 -0.050790679 0.35418206
-0.030357422 -0.050808739 0.35430801
-0.02973002 -0.050828744 0.35444751
-0.029103294 -0.050850809 0.35460138
-0.028477183 -0.050874963 0.35476983
-0.027851479 -0.050900981 0.35495123
-0.027226299 -0.050929196 0.35514799
-0.02660151 -0.05095952 0.35535946
-0.025976963 -0.050991818 0.35558468
-0.025352746 -0.051026415 0.35582593
-0.024728678 -0.051063117 0.35608187
-0.024104925 -0.051102437 0.35635608
-0.023481302 -0.051144205 0.35664734
-0.022857698 -0.051188368 0.35695529
-0.022234011 -0.051234894 0.35727975
-0.021610348 -0.051284257 0.35762396
-0.020986563 -0.051336363 0.35798731
-0.020362575 -0.051391259 0.35837013
-0.019738359 -0.051449168 0.35877395
-0.01911382 -0.051510122 0.35919902
-0.01848894 -0.051574413 0.35964733
-0.017863812 -0.051642656 0.36012322
-0.017238058 -0.051714178 0.36062196
-0.016611909 -0.05179007 0.36115119
-0.015985059 -0.05186988 0.36170775
-0.015357589 -0.0519544 0.36229712
-0.01472945 -0.052044053 0.36292231
-0.014100479 -0.05213898 0.36358428
-0.013470662 -0.052239884 0.36428791
-0.012839979 -0.052347608 0.36503911
-0.012208374 -0.052463014 0.36584386
-0.011575728 -0.05258688 0.36670762
-0.010941911 -0.052720118 0.36763677
-0.01030709 -0.052865397 0.36864984
-0.0096711759 -0.05302472 0.36976087
-0.0090343188 -0.0532021 0.37099779
-0.0083964262 -0.053401273 0.37238669
-0.0077581974 -0.053632755 0.37400091
-0.0071206708 -0.053913649 0.37595969
-0.0064872624 -0.054288145 0.37857118
-0.06501583 -0.052888524 0.37350935
-0.063920386 -0.052541886 0.37106133
-0.062945701 -0.052288231 0.36926994
-0.062035128 -0.052082971 0.36782035
-0.061165404 -0.051907938 0.36658424
-0.060325503 -0.051754668 0.36550182
-0.059509061 -0.051618356 0.36453918
-0.058710784 -0.051494934 0.36366752
-0.0579287 -0.051383086 0.36287764
-0.057160325 -0.051280979 0.36215654
-0.056402795 -0.051186349 0.36148825
-0.055655863 -0.051099241 0.36087307
-0.054918032 -0.051018525 0.36030304
-0.054187905 -0.050943121 0.35977051
-0.053465437 -0.050873172 0.35927653
-0.052749645 -0.050807942 0.35881585
-0.052040033 -0.050747115 0.35838628
-0.051335938 -0.050690204 0.35798436
-0.050637554 -0.050637554 0.35761255
-0.049943909 -0.050588347 0.35726503
-0.049254641 -0.050542343 0.35694015
-0.048569608 -0.050499529 0.35663778
-0.047888603 -0.050459802 0.35635722
-0.047211248 -0.050422899 0.3560966
-0.046537388 -0.050388757 0.35585549
-0.045867104 -0.050357588 0.35563537
-0.04519958 -0.050328612 0.35543072
-0.044535283 -0.050302442 0.35524592
-0.04387366 -0.050278574 0.35507736
-0.043214645 -0.050257031 0.35492522
-0.042558089 -0.050237745 0.35478902
-0.041903842 -0.050220635 0.35466817
-0.041251834 -0.050205722 0.35456285
-0.040601667 -0.050192613 0.35447028
-0.039953686 -0.050181832 0.35439414
-0.039307646 -0.050173175 0.35433301
-0.038663212 -0.05016632 0.35428458
-0.038020447 -0.050161429 0.35425004
-0.037379242 -0.050158471 0.35422915
-0.036739536 -0.050157454 0.35422197
-0.036101241 -0.050158359 0.35422838
-0.035464257 -0.050161157 0.35424814
-0.03482873 -0.050166152 0.35428342
-0.034194235 -0.050172847 0.35433069
-0.033560779 -0.050181355 0.35439077
-0.032928374 -0.05019179 0.35446447
-0.032296911 -0.050204109 0.35455146
-0.031666316 -0.050218299 0.35465169
-0.031036584 -0.050234471 0.35476589
-0.030407609 -0.050252575 0.35489374
-0.029779322 -0.050272621 0.35503531
-0.029151713 -0.050294716 0.35519135
-0.028524876 -0.050319161 0.35536399
-0.027898395 -0.05034538 0.35554916
-0.027272355 -0.050373644 0.35574874
-0.026646717 -0.050404031 0.35596335
-0.026021464 -0.050436664 0.35619381
-0.025396602 -0.050471727 0.35644144
-0.024771836 -0.050508808 0.35670331
-0.024147302 -0.050548352 0.35698259
-0.023522843 -0.050590225 0.35727829
-0.022898456 -0.050634615 0.35759178
-0.02227414 -0.05068174 0.35792458
-0.021649735 -0.050731469 0.3582758
-0.021025235 -0.050784029 0.35864699
-0.020400705 -0.050839853 0.35904121
-0.019775942 -0.050898734 0.35945705
-0.019150978 -0.050961077 0.35989732
-0.018525582 -0.051026605 0.36036009
-0.017899748 -0.051095642 0.36084765
-0.017273609 -0.051168989 0.36136565
-0.016646922 -0.051246405 0.36191237
-0.016019668 -0.051328324 0.36249089
-0.015391737 -0.051414952 0.36310267
-0.014763391 -0.051507827 0.36375859
-0.01413403 -0.051605642 0.36444938
-0.013504023 -0.051710527 0.36519009
-0.012873064 -0.051822335 0.3659797
-0.01224135 -0.051943023 0.36683202
-0.0116086 -0.052072864 0.36774898
-0.01097488 -0.052213825 0.36874449
-0.010340255 -0.052368388 0.36983603
-0.0097048869 -0.05254025 0.37104976
-0.0090687964 -0.052733373 0.37241364
-0.0084327133 -0.052957442 0.37399605
-0.0077973506 -0.053225394 0.37588838
-0.0071670506 -0.053582232 0.37840846
-0.0065688542 -0.05427948 0.38333255
-0.06437517 -0.052241631 0.37370139
-0.063287608 -0.051902536 0.37127572
-0.062317967 -0.051653929 0.36949736
-0.061412577 -0.05145378 0.36806563
-0.060546186 -0.05128229 0.3668389
-0.059710015 -0.051132884 0.36577016
-0.058896206 -0.050999507 0.36481607
-0.058100484 -0.050878953 0.36395371
-0.057320561 -0.050769642 0.36317176
-0.056554038 -0.0506698 0.36245757
-0.055798214 -0.050577328 0.36179608
-0.055053134 -0.050492521 0.36118942
-0.054316863 -0.050413854 0.3606267
-0.053588785 -0.050340977 0.3601054
-0.052868035 -0.050273284 0.35962117
-0.052153505 -0.050209895 0.35916772
-0.051445309 -0.050151087 0.35874704
-0.050743107 -0.050096694 0.35835797
-0.050046105 -0.050046105 0.35799608
-0.049353588 -0.04999873 0.35765719
-0.048665475 -0.049954627 0.35734171
-0.047981799 -0.049913954 0.35705075
-0.047302026 -0.049876288 0.3567813
-0.046625871 -0.049841449 0.3565321
-0.04595324 -0.049809456 0.35630324
-0.045283917 -0.049780194 0.35609391
-0.04461734 -0.049753148 0.35590047
-0.043953747 -0.049728692 0.3557255
-0.043292884 -0.049706645 0.35556781
-0.042634547 -0.049686879 0.3554264
-0.041978508 -0.049669225 0.35530013
-0.041324969 -0.049654033 0.35519144
-0.040673602 -0.049641013 0.35509831
-0.040024064 -0.049629841 0.35501841
-0.039376628 -0.049620956 0.35495484
-0.038730953 -0.049614031 0.35490531
-0.038086891 -0.049608972 0.35486913
-0.037444502 -0.049605966 0.35484761
-0.036803618 -0.049604878 0.35483983
-0.036164168 -0.049605716 0.35484582
-0.035526041 -0.049608435 0.35486528
-0.03488918 -0.049613051 0.3548983
-0.034253512 -0.049619574 0.35494494
-0.033618938 -0.049627956 0.35500491
-0.032985546 -0.049638443 0.35507992
-0.032353099 -0.049650799 0.35516831
-0.031721465 -0.049664918 0.35526931
-0.031090692 -0.049681004 0.35538438
-0.03046079 -0.049699184 0.35551444
-0.02983164 -0.049719401 0.35565904
-0.029203035 -0.049741436 0.35581666
-0.028575111 -0.049765643 0.35598984
-0.027947756 -0.049791981 0.35617822
-0.027320707 -0.049820114 0.35637948
-0.026694184 -0.049850587 0.35659745
-0.026068101 -0.049883403 0.35683221
-0.025442164 -0.049918171 0.35708091
-0.024816547 -0.049955387 0.35734713
-0.024191245 -0.04999524 0.35763222
-0.02356603 -0.050037462 0.35793424
-0.022940956 -0.050082367 0.35825548
-0.022316016 -0.050130181 0.35859749
-0.021690901 -0.050180446 0.35895705
-0.021065753 -0.050233718 0.35933813
-0.02044039 -0.050289851 0.35973966
-0.019814821 -0.050349135 0.36016375
-0.019189285 -0.050412528 0.36061722
-0.018563364 -0.050479323 0.36109501
-0.017937034 -0.050549824 0.36159933
-0.017310267 -0.050624363 0.36213255
-0.016683104 -0.050703548 0.36269897
-0.016055496 -0.050787795 0.36330163
-0.015427251 -0.050877105 0.36394048
-0.014798523 -0.050972689 0.36462423
-0.014168855 -0.051073778 0.36534736
-0.013538814 -0.051183321 0.36613095
-0.012907721 -0.051299918 0.366965
-0.012275958 -0.051426306 0.36786911
-0.011643536 -0.051564235 0.36885574
-0.011010265 -0.051714882 0.36993337
-0.010376344 -0.051881723 0.37112683
-0.009742179 -0.052070267 0.37247556
-0.0091080125 -0.05228674 0.37402406
-0.0084754732 -0.052547932 0.37589246
-0.0078482935 -0.05289067 0.37834418
-0.0072506899 -0.053516995 0.38282448
-0.06374646 -0.051604275 0.37396756
-0.062661543 -0.051268537 0.37153453
-0.061695829 -0.051024117 0.36976326
-0.060793035 -0.050826963 0.3683345
-0.059929721 -0.050658826 0.36711603
-0.059095118 -0.050511472 0.36604819
-0.058283925 -0.05038102 0.36510283
-0.057490401 -0.050263036 0.36424783
-0.056712423 -0.050156072 0.36347267
-0.055948194 -0.050058912 0.36276856
-0.055194676 -0.049969144 0.36211804
-0.054452058 -0.049887218 0.36152431
-0.053717747 -0.049811002 0.36097202
-0.052991707 -0.04974068 0.3604624
-0.052272581 -0.049675185 0.35998777
-0.051560387 -0.049614713 0.35954952
-0.050854109 -0.049558461 0.35914189
-0.050153423 -0.049506284 0.35876375
-0.049457591 -0.049457591 0.35841089
-0.048766717 -0.049412634 0.3580851
-0.048080415 -0.049371164 0.35778457
-0.047398183 -0.049332801 0.35750657
-0.046719655 -0.049297292 0.35724923
-0.046044644 -0.049264546 0.35701194
-0.045372926 -0.049234454 0.35679385
-0.04470443 -0.049207035 0.35659516
-0.044039149 -0.049182404 0.35641667
-0.043376457 -0.049159985 0.35625419
-0.042716537 -0.049140077 0.35610992
-0.042058896 -0.049122225 0.35598055
-0.041403688 -0.049106698 0.35586804
-0.040750474 -0.04909309 0.35576943
-0.040099707 -0.049082041 0.35568935
-0.03945059 -0.049072687 0.35562155
-0.038803343 -0.049065385 0.35556865
-0.038158067 -0.049060371 0.35553232
-0.037514307 -0.049057167 0.3555091
-0.036871992 -0.049055777 0.35549903
-0.036231287 -0.049056523 0.35550442
-0.035592005 -0.049059249 0.35552418
-0.034953967 -0.049063828 0.35555735
-0.034317143 -0.04907031 0.35560432
-0.033681415 -0.049078632 0.35566464
-0.033046722 -0.049088817 0.35573846
-0.032413218 -0.049101207 0.35582826
-0.031780474 -0.049115278 0.35593021
-0.031148605 -0.049131304 0.35604635
-0.030517681 -0.049149528 0.3561784
-0.029887313 -0.049169451 0.3563228
-0.029257845 -0.049191762 0.35648447
-0.028628968 -0.049216092 0.35666078
-0.028000491 -0.049242243 0.3568503
-0.027372511 -0.049270518 0.35705522
-0.026745161 -0.049301323 0.35727844
-0.026118048 -0.04933409 0.3575159
-0.025491206 -0.049369045 0.35776922
-0.024864789 -0.049406659 0.35804179
-0.024238508 -0.049446557 0.35833094
-0.023612391 -0.049488984 0.35863841
-0.022986347 -0.049533959 0.35896432
-0.022360336 -0.049581613 0.35930967
-0.02173437 -0.049632218 0.35967639
-0.021108635 -0.049686477 0.3600696
-0.020482594 -0.049743444 0.36048242
-0.019856405 -0.049803771 0.36091959
-0.019229908 -0.049867384 0.36138061
-0.018603263 -0.049935076 0.36187115
-0.017976318 -0.050006848 0.36239126
-0.017349022 -0.050083023 0.36294329
-0.016721465 -0.05016439 0.36353296
-0.016093245 -0.050250337 0.3641558
-0.01546446 -0.050341755 0.36481827
-0.014835411 -0.050440397 0.36553311
-0.014205647 -0.050545674 0.36629605
-0.013575261 -0.0506589 0.36711657
-0.01294444 -0.050782032 0.36800891
-0.012312908 -0.050915536 0.36897638
-0.01168085 -0.051062003 0.37003779
-0.011048565 -0.051225163 0.3712202
-0.010416288 -0.051409423 0.37255549
-0.0097842719 -0.051620468 0.37408492
-0.0091545871 -0.051875994 0.37593666
-0.0085307388 -0.052208122 0.37834352
-0.0079378793 -0.052804153 0.38266286
-0.063129023 -0.050975841 0.37430629
-0.062041011 -0.050638881 0.37183204
-0.061076239 -0.050396241 0.3700504
-0.060174875 -0.05020114 0.3686178
-0.059313707 -0.050035585 0.36740217
-0.058481392 -0.049890906 0.3663398
-0.057673108 -0.049763653 0.36540541
-0.056883253 -0.049649544 0.36456755
-0.056107685 -0.049545385 0.3638027
-0.055346705 -0.049451791 0.36311546
-0.054596376 -0.049365588 0.36248249
-0.053855266 -0.049285728 0.3618961
-0.053124171 -0.04921319 0.36136347
-0.052400243 -0.049145568 0.36086693
-0.051683541 -0.049083114 0.36040834
-0.050972916 -0.049024906 0.35998094
-0.050268665 -0.048971411 0.35958812
-0.049569935 -0.048921961 0.35922503
-0.048876453 -0.048876453 0.35889086
-0.048186846 -0.04883365 0.35857657
-0.04750168 -0.048794243 0.35828722
-0.046820816 -0.048758231 0.35802278
-0.046143804 -0.048725273 0.35778078
-0.045470111 -0.048694942 0.35755807
-0.044799775 -0.048667379 0.35735568
-0.044132035 -0.048641879 0.35716844
-0.043467317 -0.048618998 0.35700044
-0.042805459 -0.048598677 0.35685122
-0.042146243 -0.048580784 0.35671982
-0.041489501 -0.048565231 0.35660562
-0.040835071 -0.048551936 0.35650799
-0.040182561 -0.048540533 0.35642427
-0.03953205 -0.048531216 0.35635585
-0.038883343 -0.04852384 0.3563017
-0.038236443 -0.048518512 0.35626256
-0.037591334 -0.048515312 0.35623908
-0.036947869 -0.048514161 0.35623062
-0.036305748 -0.048514761 0.35623503
-0.035665132 -0.048517432 0.35625464
-0.035025783 -0.048521958 0.35628787
-0.034387548 -0.048528224 0.35633388
-0.033750575 -0.048536543 0.35639498
-0.033114582 -0.04854662 0.35646898
-0.032479849 -0.04855898 0.35655972
-0.031845935 -0.048573092 0.35666335
-0.031212915 -0.048589177 0.35678145
-0.030580698 -0.048607215 0.35691389
-0.029949175 -0.048627153 0.35706031
-0.029318441 -0.048649281 0.3572228
-0.028688323 -0.048673447 0.35740024
-0.028058674 -0.048699535 0.35759181
-0.027429687 -0.048728034 0.35780105
-0.026801031 -0.048758503 0.35802478
-0.026172828 -0.048791319 0.35826576
-0.025544871 -0.04882627 0.35852239
-0.024917228 -0.048863653 0.35879689
-0.024289932 -0.04890373 0.35909116
-0.023662861 -0.04894647 0.35940498
-0.023036057 -0.048992179 0.35974061
-0.022409169 -0.049040355 0.36009437
-0.021782257 -0.049091358 0.36046886
-0.021155313 -0.049145419 0.36086583
-0.020528343 -0.049202852 0.36128756
-0.019901155 -0.049263515 0.36173299
-0.019273996 -0.049328364 0.36220917
-0.018646609 -0.049397159 0.36271432
-0.018018864 -0.049469974 0.36324897
-0.017390816 -0.049547415 0.36381763
-0.016762419 -0.049629904 0.36442333
-0.016133782 -0.049718391 0.36507306
-0.015504737 -0.049813092 0.36576843
-0.01487493 -0.049913652 0.36650684
-0.014245125 -0.050023578 0.36731401
-0.013614736 -0.050142072 0.36818409
-0.012983873 -0.050270893 0.36912999
-0.012352788 -0.050412729 0.37017146
-0.011721732 -0.050570901 0.37133288
-0.011090923 -0.050749376 0.37264341
-0.010461232 -0.050956324 0.37416297
-0.0098342802 -0.051206078 0.37599689
-0.0092143752 -0.051532246 0.37839186
-0.0086294133 -0.052121654 0.38271978
-0.062521003 -0.050354756 0.3747088
-0.061423693 -0.050011639 0.37215555
-0.060459085 -0.049770184 0.37035879
-0.059560549 -0.049578331 0.36893114
-0.058702365 -0.049416117 0.36772403
-0.057875253 -0.049276643 0.36668617
-0.057069648 -0.049152471 0.36576214
-0.056283567 -0.049042407 0.36494312
-0.055511929 -0.048942469 0.36419946
-0.054753501 -0.048851926 0.36352569
-0.054006446 -0.048769455 0.362912
-0.053268366 -0.048693165 0.36234429
-0.052539479 -0.048623491 0.36182582
-0.051818069 -0.04855907 0.36134642
-0.051104218 -0.04850018 0.36090821
-0.050395966 -0.048445154 0.36049873
-0.04969338 -0.048394207 0.36011961
-0.048996367 -0.048347406 0.35977137
-0.04830461 -0.04830461 0.3594529
-0.047616858 -0.048264705 0.35915595
-0.046933457 -0.048228174 0.3588841
-0.0462537 -0.048194416 0.35863289
-0.045577247 -0.048163187 0.35840052
-0.04490488 -0.048135445 0.35819408
-0.044235598 -0.04811025 0.3580066
-0.043569308 -0.048087608 0.35783809
-0.042905796 -0.048067395 0.35768768
-0.042244565 -0.048049163 0.35755202
-0.041585766 -0.04803317 0.35743302
-0.040929291 -0.048019402 0.35733056
-0.040274944 -0.048007734 0.35724372
-0.039622631 -0.047998149 0.3571724
-0.038972624 -0.047991082 0.35711983
-0.038324337 -0.047985937 0.35708153
-0.03767762 -0.047982611 0.35705677
-0.03703247 -0.047981199 0.35704628
-0.036388889 -0.04798181 0.35705081
-0.035746846 -0.047984507 0.35707089
-0.035105959 -0.04798888 0.35710344
-0.034466367 -0.047995221 0.35715061
-0.033828069 -0.04800364 0.35721326
-0.033190686 -0.048013713 0.35728821
-0.032554418 -0.048025824 0.35737833
-0.031919252 -0.048040085 0.35748446
-0.031284805 -0.04805604 0.35760319
-0.030651137 -0.048073892 0.35773602
-0.030018447 -0.048094071 0.3578862
-0.029386215 -0.04811589 0.35804856
-0.028754657 -0.048139818 0.35822663
