# .PCD v0.7 - Point Cloud Data file format
VERSION 0.7
FIELDS x y z
SIZE 4 4 4
TYPE F F F
COUNT 1 1 1
WIDTH 75
HEIGHT 1
VIEWPOINT 0 0 0 1 0 0 0
POINTS 75
DATA ascii
0.13966644 -0.07036902 0.39605451
0.14968401 -0.071776189 0.39991435
0.10994858 -0.079667658 0.39969566
0.16083142 -0.079516202 0.39893582
0.15952091 -0.078140043 0.39925796
0.15078723 -0.079787187 0.38971487
0.12588394 -0.070336297 0.39993054
0.11866517 -0.073218934 0.39991438
0.14947283 -0.078429274 0.38995367
0.13819954 -0.070682205 0.38990042
0.12695561 -0.07561069 0.38992798
0.15992311 -0.080498211 0.3966828
0.16679807 -0.087541968 0.39943829
0.16064093 -0.089635529 0.38974422
0.1103281 -0.080140606 0.39846247
0.1042434 -0.089815244 0.3999359
0.11009998 -0.090401582 0.39001614
0.15985407 -0.088885888 0.38953993
0.11991268 -0.080527872 0.38989747
0.14958477 -0.080222279 0.38841784
0.13986072 -0.086940445 0.38101408
0.12051827 -0.080462635 0.38958162
0.16771369 -0.096193992 0.39649284
0.1395452 -0.090172939 0.38015452
0.10326418 -0.099666119 0.39893988
0.16354853 -0.096018814 0.38997194
0.15987614 -0.092007495 0.3878887
0.14997318 -0.092052504 0.38226455
0.11012655 -0.099638306 0.38763335
0.14899132 -0.099670053 0.37976187
0.10854074 -0.099407867 0.38946998
0.13997379 -0.092745468 0.37945744
0.12999003 -0.090890124 0.38028616
0.16726373 -0.10164215 0.3954291
0.1049313 -0.10997955 0.39980826
0.11054289 -0.11990483 0.39923823
0.12987211 -0.099875405 0.37794673
0.16189981 -0.10851853 0.38939026
0.15960619 -0.10931452 0.38723373
0.14995964 -0.10878079 0.38048068
0.15919058 -0.1180634 0.39310694
0.13975568 -0.12979853 0.39429075
0.14839339 -0.10932446 0.37998489
0.11008698 -0.10938355 0.38997009
0.10936958 -0.10725956 0.38992029
0.12073124 -0.12938064 0.39958993
0.13938934 -0.10939847 0.37787303
0.16073623 -0.11219882 0.38997546
0.11939494 -0.12877339 0.39994252
0.12997979 -0.10951053 0.37826011
0.15309411 -0.12787862 0.3994011
0.11777778 -0.11988723 0.3898147
0.13671508 -0.13382928 0.39996031
0.14564787 -0.11206318 0.37997487
0.1492451 -0.1193265 0.38572916
0.15044229 -0.10452141 0.37996632
0.14782034 -0.12920856 0.39684764
0.12946153 -0.1330677 0.39983973
0.13945325 -0.11478338 0.37990403
0.15791881 -0.11641676 0.3899664
0.13996197 -0.11991804 0.38317284
0.10930252 -0.11868161 0.39996982
0.14320704 -0.069619544 0.39995721
0.15146592 -0.12194589 0.3896524
0.12016317 -0.10983396 0.3817558
0.16138354 -0.11527395 0.39326701
0.12977889 -0.11334252 0.37966847
0.12876192 -0.069610782 0.39990687
0.13931313 -0.12597838 0.38908207
0.13813342 -0.068886384 0.3998892
0.14987014 -0.12249339 0.38915884
0.12061488 -0.11991566 0.38763365
0.12766273 -0.12555261 0.38993946
0.11979622 -0.12120145 0.38951877
0.14950112 -0.13004795 0.39942569
