# .PCD v0.7 - Point Cloud Data file format
VERSION 0.7
FIELDS x y z
SIZE 4 4 4
TYPE F F F
COUNT 1 1 1
WIDTH 1295
HEIGHT 1
VIEWPOINT 0 0 0 1 0 0 0
POINTS 1295
DATA ascii
-0.02858803 -0.088179983 0.44644254
-0.02776489 -0.088123351 0.44615582
-0.026943114 -0.088067785 0.44587451
-0.026124446 -0.088019282 0.44562894
-0.025307061 -0.087972172 0.4453904
-0.024493471 -0.087935574 0.44520515
-0.023681477 -0.087902434 0.44503734
-0.02287112 -0.08787325 0.44488961
-0.022062454 -0.087848678 0.44476521
-0.021254839 -0.087826602 0.44465342
-0.020449053 -0.087810636 0.4445726
-0.019644693 -0.08779975 0.44451746
-0.018841343 -0.087792642 0.44448149
-0.01803931 -0.087791309 0.44447473
-0.017237902 -0.08779303 0.44448346
-0.016437044 -0.087797873 0.44450799
-0.015637152 -0.087808616 0.44456238
-0.014837607 -0.087822594 0.44463313
-0.014038317 -0.087839752 0.44472
-0.013239569 -0.087862588 0.44483563
-0.012440888 -0.087888859 0.44496861
-0.011642114 -0.087918036 0.44511634
-0.010843781 -0.08795511 0.44530404
-0.010045256 -0.087996453 0.44551334
-0.0092463326 -0.088041171 0.44573975
-0.0084471982 -0.088092208 0.44599816
-0.0076473407 -0.088145666 0.4462688
-0.0068468968 -0.088204145 0.44656485
-0.0060459389 -0.088270709 0.44690186
-0.0052440809 -0.088342592 0.4472658
-0.0044412022 -0.088420302 0.44765922
-0.0036369944 -0.088500194 0.44806373
-0.0028317517 -0.088593371 0.44853547
-0.0020248846 -0.088689946 0.44902441
-0.0012163603 -0.088794298 0.44955274
-0.00040597061 -0.088907562 0.45012617
0.00040653985 -0.089032225 0.45075732
0.0012213691 -0.089159943 0.45140395
0.002038995 -0.089307979 0.45215341
0.0028595156 -0.089461982 0.45293313
0.0036835591 -0.089633271 0.45380032
0.0045114779 -0.089819424 0.45474279
0.0053439066 -0.09002427 0.45577991
0.0061817151 -0.09025304 0.45693812
0.0070259348 -0.09051057 0.45824197
0.0078790095 -0.090815946 0.45978805
0.0087415176 -0.091161542 0.46153775
0.0096214805 -0.091613226 0.46382454
0.010531324 -0.0922544 0.46707073
-0.045984883 -0.091547884 0.46776557
-0.044698365 -0.090649955 0.46317759
-0.043616977 -0.090141751 0.46058092
-0.042614356 -0.089779757 0.45873129
-0.041641995 -0.089468442 0.45714062
-0.040700436 -0.089212067 0.45583066
-0.039774355 -0.088979743 0.45464361
-0.03886915 -0.088785321 0.45365021
-0.037971072 -0.088599168 0.45269904
-0.037088081 -0.088440806 0.4518899
-0.036211312 -0.088290498 0.4511219
-0.035343956 -0.08815676 0.45043856
-0.034483552 -0.088034481 0.44981375
-0.033628624 -0.087920621 0.44923201
-0.032780524 -0.087819427 0.44871494
-0.03193517 -0.087720662 0.4482103
-0.031097051 -0.087637141 0.44778356
-0.030261936 -0.087557867 0.44737852
-0.029429302 -0.087481625 0.44698894
-0.028602455 -0.087418772 0.44666779
-0.027777573 -0.087358452 0.4463596
-0.026955336 -0.087303102 0.44607678
-0.026135799 -0.087253354 0.4458226
-0.025319465 -0.08721149 0.44560868
-0.024505029 -0.087173626 0.44541523
-0.023691952 -0.087138191 0.44523418
-0.022881109 -0.087108783 0.44508392
-0.022072043 -0.087084241 0.44495851
-0.02126484 -0.087065481 0.44486263
-0.020459011 -0.087051086 0.44478911
-0.019654121 -0.087039679 0.44473082
-0.018850384 -0.087032624 0.44469476
-0.018047733 -0.087030187 0.4446823
-0.017245805 -0.087031156 0.44468728
-0.016444566 -0.087035872 0.44471136
-0.015644256 -0.087046243 0.44476435
-0.014844364 -0.087060191 0.44483563
-0.014044788 -0.087077685 0.44492501
-0.013245674 -0.087100342 0.44504076
-0.012446755 -0.087127283 0.44517842
-0.011647787 -0.087157577 0.44533321
-0.010848792 -0.087192148 0.44550985
-0.010049718 -0.087231562 0.44571123
-0.009250219 -0.087273806 0.44592708
-0.0084507475 -0.087324388 0.44618556
-0.0076508038 -0.08738023 0.44647089
-0.0068500191 -0.087438479 0.44676849
-0.0060486142 -0.087503284 0.44709963
-0.0052462099 -0.087571345 0.44744739
-0.0044431062 -0.087650366 0.44785112
-0.0036386969 -0.087733023 0.44827348
-0.0028329042 -0.087820031 0.44871804
-0.0020257514 -0.087917611 0.44921663
-0.0012169004 -0.088022463 0.44975236
-0.00040613714 -0.088131763 0.45031083
0.00040670807 -0.088255651 0.45094386
0.0012219212 -0.088385634 0.451608
0.0020398144 -0.088527948 0.45233515
0.0028607124 -0.088682085 0.45312271
0.0036850516 -0.088850692 0.4539842
0.0045133089 -0.089035273 0.45492736
0.0053462177 -0.089240707 0.45597702
0.0061843833 -0.089467406 0.45713535
0.0070294123 -0.089728385 0.45846879
0.0078818072 -0.090018533 0.45995134
0.0087455595 -0.090370782 0.46175113
0.0096242679 -0.090802871 0.46395892
0.010536146 -0.091453753 0.46728459
-0.0461068 -0.090944611 0.46900576
-0.044736072 -0.089890242 0.46356833
-0.043654121 -0.089387007 0.46097314
-0.042640742 -0.08900737 0.45901534
-0.041670967 -0.088705525 0.45745867
-0.040724762 -0.088442668 0.45610312
-0.039799083 -0.088214464 0.45492625
-0.038889352 -0.08801274 0.45388597
-0.037994109 -0.087835848 0.45297372
-0.03710787 -0.087672435 0.452131
-0.036231499 -0.087525532 0.4513734
-0.035363659 -0.087392956 0.4506897
-0.034500744 -0.087266594 0.45003805
-0.033647329 -0.087158747 0.44948187
-0.032796018 -0.087051161 0.44892704
-0.031953029 -0.086960778 0.44846094
-0.031112984 -0.086873919 0.44801301
-0.030276522 -0.086792693 0.44759414
-0.029445406 -0.086722769 0.44723353
-0.028617183 -0.086657666 0.44689777
-0.027791098 -0.086595446 0.44657692
-0.026969118 -0.086542688 0.44630486
-0.026149601 -0.086494833 0.44605803
-0.025332458 -0.086452045 0.44583738
-0.024516597 -0.086410962 0.44562551
-0.023703948 -0.086378798 0.44545963
-0.022893151 -0.086351365 0.44531816
-0.022083685 -0.086327128 0.4451932
-0.021275906 -0.086307921 0.44509414
-0.020469191 -0.086291686 0.44501039
-0.01966358 -0.086278968 0.44494483
-0.018859433 -0.086271882 0.44490826
-0.018056389 -0.086269416 0.44489557
-0.017254181 -0.086270899 0.44490322
-0.016452691 -0.086276308 0.44493109
-0.015651949 -0.086286381 0.44498307
-0.014851616 -0.086299926 0.44505292
-0.014051594 -0.086316928 0.4451406
-0.013251875 -0.086337969 0.44524911
-0.012452632 -0.086365029 0.44538864
-0.011653468 -0.086396396 0.44555041
-0.010854165 -0.086431317 0.44573048
-0.01005483 -0.086471543 0.44593793
-0.0092551596 -0.08651562 0.44616526
-0.0084549533 -0.086562619 0.44640762
-0.0076543349 -0.08661484 0.44667694
-0.006853391 -0.086675234 0.4469884
-0.0060515925 -0.086739495 0.44731978
-0.0052489503 -0.086809561 0.44768113
-0.0044450848 -0.086881198 0.44805056
-0.0036404543 -0.08696641 0.44848999
-0.0028343264 -0.087054305 0.44894329
-0.0020267055 -0.087148346 0.44942823
-0.0012174648 -0.087251641 0.44996095
-0.00040634797 -0.087364808 0.45054457
0.00040688185 -0.087479599 0.45113653
0.0012225431 -0.087615579 0.45183781
0.0020407438 -0.087751985 0.45254123
0.0028621787 -0.087909773 0.45335495
0.0036868248 -0.088074148 0.45420265
0.0045156637 -0.088260695 0.4551647
0.0053487513 -0.088460118 0.45619312
0.0061876723 -0.088689968 0.45737848
0.0070328894 -0.088945366 0.45869556
0.007885877 -0.089234918 0.46018881
0.0087507218 -0.089590721 0.46202371
0.0096316449 -0.090034947 0.46431458
0.010545568 -0.090691887 0.46770245
-0.044794653 -0.089170665 0.46417534
-0.043692451 -0.088633254 0.46137789
-0.04267446 -0.088249125 0.4593783
-0.041701034 -0.087943763 0.45778877
-0.040754404 -0.087683715 0.45643508
-0.039826501 -0.087454073 0.45523968
-0.038915876 -0.087253489 0.45419556
-0.038017467 -0.087072261 0.45325217
-0.037130624 -0.086910143 0.45240825
-0.036253747 -0.086764589 0.45165059
-0.03538388 -0.086629495 0.45094737
-0.0345226 -0.08650957 0.4503231
-0.033666056 -0.086396016 0.44973201
-0.032816198 -0.08629445 0.44920328
-0.031970937 -0.086200118 0.44871226
-0.031130377 -0.0861139 0.44826347
-0.030294286 -0.086035773 0.44785675
-0.029462431 -0.085965723 0.44749212
-0.028632354 -0.085897058 0.4471347
-0.027807325 -0.085840002 0.44683769
-0.026984384 -0.085786179 0.44655749
-0.026164243 -0.085738212 0.44630781
-0.025345743 -0.085692756 0.44607118
-0.024530994 -0.085657403 0.44588718
-0.023717703 -0.085624926 0.44571811
-0.022905754 -0.085595191 0.44556332
-0.022095775 -0.085570917 0.44543695
-0.021287119 -0.085550122 0.44532871
-0.020480352 -0.085535586 0.44525304
-0.019674964 -0.08552587 0.44520247
-0.018870529 -0.085519634 0.44517002
-0.018066946 -0.085516877 0.44515568
-0.017264143 -0.085517734 0.44516012
-0.016462192 -0.085523099 0.44518805
-0.015660938 -0.085532822 0.44523865
-0.014860164 -0.085546352 0.4453091
-0.014059763 -0.085563697 0.4453994
-0.013259606 -0.08558473 0.44550887
-0.012459776 -0.085610725 0.44564417
-0.011659979 -0.085640535 0.44579935
-0.010860051 -0.085673735 0.44597217
-0.010059952 -0.085710786 0.44616506
-0.0092601012 -0.085756585 0.44640347
-0.0084597263 -0.085805796 0.44665962
-0.0076586865 -0.085857905 0.44693089
-0.0068571069 -0.085915513 0.44723076
-0.0060547772 -0.085977837 0.44755518
-0.0052517671 -0.086048186 0.44792137
-0.0044476977 -0.086123593 0.44831392
-0.0036422869 -0.086200789 0.44871575
-0.0028358747 -0.086291619 0.44918856
-0.0020278159 -0.08638496 0.44967446
-0.0012181111 -0.086485893 0.45019984
-0.00040655883 -0.086597025 0.45077837
0.00040712656 -0.086717956 0.45140785
0.0012231644 -0.086844675 0.45206746
0.0020419683 -0.086987853 0.45281279
0.0028636395 -0.087136462 0.45358637
0.003688995 -0.087306216 0.45447001
0.0045181108 -0.087487049 0.45541134
0.0053519271 -0.087689266 0.45646396
0.0061914208 -0.087918177 0.45765555
0.0070365821 -0.08816424 0.45893642
0.0078916075 -0.088469066 0.46052322
0.0087567586 -0.08881855 0.46234244
0.0096394876 -0.08927004 0.46469265
0.010557966 -0.089953877 0.46825233
-0.044853561 -0.088449545 0.46478575
-0.043740753 -0.087898083 0.46188796
-0.042717498 -0.087508664 0.45984161
-0.04173344 -0.087185703 0.45814452
-0.040787518 -0.086930968 0.45680594
-0.039857529 -0.086700395 0.45559433
-0.038943116 -0.086494714 0.45451349
-0.03804601 -0.086319439 0.45359248
-0.037155632 -0.086152069 0.45271298
-0.036279138 -0.086010091 0.45196691
-0.035407148 -0.085872509 0.45124394
-0.034545362 -0.085753776 0.45062003
-0.033687275 -0.085638739 0.45001552
-0.032837383 -0.085539356 0.44949326
-0.031991526 -0.085445717 0.44900122
-0.031149831 -0.085358627 0.44854358
-0.030313984 -0.085283339 0.44814795
-0.029479578 -0.085208096 0.44775257
-0.028650906 -0.085145645 0.44742441
-0.027824406 -0.085086226 0.44711217
-0.027000938 -0.085032806 0.44683143
-0.026179807 -0.084983684 0.44657332
-0.025362225 -0.084943324 0.44636124
-0.024546172 -0.084905617 0.44616309
-0.023731578 -0.084870562 0.44597888
-0.022919396 -0.084841974 0.44582865
-0.02210943 -0.084819816 0.44571221
-0.021300595 -0.084800482 0.44561064
-0.020493235 -0.084785737 0.44553316
-0.019687017 -0.08477471 0.44547519
-0.018881787 -0.08476717 0.44543558
-0.018077517 -0.084763467 0.44541612
-0.01727413 -0.08476375 0.44541761
-0.016471704 -0.084769018 0.4454453
-0.01566994 -0.084778391 0.44549456
-0.014868726 -0.084791929 0.44556567
-0.014067939 -0.084809572 0.44565839
-0.013267444 -0.08483123 0.4457722
-0.01246714 -0.084856987 0.44590756
-0.011667032 -0.084887713 0.446069
-0.010866821 -0.084922194 0.4462502
-0.010066384 -0.084960282 0.44645035
-0.0092655644 -0.085001484 0.44666684
-0.0084645031 -0.085048102 0.44691184
-0.0076632858 -0.085102804 0.44719929
-0.0068612588 -0.08516033 0.44750157
-0.0060585137 -0.085223094 0.44783136
-0.0052547562 -0.085288741 0.44817632
-0.0044503193 -0.085365213 0.44857818
-0.0036446275 -0.085446268 0.44900411
-0.002837471 -0.085529484 0.4494414
-0.0020290702 -0.085626759 0.44995257
-0.0012188656 -0.085726887 0.4504787
-0.00040680237 -0.0858353 0.4510484
0.00040737315 -0.085955732 0.45168126
0.0012239214 -0.086082473 0.45234725
0.0020432181 -0.086223803 0.45308992
0.0028654635 -0.086373262 0.45387527
0.003691358 -0.086541839 0.45476112
0.0045208912 -0.086718909 0.45569161
0.0053557009 -0.086927146 0.45678586
0.006195182 -0.087145559 0.45793357
0.0070422888 -0.087407231 0.45930859
0.0078973053 -0.087701656 0.46085575
0.0087647652 -0.088065021 0.46276516
0.0096487878 -0.088517137 0.46514097
0.010572119 -0.089228682 0.46888
-0.044945255 -0.087790266 0.46573594
-0.043799654 -0.087182172 0.46250993
-0.042760681 -0.086766824 0.46030647
-0.041777942 -0.086451389 0.45863307
-0.040821299 -0.086178295 0.45718428
-0.039892804 -0.085954599 0.45599756
-0.03897601 -0.08574722 0.45489737
-0.038075339 -0.085567161 0.45394215
-0.037186194 -0.085405655 0.45308536
-0.036304548 -0.085254498 0.45228344
-0.035434678 -0.085124686 0.45159477
-0.034569532 -0.085000381 0.45093533
-0.033712246 -0.084889874 0.45034906
-0.032860789 -0.084788956 0.44981369
-0.032012843 -0.08469221 0.44930044
-0.03117241 -0.084610827 0.44886869
-0.030333702 -0.084529914 0.44843945
-0.029500375 -0.084459975 0.44806844
-0.028670151 -0.084395237 0.44772497
-0.027843086 -0.084336303 0.44741234
-0.027018726 -0.084282294 0.44712582
-0.026198063 -0.084236853 0.44688472
-0.025378991 -0.084193796 0.44665632
-0.024561621 -0.084153756 0.44644389
-0.023747653 -0.084123038 0.44628096
-0.022935169 -0.08409562 0.44613546
-0.022124061 -0.084071435 0.44600716
-0.021314546 -0.084051706 0.4459025
-0.020506222 -0.084035307 0.4458155
-0.019699568 -0.08402469 0.44575918
-0.018894136 -0.084018603 0.4457269
-0.018089583 -0.084016062 0.44571343
-0.017285958 -0.084017791 0.44572261
-0.01648302 -0.084023207 0.44575131
-0.015680689 -0.084032409 0.44580016
-0.014878877 -0.084045544 0.44586983
-0.014077447 -0.084062472 0.44595963
-0.013276298 -0.084083214 0.44606969
-0.012475283 -0.084107555 0.44619879
-0.011674288 -0.084135383 0.44634643
-0.010873618 -0.084169857 0.4465293
-0.01007291 -0.084209532 0.44673979
-0.0092718331 -0.084252745 0.44696903
-0.0084702456 -0.08429911 0.44721502
-0.0076681692 -0.084349863 0.44748425
-0.0068656602 -0.084407233 0.44778863
-0.0060624545 -0.084470205 0.44812268
-0.0052583609 -0.084538266 0.44848377
-0.0044531026 -0.08460895 0.44885874
-0.0036469875 -0.084691152 0.44929484
-0.0028394521 -0.084777929 0.44975519
-0.0020303281 -0.084867723 0.45023155
-0.0012196975 -0.084972262 0.45078614
-0.00040707714 -0.085079126 0.45135307
0.00040764551 -0.085197911 0.45198324
0.0012247808 -0.085326396 0.45266488
0.0020445718 -0.085463099 0.45339009
0.0028675606 -0.08561717 0.45420745
0.0036937909 -0.085778028 0.45506084
0.0045244759 -0.085965037 0.45605293
0.005359503 -0.086164318 0.45711014
0.0062002162 -0.086389676 0.45830569
0.0070480048 -0.086649001 0.45968142
0.0079047522 -0.086952269 0.4612903
0.0087727737 -0.087309986 0.46318799
0.0096610766 -0.087789781 0.46573338
0.010596815 -0.08858937 0.46997526
-0.045043204 -0.087139651 0.46675089
-0.043861207 -0.086469233 0.46315989
-0.042818699 -0.086053111 0.460931
-0.041822668 -0.085715771 0.45912406
-0.040864818 -0.085444622 0.4576717
-0.03992869 -0.085208647 0.45640776
-0.039012939 -0.085007139 0.4553284
-0.038107764 -0.084820509 0.45432872
-0.037217576 -0.084659755 0.4534677
-0.03633476 -0.084508941 0.45265985
-0.035462406 -0.084376074 0.45194817
-0.03459641 -0.084252432 0.4512859
-0.033738803 -0.084143758 0.45070383
-0.03288519 -0.084039934 0.45014769
-0.032038279 -0.083948404 0.44965741
-0.031195141 -0.083862267 0.44919604
-0.03035634 -0.0837835 0.44877413
-0.029522153 -0.083713502 0.44839922
-0.02869121 -0.083649024 0.44805384
-0.027862912 -0.083588734 0.44773093
-0.027039044 -0.08353854 0.44746205
-0.026216665 -0.083489992 0.44720203
-0.025396537 -0.083445765 0.4469651
-0.024580033 -0.083410934 0.44677854
-0.023764824 -0.083378285 0.44660366
-0.022951303 -0.083349466 0.44644931
-0.02213929 -0.083324239 0.44631419
-0.021329669 -0.083306447 0.44621888
-0.020521246 -0.083292112 0.44614211
-0.019713925 -0.083281279 0.44608405
-0.018907756 -0.083274581 0.4460482
-0.018102517 -0.083271578 0.44603211
-0.017298141 -0.083272442 0.44603676
-0.016494522 -0.083277218 0.44606233
-0.015691588 -0.083286121 0.44611001
-0.014889231 -0.083299212 0.44618014
-0.014087324 -0.08331646 0.44627252
-0.013285735 -0.083337791 0.44638675
-0.012484308 -0.083362959 0.44652158
-0.011682952 -0.083392106 0.44667768
-0.010881498 -0.083424821 0.44685292
-0.010079831 -0.083461002 0.44704673
-0.0092781037 -0.083502933 0.44727132
-0.0084762545 -0.083551653 0.4475323
-0.0076737464 -0.083603449 0.44780973
-0.0068704998 -0.083658434 0.44810426
-0.0060666371 -0.083719589 0.44843182
-0.0052620824 -0.083788544 0.44880116
-0.0044564102 -0.083861537 0.44919214
-0.003649493 -0.083938338 0.44960353
-0.0028414761 -0.084026508 0.45007578
-0.002031859 -0.084118962 0.450571
-0.0012205482 -0.084217824 0.45110053
-0.00040738427 -0.084328547 0.45169359
0.00040793352 -0.084442236 0.45230258
0.0012256996 -0.084573276 0.45300445
0.0020461266 -0.084709637 0.45373487
0.0028697166 -0.084861621 0.45454895
0.0036967797 -0.085025929 0.45542905
0.0045280685 -0.08521001 0.45641506
0.0053640869 -0.085412771 0.45750108
0.0062057413 -0.085639231 0.4587141
0.0070547629 -0.085902117 0.4601222
0.0079125948 -0.086205646 0.461748
0.0087833051 -0.086578295 0.46374404
0.009673493 -0.087061435 0.46633193
-0.04519942 -0.086597018 0.46836966
-0.043943431 -0.085794315 0.46402815
-0.042876922 -0.085337564 0.46155775
-0.041877616 -0.084999122 0.45972726
-0.040909331 -0.084711239 0.45817021
-0.039972953 -0.084478922 0.45691371
-0.039050996 -0.084267937 0.45577258
-0.038144622 -0.084082231 0.45476815
-0.037252355 -0.083920136 0.45389146
-0.036367767 -0.08376845 0.45307103
-0.035494614 -0.083636738 0.45235863
-0.034626398 -0.083510727 0.45167711
-0.033767466 -0.083401576 0.45108673
-0.032912459 -0.083296962 0.45052093
-0.032064542 -0.083205454 0.45002601
-0.031220157 -0.083118595 0.44955623
-0.030380951 -0.083041266 0.44913799
-0.029545974 -0.082971573 0.44876102
-0.028712919 -0.082903497 0.44839284
-0.027885668 -0.08284872 0.44809657
-0.027059671 -0.08279451 0.44780338
-0.026236517 -0.082745939 0.44754067
-0.025416948 -0.082705945 0.44732434
-0.024598917 -0.082668491 0.44712177
-0.023782723 -0.082634881 0.44694
-0.022968754 -0.082606927 0.44678879
-0.02215681 -0.082584478 0.44666737
-0.021346211 -0.082565531 0.44656491
-0.020536853 -0.082550094 0.44648141
-0.019728648 -0.082538217 0.44641718
-0.018921593 -0.082530357 0.44637465
-0.018116035 -0.082528606 0.44636518
-0.017311245 -0.082530357 0.44637465
-0.016507104 -0.08253552 0.44640261
-0.015703572 -0.082544416 0.44645071
-0.014900541 -0.082557052 0.44651905
-0.014097916 -0.082573503 0.44660804
-0.013295528 -0.082593434 0.44671583
-0.012493363 -0.082617402 0.44684544
-0.011691614 -0.082647614 0.44700888
-0.010889792 -0.082681753 0.4471935
-0.010087747 -0.082719527 0.44739783
-0.0092853298 -0.08276055 0.44761968
-0.0084824283 -0.082804658 0.44785824
-0.0076794787 -0.082857534 0.44814423
-0.0068758759 -0.082914978 0.44845492
-0.0060713268 -0.082974799 0.44877848
-0.0052659987 -0.083040752 0.44913518
-0.0044598621 -0.083115615 0.44954008
-0.0036523913 -0.083193354 0.44996056
-0.0028436349 -0.083277881 0.45041773
-0.0020334518 -0.083371527 0.45092422
-0.0012215087 -0.083469763 0.45145553
-0.00040770561 -0.083579652 0.45204988
0.00040827529 -0.083696432 0.45268151
0.0012266947 -0.083824135 0.45337221
0.0020478473 -0.08396174 0.45411646
0.0028722023 -0.084114499 0.45494267
0.0036999919 -0.084277593 0.45582479
0.0045322659 -0.084464952 0.45683816
0.0053688525 -0.084662676 0.45790756
0.0062119854 -0.084897138 0.45917565
0.0070622056 -0.085161895 0.46060762
0.0079216417 -0.085470341 0.46227589
0.0087947687 -0.085853696 0.46434933
0.0096918819 -0.086384162 0.4672184
-0.044033911 -0.085132226 0.46498358
-0.042950012 -0.084649056 0.46234456
-0.04193484 -0.084284879 0.46035546
-0.0409633 -0.083995454 0.45877466
-0.040017344 -0.083747633 0.45742109
-0.039095853 -0.083541669 0.45629612
-0.038184844 -0.083349712 0.45524767
-0.037289605 -0.083184503 0.45434532
-0.036404651 -0.08303532 0.45353052
-0.035526857 -0.082896002 0.45276955
-0.034659881 -0.08277595 0.45211387
-0.033797715 -0.082661882 0.45149082
-0.032942563 -0.082559757 0.45093301
-0.032093037 -0.082466915 0.45042595
-0.031247063 -0.082378618 0.44994366
-0.030407835 -0.082303874 0.4495354
-0.029570157 -0.082229339 0.44912833
-0.028738433 -0.082167633 0.4487913
-0.027908793 -0.082108475 0.44846818
-0.027081747 -0.082053654 0.44816872
-0.026258852 -0.082008414 0.44792166
-0.025438039 -0.081967011 0.44769552
-0.024618683 -0.081927747 0.44748107
-0.023802329 -0.081896149 0.44730845
-0.022988047 -0.081869714 0.44716409
-0.022175008 -0.081845939 0.44703424
-0.021363219 -0.081825167 0.44692075
-0.020553336 -0.08181034 0.44683978
-0.019744998 -0.081800699 0.44678715
-0.018937636 -0.081794471 0.44675311
-0.018131163 -0.081791691 0.44673795
-0.017325561 -0.081792764 0.44674379
-0.016520666 -0.081797443 0.44676936
-0.015716441 -0.081806086 0.44681656
-0.014912766 -0.081818692 0.44688541
-0.014109546 -0.081835367 0.44697648
-0.013306599 -0.081855744 0.44708779
-0.012503869 -0.081880175 0.44722122
-0.011701141 -0.081907988 0.44737312
-0.01089834 -0.081939377 0.44754457
-0.010095682 -0.081976943 0.44774973
-0.0092929117 -0.082020044 0.44798517
-0.0084896293 -0.082066417 0.44823846
-0.0076856972 -0.082115605 0.44850713
-0.0068813134 -0.082170978 0.44880956
-0.0060764211 -0.082234234 0.44915503
-0.0052704113 -0.082299501 0.44951153
-0.0044634356 -0.082370676 0.44990027
-0.0036554791 -0.082451366 0.45034099
-0.0028459905 -0.082533725 0.45079082
-0.0020351689 -0.082627855 0.45130497
-0.0012225686 -0.082727142 0.45184726
-0.00040805183 -0.082834519 0.45243376
0.00040863734 -0.082953379 0.45308295
0.0012277479 -0.08307761 0.45376149
0.0020497567 -0.083220124 0.4545399
0.0028747073 -0.083366513 0.45533943
0.0037036957 -0.08353892 0.4562811
0.004536605 -0.083720982 0.45727551
0.0053745764 -0.083926082 0.45839575
0.0062188637 -0.08416196 0.45968407
0.0070703952 -0.084428832 0.46114174
0.0079321386 -0.084748641 0.46288848
0.0088085346 -0.085149169 0.46507612
0.0097106909 -0.085707404 0.46812513
-0.044163529 -0.084541611 0.46635231
-0.043027505 -0.083966292 0.46317872
-0.042002521 -0.083589181 0.46109846
-0.041019719 -0.083282456 0.45940652
-0.040070988 -0.083033696 0.45803428
-0.039141189 -0.082814515 0.45682523
-0.038230002 -0.082626127 0.45578605
-0.037330326 -0.08245489 0.45484146
-0.036442872 -0.082303561 0.4540067
-0.035563972 -0.082165033 0.45324254
-0.034694549 -0.082042404 0.45256609
-0.033830296 -0.081926383 0.45192608
-0.032974981 -0.081826806 0.45137677
-0.032122374 -0.081729077 0.45083767
-0.031277437 -0.081646301 0.45038107
-0.030435393 -0.081566855 0.44994283
-0.029597826 -0.081495382 0.44954857
-0.028764585 -0.081432134 0.44919968
-0.027933596 -0.081371784 0.44886675
-0.027106641 -0.081319921 0.44858068
-0.026282519 -0.081273638 0.44832537
-0.025459711 -0.081228599 0.44807693
-0.024640771 -0.081193358 0.44788253
-0.023823677 -0.081162021 0.44770965
-0.023007808 -0.081132799 0.44754848
-0.022193721 -0.081107959 0.44741145
-0.021382185 -0.081090927 0.44731748
-0.020571666 -0.081076562 0.44723827
-0.019762216 -0.081065416 0.44717678
-0.018953785 -0.081057675 0.44713408
-0.018146317 -0.081053555 0.44711134
-0.017339991 -0.081054382 0.4471159
-0.016534586 -0.081059791 0.44714576
-0.015729718 -0.081068546 0.44719404
-0.014925295 -0.08108066 0.44726086
-0.014121272 -0.081096448 0.44734794
-0.013317831 -0.081117697 0.44746515
-0.012514616 -0.081143156 0.44760561
-0.011711415 -0.08117222 0.44776595
-0.010908124 -0.081204928 0.44794634
-0.010104577 -0.081240803 0.44814423
-0.0093006641 -0.081279717 0.44835892
-0.0084969215 -0.081327677 0.44862345
-0.0076925242 -0.08137881 0.44890553
-0.006887387 -0.081433229 0.4492057
-0.006081644 -0.081494026 0.44954109
-0.0052750981 -0.081561133 0.44991127
-0.0044674124 -0.081631809 0.45030114
-0.0036586537 -0.081709936 0.45073208
-0.0028486385 -0.081796616 0.45121026
-0.002036935 -0.081884786 0.4516966
-0.0012237129 -0.081988767 0.45227021
-0.00040842357 -0.082093135 0.45284593
0.00040902552 -0.082214132 0.45351335
0.001228944 -0.08233925 0.45420355
0.0020517481 -0.082480267 0.45498145
0.0028776801 -0.08263053 0.45581031
0.0037074555 -0.082799844 0.45674428
0.0045415591 -0.082986675 0.45777491
0.0053807595 -0.083194815 0.45892307
0.0062263873 -0.083433591 0.46024019
0.0070798956 -0.083709352 0.46176139
0.0079437094 -0.084036082 0.46356371
0.0088244136 -0.084462248 0.46591452
0.0097392518 -0.085112594 0.469502
-0.044324525 -0.084005527 0.46805239
-0.043126732 -0.083322518 0.46424687
-0.042075664 -0.082901552 0.4619014
-0.041085161 -0.08258532 0.46013945
-0.040126171 -0.082320705 0.45866507
-0.039195184 -0.082103595 0.4574554
-0.038277458 -0.081905536 0.45635188
-0.037374478 -0.081731007 0.45537946
-0.036485694 -0.081580371 0.45454016
-0.035602596 -0.081435829 0.45373482
-0.034732584 -0.081315108 0.45306221
-0.033866484 -0.081197955 0.45240948
-0.033008624 -0.081095256 0.45183727
-0.032155305 -0.080998808 0.45129988
-0.031308766 -0.080914862 0.45083219
-0.030465169 -0.080834247 0.45038301
-0.029627256 -0.080764711 0.44999558
-0.028792169 -0.080699176 0.44963044
-0.027960509 -0.080639727 0.44929922
-0.027132785 -0.080588423 0.44901335
-0.026306916 -0.080539636 0.44874153
-0.025484229 -0.080497801 0.44850844
-0.024663989 -0.080461212 0.44830456
-0.023845512 -0.080428086 0.44812
-0.023029082 -0.080399781 0.44796228
-0.022215042 -0.080378063 0.44784129
-0.021402132 -0.080358945 0.44773477
-0.020590317 -0.080342613 0.44764376
-0.019779973 -0.080330908 0.44757858
-0.018971374 -0.080325603 0.44754902
-0.018163551 -0.080323257 0.44753593
-0.017356517 -0.080324344 0.44754198
-0.016550241 -0.080329217 0.44756913
-0.015744595 -0.0803378 0.44761696
-0.014939456 -0.080350049 0.44768521
-0.014134797 -0.080366418 0.44777641
-0.013330393 -0.080386303 0.44788721
-0.012526068 -0.080409274 0.44801518
-0.011721797 -0.080435783 0.44816288
-0.01091799 -0.080469638 0.4483515
-0.010113974 -0.080507234 0.44856098
-0.0093095368 -0.080547728 0.44878662
-0.0085046077 -0.080591276 0.44902927
-0.0076996353 -0.08064355 0.4493205
-0.0068939272 -0.080699503 0.44963226
-0.0060872352 -0.08075732 0.44995439
-0.0052800477 -0.080825344 0.45033342
-0.0044717081 -0.080897264 0.45073411
-0.0036620933 -0.080972955 0.45115584
-0.0028513696 -0.081060365 0.45164287
-0.0020389713 -0.081151053 0.45214817
-0.0012248901 -0.08125104 0.45270526
-0.00040884514 -0.081360184 0.45331335
0.00040943149 -0.081476867 0.45396349
0.0012302479 -0.081606448 0.45468545
0.0020539425 -0.081746913 0.45546809
0.0028808336 -0.081897981 0.4563098
0.0037117915 -0.082071833 0.45727846
0.0045467685 -0.082255177 0.45829999
0.005387581 -0.08247143 0.45950487
0.0062348354 -0.082715482 0.46086466
0.0070902058 -0.082997113 0.46243382
0.0079574771 -0.083344109 0.46436715
0.0088435784 -0.08380343 0.46692637
-0.043240923 -0.082703516 0.46547613
-0.042163417 -0.082239531 0.46286473
-0.041154832 -0.081893958 0.46091974
-0.040191934 -0.081626922 0.45941678
-0.039250553 -0.081393249 0.45810163
-0.03833057 -0.081194863 0.45698506
-0.037423071 -0.081014782 0.45597151
-0.036529996 -0.080858529 0.45509207
-0.035646737 -0.080717325 0.45429736
-0.03477288 -0.080591261 0.45358783
-0.033905104 -0.080473557 0.45292538
-0.03304581 -0.080370672 0.45234632
-0.032190774 -0.080273189 0.45179766
-0.031342406 -0.080187716 0.4513166
-0.030497478 -0.080106705 0.45086065
-0.029658025 -0.080036037 0.45046291
-0.028821468 -0.079969428 0.45008799
-0.027989389 -0.079911739 0.4497633
-0.027160233 -0.07985919 0.44946757
-0.026333014 -0.079809286 0.44918668
-0.025510147 -0.079769827 0.4489646
-0.024688395 -0.079731375 0.44874817
-0.023868877 -0.079697773 0.44855908
-0.023052335 -0.079672106 0.44841459
-0.022236861 -0.07964839 0.44828114
-0.021422544 -0.079627194 0.44816181
-0.020610673 -0.079613782 0.44808632
-0.019799965 -0.07960394 0.44803095
-0.01899012 -0.079596885 0.44799122
-0.018181192 -0.079593219 0.4479706
-0.017373176 -0.07959339 0.44797158
-0.016565926 -0.07959725 0.44799331
-0.015759502 -0.079605691 0.44804078
-0.014953694 -0.07961832 0.44811186
-0.014148348 -0.079634987 0.44820568
-0.013343314 -0.079655543 0.44832137
-0.012538508 -0.079680197 0.44846013
-0.01173368 -0.079708099 0.44861719
-0.010928685 -0.079738922 0.44879067
-0.010123637 -0.079774253 0.44898951
-0.0093187252 -0.079816908 0.4492296
-0.0085132457 -0.079862356 0.44948536
-0.0077070431 -0.079909869 0.44975278
-0.0069006765 -0.079966664 0.45007244
-0.0060934718 -0.080027595 0.4504154
-0.0052851988 -0.080091089 0.45077276
-0.0044762404 -0.080165401 0.45119098
-0.0036658992 -0.080242462 0.45162469
-0.0028542709 -0.080327339 0.45210242
-0.002041124 -0.080420293 0.45262557
-0.0012261784 -0.080519043 0.45318139
-0.00040928417 -0.080628984 0.45380014
0.00040988074 -0.080746509 0.4544616
0.0012316228 -0.080876559 0.45519358
0.0020562902 -0.081017829 0.45598868
0.00288435 -0.081173852 0.4568668
0.0037162495 -0.081344575 0.45782766
0.004552729 -0.081535235 0.45890078
0.0053949379 -0.081754059 0.46013236
0.0062440997 -0.082005844 0.46154946
0.0071021332 -0.082301192 0.46321175
0.0079729594 -0.082667001 0.46527064
0.0088652559 -0.083164543 0.46807092
-0.043393701 -0.082153127 0.46712074
-0.042261712 -0.081594393 0.46394381
-0.041240413 -0.081231117 0.46187821
-0.040259764 -0.080934577 0.46019208
-0.039315317 -0.080699861 0.45885751
-0.038387485 -0.080489881 0.4576636
-0.037475061 -0.080303699 0.45660496
-0.036580544 -0.080148384 0.45572183
-0.03569283 -0.080001168 0.45488477
-0.034816004 -0.079872012 0.45415038
-0.033947375 -0.07975588 0.45349008
-0.033084638 -0.079648204 0.45287782
-0.032228678 -0.079551801 0.4523297
-0.031378288 -0.079464503 0.45183328
-0.030532083 -0.079383418 0.45137224
-0.029691234 -0.079312198 0.45096731
-0.028853048 -0.079244286 0.45058116
-0.028020041 -0.079187073 0.45025584
-0.027188936 -0.079131983 0.44994259
-0.026361786 -0.079085357 0.4496775
-0.025537089 -0.079043373 0.44943875
-0.024713911 -0.079003491 0.44921198
-0.023894446 -0.078973167 0.44903958
-0.023076324 -0.078945324 0.44888124
-0.022259336 -0.078919463 0.44873422
-0.021445358 -0.078902736 0.44863909
-0.020632342 -0.078888364 0.44855738
-0.019820234 -0.078876443 0.44848961
-0.019009113 -0.078867599 0.44843933
-0.018199863 -0.078866072 0.44843063
-0.017391317 -0.078867599 0.44843933
-0.016583437 -0.078872442 0.44846687
-0.015776196 -0.078880981 0.44851542
-0.014969488 -0.078893244 0.44858515
-0.014163084 -0.078908615 0.44867253
-0.013356959 -0.078927487 0.44877982
-0.01255106 -0.078950219 0.44890907
-0.011745717 -0.078979827 0.44907743
-0.010940179 -0.079012401 0.44926268
-0.010134327 -0.079047754 0.44946367
-0.0093281791 -0.079086736 0.44968534
-0.0085221324 -0.079134084 0.44995454
-0.0077153197 -0.079183549 0.45023578
-0.0069077993 -0.079236522 0.450537
-0.0060999719 -0.079299636 0.45089588
-0.0052909185 -0.079363778 0.45126057
-0.0044810255 -0.079436362 0.45167327
-0.0036699118 -0.079514757 0.45211902
-0.0028573785 -0.079598397 0.45259464
-0.0020433895 -0.079692192 0.45312792
-0.0012275449 -0.079790413 0.45368642
-0.00040975912 -0.079903029 0.45432675
0.00041035135 -0.080018513 0.45498338
0.0012331314 -0.08015354 0.45575115
0.0020587845 -0.080292597 0.45654181
0.0028880667 -0.080453292 0.45745552
0.0037213543 -0.080629341 0.45845655
0.0045589376 -0.080817528 0.45952657
0.0054032146 -0.081048213 0.46083826
0.0062543754 -0.081306875 0.462309
0.0071154451 -0.081618339 0.46407998
0.0079908399 -0.082011253 0.46631405
0.0088972766 -0.082617573 0.46976158
-0.043638002 -0.081768297 0.46975058
-0.042389486 -0.081001692 0.46534649
-0.041331463 -0.080575481 0.46289796
-0.040342178 -0.080268458 0.46113414
-0.039383758 -0.080011211 0.4596563
-0.038449746 -0.079793558 0.45840588
-0.037533805 -0.079604663 0.45732072
-0.036633164 -0.079440452 0.45637736
-0.035742871 -0.079291657 0.45552254
-0.03486342 -0.079160467 0.45476887
-0.033991519 -0.07904052 0.45407978
-0.033126529 -0.078931108 0.45345122
-0.032269266 -0.07883504 0.45289931
-0.031416029 -0.078744069 0.45237669
-0.030569091 -0.078664459 0.45191935
-0.029726118 -0.078590967 0.45149714
-0.028887019 -0.078523867 0.45111164
-0.028052378 -0.07846535 0.45077547
-0.027219756 -0.07840915 0.4504526
-0.026391868 -0.078363545 0.45019063
-0.025565308 -0.078319117 0.44993538
-0.024742121 -0.078282453 0.44972473
-0.023921033 -0.078250162 0.44953924
-0.023101278 -0.078220114 0.44936663
-0.022284534 -0.078198455 0.44924217
-0.021469072 -0.078179821 0.44913515
-0.020654498 -0.078163095 0.44903907
-0.019841755 -0.078152217 0.44897655
-0.019030554 -0.078146741 0.44894511
-0.018220054 -0.078143783 0.44892812
-0.017410355 -0.078144148 0.4489302
-0.016601417 -0.078148134 0.44895309
-0.015793219 -0.078156188 0.44899938
-0.014985668 -0.078168489 0.44907004
-0.014178588 -0.078184791 0.44916368
-0.01337183 -0.078204945 0.44927949
-0.012565125 -0.078228034 0.44941214
-0.011758368 -0.078253962 0.44956109
-0.01095196 -0.078286231 0.44974646
-0.010145558 -0.078323707 0.44996175
-0.0093386173 -0.07836318 0.45018852
-0.0085313655 -0.07840731 0.45044205
-0.0077239382 -0.07845895 0.45073873
-0.0069155828 -0.078512207 0.45104465
-0.0061067548 -0.078573577 0.45139724
-0.0052969633 -0.078639537 0.45177615
-0.0044860602 -0.078709967 0.45218077
-0.0036741639 -0.078790404 0.45264289
-0.002860704 -0.078873701 0.45312139
-0.0020458391 -0.078969389 0.45367113
-0.001229035 -0.079067916 0.45423716
-0.00041026738 -0.079181604 0.45489028
0.00041087336 -0.079298556 0.45556217
0.0012347212 -0.079433724 0.4563387
0.0020615715 -0.079576656 0.45715982
0.0028920718 -0.07973855 0.45808989
0.0037267641 -0.079918385 0.45912302
0.004566256 -0.080117039 0.46026427
0.0054119593 -0.080346778 0.46158409
0.0062660086 -0.080622643 0.46316892
0.0071303416 -0.08095035 0.46505153
0.0080124028 -0.081389144 0.46757236
-0.04254159 -0.080449939 0.46701628
-0.041443791 -0.079957217 0.464156
-0.040430058 -0.079609707 0.46213868
-0.039460678 -0.079336725 0.46055403
-0.038518649 -0.079108186 0.45922735
-0.037595481 -0.078909196 0.45807219
-0.036691595 -0.078742631 0.45710528
-0.03579716 -0.078589164 0.4562144
-0.034913354 -0.078452356 0.45542023
-0.034039222 -0.078331217 0.45471701
-0.033171821 -0.078219973 0.45407119
-0.032312103 -0.078121662 0.45350051
-0.031456389 -0.078028187 0.45295787
-0.030608479 -0.077949598 0.45250165
-0.029763056 -0.0778732 0.4520582
-0.028923057 -0.077807091 0.45167443
-0.028086567 -0.077746876 0.45132485
-0.027253071 -0.077691585 0.45100391
-0.026423495 -0.077644423 0.45073012
-0.025595251 -0.077598304 0.45046237
-0.024771562 -0.077563412 0.45025986
-0.023948858 -0.077529356 0.45006213
-0.023128564 -0.077500977 0.44989738
-0.022310585 -0.077478573 0.44976735
-0.021493554 -0.077457897 0.44964734
-0.020678455 -0.07744284 0.44955993
-0.019865064 -0.077433214 0.44950402
-0.019052368 -0.077425584 0.44945973
-0.018240483 -0.077420719 0.44943148
-0.01743006 -0.077421896 0.44943833
-0.016620483 -0.077427126 0.4494687
-0.015811451 -0.077435568 0.4495177
-0.015002847 -0.077447131 0.44958481
-0.014194611 -0.077462025 0.44967127
-0.013386848 -0.077481456 0.44978407
-0.012579572 -0.077506401 0.44992888
-0.011772222 -0.077534288 0.45009077
-0.010964589 -0.077564314 0.45026508
-0.01015715 -0.077600628 0.45047587
-0.0093495585 -0.077641986 0.45071596
-0.0085413018 -0.077685177 0.45096669
-0.0077329492 -0.077736489 0.45126456
-0.0069238553 -0.077791549 0.45158419
-0.0061139078 -0.077850424 0.45192596
-0.0053033452 -0.07791838 0.45232046
-0.0044914908 -0.07798861 0.45272815
-0.0036786818 -0.078069806 0.45319948
-0.0028642891 -0.078154176 0.45368925
-0.0020484279 -0.078249946 0.45424521
-0.001230633 -0.078350298 0.45482776
-0.00041080455 -0.078463666 0.45548588
0.0004114359 -0.078584261 0.45618591
0.0012364407 -0.078720056 0.45697424
0.0020645233 -0.07886479 0.4578144
0.0028964994 -0.079033054 0.4587912
0.0037326941 -0.079216063 0.45985356
0.0045740078 -0.079421408 0.46104559
0.0054221256 -0.079663537 0.46245119
0.0062784213 -0.079945229 0.46408641
0.0071479636 -0.080309473 0.46620089
0.0080404775 -0.080827951 0.46921068
-0.042773802 -0.080042064 0.46956545
-0.041571453 -0.079363689 0.46558577
-0.040530831 -0.078972444 0.46329054
-0.039546456 -0.078676634 0.46155518
-0.038591027 -0.078426927 0.46009028
-0.037666004 -0.078229398 0.45893148
-0.036754787 -0.078052297 0.45789254
-0.035854224 -0.07789021 0.45694166
-0.034968283 -0.077753007 0.45613676
-0.034090854 -0.077628575 0.45540676
-0.033219893 -0.077513084 0.45472926
-0.032357603 -0.077412494 0.45413914
-0.031500276 -0.077318862 0.45358986
-0.030650029 -0.077238075 0.45311591
-0.029802425 -0.077159703 0.45265615
-0.028961312 -0.077094197 0.45227185
-0.028122693 -0.077031724 0.45190537
-0.027288266 -0.076977342 0.45158634
-0.026456818 -0.076928288 0.45129853
-0.025627906 -0.076883718 0.45103708
-0.024802448 -0.076846927 0.45082125
-0.023978114 -0.076811247 0.45061192
-0.023157397 -0.076785058 0.45045829
-0.022337735 -0.076760575 0.45031467
-0.021519559 -0.076739557 0.45019138
-0.020704009 -0.076726623 0.45011547
-0.019888971 -0.076714598 0.45004496
-0.019075017 -0.076705925 0.44999406
-0.018263051 -0.076704815 0.44998753
-0.017451586 -0.076705813 0.4499934
-0.016640769 -0.076709889 0.45001733
-0.01583066 -0.076717809 0.45006379
-0.015021193 -0.076729879 0.45013458
-0.014212189 -0.076745823 0.45022812
-0.013403324 -0.076764494 0.45033765
-0.012594457 -0.076785557 0.45046124
-0.011786458 -0.076815195 0.45063508
-0.010978165 -0.076847158 0.45082259
-0.010169386 -0.076880559 0.45101854
-0.0093610333 -0.076923274 0.45126912
-0.008551985 -0.076967865 0.45153072
-0.0077424333 -0.077016838 0.45181802
-0.0069325422 -0.077073559 0.45215076
-0.006121574 -0.07713183 0.45249262
-0.0053100842 -0.077200457 0.45289522
-0.0044973325 -0.077272348 0.45331696
-0.0036834809 -0.077353097 0.45379069
-0.0028680936 -0.077438526 0.45429185
-0.0020511854 -0.07753481 0.45485669
-0.0012323452 -0.077637754 0.45546061
-0.00041138005 -0.077750832 0.45612398
0.00041203096 -0.077873848 0.45684567
0.0012383176 -0.078014001 0.45766789
0.0020677641 -0.078161478 0.45853305
0.0029011827 -0.078331932 0.45953301
0.003739282 -0.078524917 0.46066517
0.0045826817 -0.078738801 0.4619199
0.0054331296 -0.078989349 0.46338972
0.0062935092 -0.079298213 0.46520168
0.0071692192 -0.079704851 0.4675872
-0.041745592 -0.078852788 0.46753606
-0.040653009 -0.0783723 0.46468714
-0.039640564 -0.07802932 0.46265355
-0.038679384 -0.077774674 0.4611437
-0.037742116 -0.077557974 0.45985883
-0.036821697 -0.077366941 0.45872614
-0.035917409 -0.077201791 0.45774692
-0.035027731 -0.077061012 0.45691222
-0.034145463 -0.076930143 0.45613626
-0.033271622 -0.07681226 0.45543733
-0.03240712 -0.076710522 0.4548341
-0.031546935 -0.076613985 0.45426172
-0.030694272 -0.076531053 0.45376998
-0.029844521 -0.076451033 0.45329553
-0.029001838 -0.076385118 0.4529047
-0.02816114 -0.076320775 0.45252317
-0.027325304 -0.076266147 0.45219928
-0.026492186 -0.076215982 0.45190185
-0.025662201 -0.076171927 0.45164064
-0.024834929 -0.076133303 0.45141163
-0.024009503 -0.076097921 0.45120183
-0.023187527 -0.076071367 0.45104438
-0.022366339 -0.076045558 0.45089135
-0.021547697 -0.076026782 0.45078003
-0.020730462 -0.076011695 0.45069057
-0.019913819 -0.075997636 0.45060721
-0.019099873 -0.075993113 0.45058039
-0.018286344 -0.075989917 0.45056146
-0.017473418 -0.075989053 0.45055634
-0.016661499 -0.075992696 0.45057791
-0.015850503 -0.07600113 0.45062795
-0.015039911 -0.076012522 0.45069548
-0.014229965 -0.076028667 0.45079124
-0.013420478 -0.076049373 0.450914
-0.012610913 -0.076072283 0.45104983
-0.011801222 -0.076097541 0.45119956
-0.010992271 -0.076131657 0.45140186
-0.010182684 -0.076166481 0.45160833
-0.0093730167 -0.076206699 0.45184681
-0.0085632037 -0.076253287 0.45212305
-0.0077524334 -0.076300263 0.45240158
-0.0069417292 -0.076359019 0.45274997
-0.0061298166 -0.076418385 0.45310193
-0.0053172358 -0.076486386 0.45350516
-0.0045035062 -0.076559603 0.45393926
-0.0036885799 -0.076640494 0.45441887
-0.0028721541 -0.076727547 0.45493504
-0.0020541232 -0.076824203 0.45550814
-0.0012341599 -0.076929301 0.45613128
-0.00041200774 -0.077045448 0.45681992
0.00041266403 -0.077168174 0.45754761
0.0012403134 -0.077312864 0.45840552
0.0020713219 -0.077467434 0.45932201
0.0029063192 -0.077640243 0.46034661
0.0037463072 -0.077839941 0.46153066
0.0045923986 -0.078070775 0.46289936
0.0054460205 -0.078338906 0.46448916
0.0063113836 -0.078681916 0.46652293
0.007195916 -0.079155073 0.4693284
-0.040801067 -0.077816464 0.46637949
-0.039760023 -0.07742741 0.46404776
-0.038776051 -0.077135153 0.46229619
-0.037824217 -0.076895386 0.46085918
-0.036897827 -0.07669773 0.45967454
-0.035987284 -0.076524682 0.45863742
-0.035091039 -0.076374613 0.45773801
-0.034204133 -0.076238126 0.45692
-0.033328228 -0.076120026 0.45621216
-0.032459732 -0.076013297 0.45557252
-0.031596743 -0.075914256 0.45497891
-0.030741209 -0.075828314 0.45446387
-0.029889751 -0.075747997 0.4539825
-0.029044732 -0.075679936 0.45357457
-0.028202115 -0.075614363 0.45318159
-0.027364578 -0.075558916 0.45284924
-0.026529487 -0.075507 0.45253813
-0.025698254 -0.075463124 0.45227516
-0.024869472 -0.075423807 0.45203951
-0.024042748 -0.075388275 0.45182657
-0.023219252 -0.07536073 0.45166147
-0.022396393 -0.07533332 0.4514972
-0.021576969 -0.075315841 0.45139241
-0.020758215 -0.075299405 0.45129395
-0.019941056 -0.075287655 0.45122352
-0.019125577 -0.075281523 0.45118678
-0.018310415 -0.075276144 0.45115453
-0.017496914 -0.075277418 0.45116216
-0.016684249 -0.075282589 0.45119315
-0.015872002 -0.075290263 0.45123914
-0.01506044 -0.075302199 0.45131066
-0.014249062 -0.075316474 0.45139623
-0.013438195 -0.075335331 0.45150927
-0.012627939 -0.075360276 0.45165876
-0.011817272 -0.075386047 0.45181319
-0.011007041 -0.075418614 0.45200837
-0.010196599 -0.075454831 0.45222545
-0.0093856938 -0.075493619 0.45245793
-0.0085749477 -0.075541206 0.45274311
-0.00776324 -0.075589441 0.45303223
-0.006951421 -0.075647816 0.45338207
-0.006138484 -0.075707972 0.45374259
-0.0053248415 -0.075776592 0.45415387
-0.0045100395 -0.075850666 0.4545978
-0.003694019 -0.075932615 0.45508894
-0.0028764778 -0.076021202 0.45561987
-0.0020572699 -0.076118991 0.45620596
-0.0012360893 -0.076225504 0.45684436
-0.00041267864 -0.076345548 0.45756382
0.0004133578 -0.076471195 0.45831683
0.0012424509 -0.076617807 0.45919555
0.0020751376 -0.076780096 0.46016818
0.0029119398 -0.076958403 0.46123686
0.0037541718 -0.077169083 0.46249953
0.004602924 -0.077412814 0.46396026
0.0054608886 -0.07771264 0.46575725
0.0063316156 -0.07808993 0.46801844
-0.041005049 -0.077360041 0.46871114
-0.039894179 -0.076848783 0.46561351
-0.038882103 -0.076509945 0.46356055
-0.037918415 -0.076253518 0.4620069
-0.036980115 -0.076037765 0.46069968
-0.036062922 -0.075856484 0.45960137
-0.035160385 -0.075698242 0.4586426
-0.034268256 -0.07555531 0.45777661
-0.033388961 -0.07543432 0.45704353
-0.032515649 -0.075321063 0.45635733
-0.03165001 -0.075220153 0.45574594
-0.030791689 -0.075131722 0.45521012
-0.029938009 -0.075050078 0.45471546
-0.029090313 -0.074979261 0.4542864
-0.028245766 -0.074912682 0.45388302
-0.027406167 -0.074855648 0.45353746
-0.026569186 -0.074802473 0.4532153
-0.025736153 -0.074757397 0.45294216
-0.02490592 -0.07471776 0.45270202
-0.024077728 -0.074681766 0.45248395
-0.023252675 -0.07465332 0.45231161
-0.022428434 -0.074625514 0.45214313
-0.021607749 -0.074607886 0.45203632
-0.020787498 -0.07459043 0.45193055
-0.019969372 -0.074579492 0.45186427
-0.019152422 -0.074572198 0.45182008
-0.01833597 -0.074566275 0.45178419
-0.017521694 -0.074569069 0.45180112
-0.016707327 -0.074571721 0.45181721
-0.01589378 -0.074578501 0.45185828
-0.01508134 -0.074591488 0.45193696
-0.014269304 -0.074608073 0.45203745
-0.01345694 -0.074624851 0.45213908
-0.012645741 -0.07465066 0.45229548
-0.011834093 -0.074677207 0.45245633
-0.011022603 -0.074708752 0.45264745
-0.010211176 -0.074745804 0.45287195
-0.0093991244 -0.074784338 0.45310542
-0.0085873781 -0.074832864 0.45339942
-0.0077745849 -0.074881524 0.45369425
-0.0069616539 -0.074940152 0.45404947
-0.0061476231 -0.075001001 0.45441812
-0.0053329314 -0.075071268 0.45484385
-0.0045169685 -0.07514593 0.45529622
-0.0036998251 -0.075229779 0.45580426
-0.0028810636 -0.075319231 0.45634624
-0.0020606488 -0.075419746 0.45695522
-0.001238142 -0.075526662 0.45760301
-0.00041339613 -0.075651489 0.45835933
0.00041411916 -0.075783804 0.45916101
0.0012448183 -0.075933918 0.46007049
0.0020792745 -0.076101445 0.46108553
0.002918279 -0.07629215 0.46224099
0.0037628717 -0.076511726 0.46357134
0.0046148589 -0.076774471 0.46516329
0.0054776152 -0.077107966 0.46718386
-0.040074319 -0.076352127 0.46771601
-0.039015606 -0.075933598 0.4651522
-0.038027164 -0.075636446 0.46333191
-0.037073638 -0.075396955 0.46186483
-0.036146972 -0.075202323 0.46067256
-0.035236035 -0.075032026 0.45962939
-0.034339081 -0.07488402 0.45872274
-0.033453878 -0.074754961 0.45793214
-0.032575488 -0.074634984 0.45719716
-0.031707879 -0.074534111 0.45657924
-0.030845635 -0.0744408 0.45600763
-0.029989734 -0.074358106 0.45550111
-0.029138787 -0.074283384 0.45504338
-0.028292393 -0.074216276 0.45463228
-0.027450195 -0.074156493 0.45426607
-0.026611768 -0.074103542 0.45394167
-0.02577641 -0.074056037 0.45365068
-0.024944516 -0.074015699 0.45340356
-0.024114426 -0.073978156 0.45317358
-0.023287972 -0.073949523 0.45299822
-0.022462163 -0.073920943 0.4528231
-0.021640047 -0.073902801 0.452712
-0.020818528 -0.073885366 0.45260519
-0.019998955 -0.073873691 0.45253366
-0.019180816 -0.073866546 0.45248991
-0.018363029 -0.073860176 0.4524509
-0.017547524 -0.073862828 0.45246714
-0.01673195 -0.073865436 0.45248309
-0.015917145 -0.073871881 0.45252258
-0.015103609 -0.073885225 0.45260432
-0.014290338 -0.073901467 0.4527038
-0.013476744 -0.073917896 0.45280448
-0.012664498 -0.073944323 0.45296636
-0.011851672 -0.07397078 0.45312843
-0.011039139 -0.074003115 0.45332649
-0.010226556 -0.074040264 0.45355406
-0.0094134472 -0.074079737 0.45379588
-0.0086005125 -0.074128233 0.45409292
-0.0077865128 -0.074176781 0.45439032
-0.006972563 -0.074237287 0.454761
-0.0061573237 -0.074298374 0.45513517
-0.0053415471 -0.074370772 0.45557868
-0.0045243152 -0.074445546 0.45603675
-0.0037060236 -0.074532248 0.45656785
-0.0028859356 -0.07462205 0.45711794
-0.0020642828 -0.074727036 0.45776108
-0.0012403753 -0.074835978 0.45842844
-0.00041416584 -0.074964017 0.45921278
0.00041493916 -0.075103991 0.46007019
0.0012473523 -0.075256929 0.46100706
0.0020838892 -0.075436786 0.46210885
0.0029252553 -0.075638749 0.463346
0.0037730446 -0.075880118 0.46482459
0.0046296474 -0.076178737 0.46665388
0.0054994756 -0.076569624 0.46904835
-0.039177377 -0.075405926 0.46708089
-0.038151816 -0.075045884 0.46485072
-0.037180964 -0.074779689 0.46320188
-0.036239408 -0.074561536 0.46185058
-0.035319198 -0.074378073 0.46071416
-0.034415804 -0.074222028 0.45974761
-0.033523481 -0.074082762 0.45888492
-0.032641985 -0.073960952 0.45813042
-0.031770065 -0.073855087 0.45747468
-0.030902943 -0.073755018 0.45685485
-0.030045027 -0.073672049 0.45634091
-0.029190317 -0.073592491 0.4558481
-0.028342137 -0.07352525 0.45543161
-0.027496869 -0.073461778 0.45503846
-0.026656859 -0.073408887 0.45471081
-0.025818812 -0.073358215 0.45439693
-0.024985578 -0.073318332 0.4541499
-0.024153236 -0.073278464 0.45390293
-0.023325462 -0.073250137 0.45372748
-0.022498429 -0.07322216 0.45355418
-0.021674199 -0.073201545 0.45342648
-0.020851545 -0.073184833 0.45332298
-0.020029921 -0.073170528 0.45323437
-0.019210704 -0.073164165 0.45319498
-0.018391825 -0.073158592 0.45316043
-0.017574407 -0.073158577 0.45316035
-0.016758131 -0.073163547 0.4531911
-0.015942326 -0.073171191 0.45323846
-0.015127154 -0.073182717 0.45330986
-0.014312239 -0.073196881 0.4533976
-0.013498076 -0.073216841 0.45352122
-0.012684277 -0.073241472 0.45367381
-0.011870031 -0.073266745 0.45383036
-0.011056634 -0.07330139 0.45404494
-0.010242664 -0.07333748 0.45426849
-0.0094286082 -0.073379174 0.45452675
-0.0086143678 -0.07342723 0.45482442
-0.0077993465 -0.073478051 0.45513925
-0.0069841119 -0.073538586 0.45551422
-0.0061676339 -0.073600426 0.45589727
-0.0053506796 -0.073674746 0.4563576
-0.0045321551 -0.073750526 0.45682698
-0.0037126308 -0.073840097 0.45738184
-0.0028912388 -0.07393311 0.45795795
-0.0020681689 -0.07404045 0.45862284
-0.0012428458 -0.074156471 0.4593415
-0.00041499556 -0.074284211 0.46013275
