# .PCD v0.7 - Point Cloud Data file format
VERSION 0.7
FIELDS x y z
SIZE 4 4 4
TYPE F F F
COUNT 1 1 1
WIDTH 1302
HEIGHT 1
VIEWPOINT 0 0 0 1 0 0 0
POINTS 1302
DATA ascii
-0.0069460589 -0.061783366 0.40534472
-0.0062178378 -0.061812624 0.40553668
-0.005489117 -0.061844051 0.40574288
-0.0047598113 -0.061877549 0.40596265
-0.0040298491 -0.061913136 0.40619612
-0.0032991597 -0.061950888 0.4064438
-0.0025676691 -0.061990868 0.40670609
-0.001835294 -0.062032934 0.40698209
-0.0011019635 -0.062077276 0.40727299
-0.00036759782 -0.062124033 0.40757975
0.00036788889 -0.062173221 0.40790248
0.0011045828 -0.062224831 0.40824106
0.0018425763 -0.062279083 0.40859699
0.0025819666 -0.06233605 0.40897074
0.0033228644 -0.062396009 0.40936413
0.0040653818 -0.062459048 0.4097777
0.0048096837 -0.062525883 0.41021621
0.0055559077 -0.06259656 0.41067991
0.006304312 -0.06267228 0.41117665
0.0070551531 -0.06275373 0.41171104
0.007808716 -0.062841572 0.41228735
0.0085653169 -0.062936455 0.41290987
0.0093254326 -0.063039921 0.41358867
0.010089641 -0.063153677 0.41433501
0.010858414 -0.06327834 0.41515288
0.011632682 -0.063416876 0.41606179
0.012413276 -0.063571021 0.41707307
0.013201618 -0.063744955 0.4182142
0.013998799 -0.063940458 0.41949686
0.014807778 -0.064167038 0.4209834
0.01563189 -0.064433888 0.42273411
0.016478209 -0.064763188 0.4248946
0.017366832 -0.065222099 0.42790538
-0.050749816 -0.064696327 0.42953923
-0.049393356 -0.063943341 0.42453989
-0.048329405 -0.063551269 0.42193681
-0.047349744 -0.063259259 0.41999808
-0.04641505 -0.063018806 0.41840166
-0.045512784 -0.06281516 0.41704959
-0.044634189 -0.062637895 0.41587266
-0.043773856 -0.062480632 0.41482854
-0.042929888 -0.06234166 0.41390586
-0.042098861 -0.0622169 0.41307753
-0.041279703 -0.062105499 0.4123379
-0.040470161 -0.062004738 0.41166893
-0.03966872 -0.061912864 0.41105893
-0.038875155 -0.06183001 0.41050884
-0.038087737 -0.061753903 0.41000354
-0.037305899 -0.061684012 0.40953952
-0.03652887 -0.061619405 0.40911058
-0.035756201 -0.061559647 0.40871382
-0.034987245 -0.061503895 0.40834367
-0.034221664 -0.061451808 0.40799785
-0.033458892 -0.061402582 0.407671
-0.032698844 -0.061356258 0.40736344
-0.031941202 -0.061312418 0.4070724
-0.031185871 -0.061271064 0.40679783
-0.030432766 -0.061232191 0.40653974
-0.029681608 -0.061195415 0.40629557
-0.028932422 -0.061160944 0.40606672
-0.028185008 -0.061128523 0.40585145
-0.027439393 -0.061098382 0.40565133
-0.026695391 -0.061070278 0.40546474
-0.025952891 -0.061044119 0.40529108
-0.025211854 -0.061019994 0.40513089
-0.024472203 -0.060997877 0.40498406
-0.023733834 -0.060977697 0.40485007
-0.022996731 -0.060959589 0.40472984
-0.022260774 -0.060943428 0.40462255
-0.021525893 -0.06092922 0.40452823
-0.020792041 -0.060917031 0.40444729
-0.020059166 -0.060906924 0.4043802
-0.019327153 -0.060898766 0.40432602
-0.01859598 -0.06089272 0.40428588
-0.017865555 -0.06088873 0.40425938
-0.017135797 -0.06088677 0.40424639
-0.016406648 -0.060886893 0.40424719
-0.015678044 -0.060889151 0.40426219
-0.014949881 -0.060893416 0.4042905
-0.014222133 -0.060899902 0.40433356
-0.013494677 -0.060908407 0.40439004
-0.012767466 -0.06091905 0.4044607
-0.012040424 -0.060931843 0.40454563
-0.011313463 -0.060946718 0.4046444
-0.010586501 -0.060963642 0.40475675
-0.0098594856 -0.060982745 0.40488359
-0.0091323089 -0.061003819 0.40502352
-0.0084049199 -0.061027028 0.40517759
-0.0076772375 -0.061052319 0.4053455
-0.0069491784 -0.061079621 0.40552679
-0.0062206876 -0.061109111 0.40572256
-0.0054916679 -0.061140571 0.40593144
-0.0047620609 -0.061174165 0.40615448
-0.0040317844 -0.061209813 0.40639117
-0.0033007667 -0.061247561 0.40664178
-0.002568939 -0.061287545 0.40690726
-0.0018362132 -0.061329521 0.40718594
-0.001102524 -0.061373834 0.40748015
-0.00036778752 -0.061420519 0.40779009
0.00036808063 -0.061469462 0.40811506
0.0011051663 -0.061520923 0.40845671
0.0018435571 -0.061574809 0.40881449
0.0025833501 -0.061631352 0.40918988
0.0033246642 -0.061690994 0.40958586
0.0040675886 -0.061753392 0.41000015
0.0048122676 -0.061819132 0.41043663
0.0055588703 -0.061888758 0.41089889
0.0063076215 -0.061963107 0.41139251
0.0070587564 -0.062042754 0.41192132
0.0078125391 -0.062128287 0.41248921
0.0085692937 -0.062220521 0.41310158
0.0093296329 -0.062321946 0.41377497
0.010093883 -0.062432535 0.41450921
0.010862717 -0.06255427 0.41531745
0.011636984 -0.062689558 0.41621566
0.01241754 -0.062840275 0.41721633
0.013205576 -0.063009456 0.41833958
0.014003025 -0.063202843 0.41962352
0.014811684 -0.063424394 0.42109445
0.015635598 -0.06368646 0.4228344
0.016481977 -0.064011395 0.42499176
0.01736974 -0.064461038 0.42797706
-0.050785214 -0.06396611 0.42983884
-0.049414128 -0.063204117 0.42471841
-0.048349708 -0.062816545 0.42211404
-0.047368437 -0.062526338 0.42016387
-0.046433859 -0.062289324 0.4185712
-0.045531109 -0.062087879 0.41721752
-0.044651516 -0.061911765 0.4160341
-0.043792397 -0.061758507 0.41500422
-0.042948574 -0.061621867 0.41408604
-0.042118609 -0.061500624 0.41327131
-0.041299351 -0.061390929 0.41253418
-0.040490434 -0.061292857 0.41187516
-0.039689556 -0.061203524 0.41127485
-0.038896017 -0.061122309 0.41072911
-0.038108964 -0.061048344 0.41023207
-0.037327129 -0.060979962 0.40977257
-0.036550004 -0.060916677 0.4093473
-0.035776991 -0.060857769 0.40895146
-0.035007726 -0.060802892 0.40858269
-0.034241572 -0.060751177 0.40823519
-0.03347826 -0.060702339 0.40790701
-0.032717574 -0.060656175 0.4075968
-0.031959347 -0.060612559 0.40730369
-0.03120343 -0.060571365 0.40702689
-0.030449606 -0.06053235 0.40676472
-0.029697822 -0.060495563 0.40651751
-0.028948018 -0.060461048 0.40628558
-0.028200004 -0.060428582 0.4060674
-0.027453747 -0.06039824 0.40586352
-0.026709136 -0.060369965 0.4056735
-0.025966007 -0.060343541 0.40549594
-0.025224362 -0.060319126 0.40533188
-0.024484109 -0.060296688 0.40518111
-0.02374522 -0.060276326 0.40504429
-0.02300757 -0.060257923 0.40492061
-0.022271087 -0.060241465 0.40481001
-0.021535689 -0.060226925 0.40471232
-0.020801377 -0.060214512 0.4046289
-0.020068029 -0.060204085 0.40455884
-0.019335577 -0.060195662 0.40450224
-0.018603979 -0.060189344 0.40445977
-0.01787314 -0.060185064 0.40443102
-0.017143037 -0.060183 0.40441716
-0.01641353 -0.060182944 0.40441677
-0.015684582 -0.060185026 0.40443078
-0.014956128 -0.060189296 0.40445945
-0.014228072 -0.060195688 0.40450242
-0.013500326 -0.060204156 0.40455931
-0.012772839 -0.06021481 0.4046309
-0.012045528 -0.06022764 0.40471712
-0.011318296 -0.060242545 0.40481728
-0.01059109 -0.060259648 0.4049322
-0.0098638013 -0.060278788 0.40506083
-0.0091363722 -0.060300056 0.40520373
-0.0084087141 -0.060323387 0.40536052
-0.0076807705 -0.060348909 0.40553203
-0.0069524376 -0.060376428 0.40571696
-0.0062236493 -0.060406007 0.40591571
-0.0054943264 -0.06043759 0.40612793
-0.0047644079 -0.06047133 0.40635467
-0.0040338067 -0.0605071 0.40659502
-0.0033024498 -0.060544915 0.40684915
-0.0025702694 -0.060584918 0.40711796
-0.0018371835 -0.060627058 0.40740111
-0.0011031164 -0.060671408 0.40769914
-0.00036798808 -0.060718033 0.40801245
0.00036828389 -0.060766842 0.40834045
0.0011057826 -0.060818043 0.40868449
0.0018446021 -0.060871869 0.4090462
0.002584835 -0.060928255 0.40942511
0.0033265767 -0.060987242 0.40982148
0.0040699542 -0.061049309 0.41023856
0.0048150839 -0.061114527 0.41067681
0.0055621061 -0.061183166 0.41113806
0.0063112485 -0.061256237 0.41162908
0.0070627141 -0.061334096 0.41215226
0.0078167925 -0.061417658 0.4127138
0.0085738972 -0.061508391 0.41332349
0.009334405 -0.061607074 0.41398662
0.010098724 -0.061714422 0.41470799
0.010867771 -0.06183387 0.41551065
0.011641949 -0.061965212 0.41639325
0.01242271 -0.062113546 0.41739002
0.013210815 -0.06227956 0.41850558
0.014008046 -0.062468313 0.41977397
0.014817099 -0.062687725 0.42124838
0.015641255 -0.062946513 0.4229874
0.016487788 -0.063267089 0.4251416
0.017375758 -0.063711114 0.42812532
-0.04944386 -0.062475573 0.42497396
-0.0483751 -0.06208773 0.42233574
-0.047391552 -0.061798584 0.42036891
-0.046455916 -0.061563533 0.41877005
-0.04555244 -0.061364029 0.41741297
-0.044673774 -0.061191812 0.4162415
-0.043813981 -0.061039992 0.41520879
-0.042970631 -0.060906198 0.41429868
-0.042140577 -0.060786851 0.41348687
-0.041322213 -0.060680367 0.41276252
-0.040513158 -0.060583893 0.41210631
-0.039712813 -0.06049709 0.41151583
-0.038919337 -0.060417634 0.41097537
-0.038131937 -0.060344718 0.41047937
-0.037350271 -0.060278162 0.41002664
-0.036572888 -0.060215969 0.4096036
-0.0357995 -0.060157925 0.40920874
-0.035029557 -0.060103342 0.40883747
-0.034262829 -0.060052056 0.4084886
-0.03349882 -0.060003377 0.4081575
-0.03273743 -0.059957318 0.40784419
-0.031978518 -0.059913773 0.40754798
-0.031221859 -0.059872508 0.40726727
-0.030467404 -0.059833575 0.40700245
-0.029714953 -0.059796758 0.40675202
-0.028964452 -0.059762098 0.40651625
-0.02821574 -0.059729423 0.40629399
-0.027468793 -0.059698842 0.40608597
-0.0267235 -0.059670281 0.40589169
-0.025979754 -0.05964366 0.40571061
-0.025237465 -0.059618942 0.40554246
-0.024496589 -0.059596177 0.40538761
-0.02375707 -0.059575424 0.40524644
-0.023018816 -0.059556618 0.40511853
-0.022281729 -0.059539702 0.40500346
-0.02154584 -0.059524946 0.40490308
-0.020810964 -0.059512053 0.40481538
-0.020077145 -0.059501354 0.4047426
-0.01934424 -0.059492666 0.4046835
-0.018612189 -0.05948602 0.40463829
-0.017880939 -0.05948149 0.40460747
-0.017150439 -0.059479181 0.40459177
-0.01642056 -0.059478916 0.40458998
-0.015691264 -0.059480835 0.40460303
-0.014962477 -0.059484966 0.40463114
-0.014234126 -0.059491348 0.40467453
-0.013506101 -0.059499845 0.40473235
-0.012778334 -0.059510529 0.404805
-0.01205075 -0.0595234 0.40489256
-0.011323272 -0.059538499 0.40499526
-0.010595795 -0.059555676 0.40511212
-0.0098682595 -0.059575051 0.4052439
-0.0091405613 -0.05959646 0.40538955
-0.0084126433 -0.059620038 0.40554991
-0.0076844124 -0.059645675 0.40572432
-0.0069558066 -0.059673496 0.40591356
-0.0062267305 -0.059703354 0.40611666
-0.0054971091 -0.05973525 0.40633363
-0.0047668605 -0.059769098 0.40656385
-0.0040359241 -0.059805058 0.40680847
-0.0033042172 -0.059843048 0.40706688
-0.0025716738 -0.059883263 0.40734044
-0.0018382039 -0.059925444 0.40762737
-0.0011037389 -0.059969813 0.40792918
-0.00036819885 -0.060016412 0.40824616
0.00036849853 -0.060065258 0.40857843
0.0011064386 -0.060116496 0.40892693
0.001845709 -0.060170118 0.40929168
0.0025863976 -0.060226113 0.40967259
0.0033286188 -0.060284983 0.41007304
0.0040724711 -0.060346618 0.4104923
0.004818086 -0.060411386 0.41093287
0.0055655898 -0.060479406 0.41139555
0.0063151824 -0.060551457 0.41188565
0.0070670624 -0.060627956 0.41240603
0.0078215515 -0.060710136 0.41296503
0.0085789636 -0.060798742 0.41356775
0.0093397293 -0.060895037 0.41422278
0.010104408 -0.061000686 0.41494143
0.010873498 -0.061116558 0.41572961
0.011648032 -0.061246105 0.41661081
0.012428635 -0.061389923 0.4175891
0.013217147 -0.061554145 0.41870618
0.014014715 -0.061740503 0.41997382
0.014823992 -0.061956685 0.42144436
0.015648549 -0.062212527 0.42318466
0.016496159 -0.062531948 0.42535746
0.017385952 -0.062975787 0.42837653
-0.049483806 -0.061758861 0.42531732
-0.048407082 -0.061366454 0.42261493
-0.047420476 -0.061077572 0.42062548
-0.046482977 -0.060843568 0.41901395
-0.045578409 -0.060645651 0.41765094
-0.044698276 -0.060474135 0.41646975
-0.043839112 -0.060325615 0.41544694
-0.04299565 -0.060193907 0.4145399
-0.042165883 -0.060077053 0.41373515
-0.041347373 -0.059972316 0.41301385
-0.040538717 -0.059878286 0.4123663
-0.039738104 -0.059792846 0.41177788
-0.038944755 -0.059715293 0.4112438
-0.038157344 -0.059644002 0.41075283
-0.037375055 -0.059578057 0.41029871
-0.036597315 -0.059516847 0.40987715
-0.035823476 -0.059459586 0.40948281
-0.035052892 -0.059405427 0.40910983
-0.034285281 -0.059354089 0.40875629
-0.033520557 -0.059305605 0.40842238
-0.032758426 -0.059259623 0.40810573
-0.031998746 -0.059216071 0.4078058
-0.031241311 -0.05917472 0.40752101
-0.030486153 -0.059135795 0.40725294
-0.029732918 -0.059098762 0.40699792
-0.028981693 -0.059063956 0.40675822
-0.028232234 -0.059031032 0.40653148
-0.027484523 -0.059000108 0.40631852
-0.026738463 -0.058971133 0.40611896
-0.02599402 -0.058944184 0.40593338
-0.025251051 -0.058919121 0.40576077
-0.024509536 -0.05889605 0.40560189
-0.023769341 -0.058874831 0.40545577
-0.023030432 -0.058855549 0.40532297
-0.022292776 -0.058838308 0.40520424
-0.021556258 -0.058823012 0.40509889
-0.020820867 -0.058809817 0.40500802
-0.020086486 -0.058798622 0.40493092
-0.019353062 -0.058789492 0.40486804
-0.018620545 -0.058782507 0.40481994
-0.01788885 -0.058777645 0.40478647
-0.017157905 -0.058774948 0.4047679
-0.016427647 -0.058774468 0.40476459
-0.015698008 -0.058776267 0.40477696
-0.01496888 -0.058780234 0.40480429
-0.014240215 -0.058786526 0.40484762
-0.013511907 -0.058795054 0.40490636
-0.012783882 -0.058805857 0.40498075
-0.012056047 -0.058818895 0.40507054
-0.011328315 -0.058834154 0.40517563
-0.010600595 -0.058851577 0.40529561
-0.0098728091 -0.058871198 0.40543073
-0.0091448678 -0.058892947 0.40558052
-0.0084166965 -0.058916874 0.4057453
-0.0076881936 -0.058942817 0.40592396
-0.0069592898 -0.058970824 0.40611684
-0.0062299105 -0.059000917 0.40632409
-0.0054999823 -0.059033141 0.406546
-0.0047694142 -0.059067361 0.40678167
-0.0040381365 -0.05910363 0.40703145
-0.0033060678 -0.059141878 0.40729484
-0.002573136 -0.059182126 0.40757203
-0.0018392735 -0.059224606 0.40786457
-0.0011043942 -0.059269156 0.40817139
-0.00036842102 -0.059315786 0.40849251
0.00036872475 -0.059364684 0.40882924
0.0011071276 -0.059415847 0.40918159
0.0018468731 -0.059469312 0.4095498
0.0025880558 -0.059525285 0.40993527
0.0033307686 -0.05958375 0.4103379
0.004075137 -0.059645187 0.410761
0.0048212754 -0.059709642 0.41120487
0.0055693244 -0.059777413 0.41167161
0.0063193976 -0.059848413 0.41216058
0.0070717488 -0.059923764 0.41267949
0.0078266989 -0.060004693 0.41323683
0.0085845105 -0.060091577 0.41383517
0.0093456507 -0.060185988 0.41448537
0.01011065 -0.060289435 0.41519776
0.010880085 -0.060403228 0.41598144
0.011654766 -0.060529593 0.41685167
0.012435818 -0.060671721 0.41783047
0.013224389 -0.060832191 0.4189356
0.014022273 -0.061015837 0.42020032
0.014832007 -0.061229568 0.42167222
0.015657382 -0.061483867 0.42342353
0.016506588 -0.061803736 0.42562637
0.017399961 -0.062253196 0.4287217
-0.04953422 -0.061053805 0.42575061
-0.048446096 -0.060652986 0.42295557
-0.047454137 -0.060361665 0.42092407
-0.046513841 -0.060127649 0.41929218
-0.045607947 -0.059931103 0.4179216
-0.044727571 -0.059762046 0.41674271
-0.043866996 -0.059614126 0.41571119
-0.04302359 -0.059484787 0.41480929
-0.042193774 -0.05937 0.41400883
-0.041375104 -0.05926704 0.41329086
-0.040566422 -0.059174869 0.41264811
-0.039765857 -0.059091318 0.41206548
-0.038972184 -0.059015024 0.41153345
-0.038184527 -0.058945045 0.41104546
-0.037401803 -0.058880065 0.41059232
-0.03662334 -0.058819305 0.41016862
-0.035848804 -0.058762472 0.40977231
-0.035077419 -0.058708519 0.40939608
-0.034309044 -0.058657397 0.40903959
-0.033543471 -0.058608923 0.40870157
-0.032780509 -0.058562934 0.40838087
-0.032020003 -0.058519319 0.4080767
-0.031261772 -0.058477905 0.40778792
-0.030505737 -0.058438703 0.40751454
-0.029751733 -0.058401551 0.40725547
-0.028999705 -0.058366492 0.407011
-0.028249476 -0.058333334 0.40677977
-0.027500961 -0.058302037 0.40656152
-0.02675412 -0.058272671 0.40635675
-0.026008897 -0.058245275 0.40616572
-0.025265168 -0.058219738 0.40598762
-0.024522901 -0.058196139 0.40582305
-0.023782026 -0.058174495 0.40567213
-0.023042476 -0.058154818 0.40553492
-0.022304127 -0.058136988 0.40541059
-0.021566976 -0.058121171 0.40530029
-0.020830939 -0.058107354 0.40520394
-0.020095952 -0.058095567 0.40512174
-0.01936199 -0.058085971 0.40505481
-0.018628938 -0.058078453 0.40500239
-0.01789676 -0.058073159 0.40496549
-0.017165385 -0.058070134 0.40494439
-0.01643472 -0.058069341 0.40493885
-0.015704712 -0.058070913 0.40494981
-0.014975252 -0.058074754 0.40497661
-0.014246279 -0.058080986 0.40502006
-0.013517691 -0.058089539 0.40507969
-0.012789405 -0.05810044 0.40515572
-0.012061344 -0.058113754 0.40524855
-0.011333366 -0.058129199 0.40535626
-0.010605434 -0.058147032 0.40548062
-0.0098774219 -0.058167037 0.40562013
-0.0091492487 -0.058189224 0.40577483
-0.0084208213 -0.058213502 0.40594414
-0.0076920628 -0.058239903 0.40612826
-0.0069628865 -0.058268368 0.40632674
-0.0062332149 -0.05829889 0.40653959
-0.0055029681 -0.05833146 0.40676671
-0.0047720619 -0.058365989 0.40700749
-0.004040428 -0.058402549 0.40726244
-0.003307991 -0.058441173 0.40753177
-0.0025746662 -0.058481704 0.40781441
-0.0018403897 -0.058524389 0.40811208
-0.0011050771 -0.058569085 0.40842375
-0.00036865313 -0.058615848 0.40874985
0.00036896166 -0.058664903 0.40909192
0.0011078494 -0.058716021 0.40944839
0.0018481012 -0.058769617 0.40982214
0.0025897999 -0.058825459 0.41021153
0.003333057 -0.05888401 0.41061983
0.0040779719 -0.058945227 0.41104674
0.0048246603 -0.059009306 0.41149357
0.005573262 -0.059076577 0.41196269
0.0063239043 -0.059147105 0.41245449
0.0070768408 -0.059221983 0.41297665
0.0078322683 -0.059301462 0.41353089
0.0085905669 -0.059386961 0.41412711
0.009352155 -0.059479706 0.41477385
0.010117496 -0.05958081 0.41547889
0.010887383 -0.059692889 0.41626045
0.011662446 -0.059817061 0.41712636
0.012443779 -0.05995639 0.41809794
0.013232869 -0.060115036 0.41920424
0.014031395 -0.060297076 0.42047366
0.014841785 -0.060508814 0.42195019
0.01566842 -0.060762901 0.42372203
0.016518902 -0.061081525 0.42594391
0.01741771 -0.061542574 0.42915899
-0.049595442 -0.060360346 0.42627683
-0.048491783 -0.059946537 0.42335445
-0.047493007 -0.059651215 0.42126882
-0.046549637 -0.059417013 0.41961485
-0.045641005 -0.05922015 0.41822454
-0.04475956 -0.059052527 0.41704077
-0.043898787 -0.05890692 0.41601247
-0.043054625 -0.058778923 0.41510853
-0.04222431 -0.058665637 0.41430846
-0.041405693 -0.058564808 0.41359639
-0.040596515 -0.058473878 0.41295424
-0.039795805 -0.058391973 0.41237581
-0.039001688 -0.058316812 0.411845
-0.03821345 -0.058247685 0.41135681
-0.037430234 -0.058183629 0.41090444
-0.036651116 -0.058123488 0.41047969
-0.035875555 -0.058066618 0.41007808
-0.035103317 -0.058012851 0.40969837
-0.034334052 -0.057961788 0.40933776
-0.033567637 -0.0579134 0.40899602
-0.032803752 -0.057867292 0.4086704
-0.032042403 -0.057823643 0.40836215
-0.031283271 -0.057782039 0.40806833
-0.030526338 -0.057742592 0.40778974
-0.029771462 -0.057705183 0.40752554
-0.029018512 -0.057669699 0.40727496
-0.02826743 -0.05763619 0.4070383
-0.027518105 -0.057604562 0.40681496
-0.026770424 -0.057574745 0.40660438
-0.026024336 -0.057546772 0.40640682
-0.025279816 -0.057520743 0.406223
-0.024536777 -0.057496626 0.40605268
-0.023795111 -0.057474345 0.40589532
-0.023054771 -0.057453953 0.40575132
-0.022315675 -0.057435427 0.40562049
-0.021577826 -0.057418961 0.4055042
-0.020841096 -0.057404425 0.40540153
-0.020105485 -0.05739202 0.40531394
-0.019370897 -0.057381716 0.40524116
-0.018637279 -0.057373583 0.40518373
-0.017904591 -0.057367772 0.40514269
-0.017172728 -0.057364214 0.40511757
-0.01644164 -0.057363056 0.40510938
-0.015711248 -0.057364322 0.40511832
-0.014981483 -0.057368118 0.40514514
-0.014252206 -0.057374269 0.40518856
-0.013523362 -0.057382915 0.40524963
-0.012794848 -0.057394028 0.40532812
-0.01206656 -0.057407573 0.40542376
-0.0113384 -0.057423506 0.40553629
-0.010610252 -0.057441708 0.40566483
-0.0098820403 -0.057462238 0.40580982
-0.0091536576 -0.057484969 0.40597036
-0.0084250197 -0.057509914 0.40614653
-0.0076960148 -0.05753687 0.4063369
-0.0069665737 -0.057565898 0.40654188
-0.0062366179 -0.057597 0.40676156
-0.0055060494 -0.05762998 0.40699446
-0.0047748075 -0.057664983 0.40724164
-0.004042814 -0.057701983 0.40750295
-0.0033099912 -0.057740957 0.4077782
-0.0025762629 -0.057781897 0.40806732
-0.0018415551 -0.057824831 0.40837052
-0.0011057929 -0.057869833 0.40868834
-0.00036889705 -0.057916835 0.40902027
0.00036920959 -0.057965908 0.40936685
0.0011086107 -0.058017291 0.40972972
0.0018493916 -0.058070898 0.4101083
0.002591643 -0.058126848 0.41050345
0.0033354615 -0.058185272 0.41091603
0.004080954 -0.058246348 0.41134736
0.0048282319 -0.058310188 0.41179821
0.0055774394 -0.058377199 0.41227147
0.0063287118 -0.058447514 0.41276804
0.0070822439 -0.058521699 0.41329196
0.0078382064 -0.058599923 0.41384438
0.0085971234 -0.05868471 0.41444317
0.0093591511 -0.05877547 0.41508412
0.010125094 -0.058875546 0.41579089
0.010895316 -0.058984984 0.41656375
0.01167086 -0.059107259 0.4174273
0.012452793 -0.059245106 0.41840079
0.01324228 -0.059401084 0.41950235
0.014041496 -0.059581485 0.42077637
0.014852954 -0.05979266 0.42226774
0.015681153 -0.06004734 0.42406633
0.016534509 -0.060370184 0.42634633
0.017440611 -0.060848355 0.42972326
-0.049671009 -0.05968222 0.42692634
-0.048544515 -0.059247244 0.4238148
-0.047538862 -0.058948189 0.42167556
-0.046590474 -0.05871157 0.41998297
-0.045679152 -0.058514617 0.41857409
-0.044795468 -0.058347039 0.41737536
-0.043933101 -0.058201972 0.41633764
-0.043088742 -0.058076132 0.41543746
-0.042257939 -0.057964426 0.4146384
-0.041438688 -0.057864834 0.41392598
-0.040629148 -0.057775393 0.41328618
-0.039827734 -0.057694379 0.41270667
-0.039033391 -0.057620723 0.41217977
-0.038244408 -0.057552267 0.41169009
-0.03746032 -0.057488609 0.41123474
-0.0366803 -0.057428755 0.41080657
-0.035903808 -0.05737206 0.41040102
-0.035130531 -0.057318233 0.41001597
-0.034360409 -0.057267345 0.40965196
-0.033593003 -0.057218853 0.40930507
-0.032828122 -0.057172574 0.40897402
-0.032065704 -0.057128552 0.40865913
-0.031305742 -0.057086937 0.40836143
-0.030547896 -0.057047274 0.40807772
-0.029792072 -0.057009522 0.40780765
-0.02903817 -0.056973625 0.40755087
-0.028286174 -0.056939699 0.40730819
-0.027535927 -0.056907583 0.40707844
-0.026787335 -0.056877218 0.40686125
-0.026040386 -0.056848731 0.40665746
-0.025294999 -0.056822099 0.40646696
-0.024551066 -0.05679724 0.40628913
-0.023808522 -0.056774165 0.40612409
-0.023067338 -0.056752972 0.40597248
-0.022327432 -0.056733642 0.4058342
-0.021588765 -0.056716248 0.40570977
-0.020851281 -0.056700848 0.40559962
-0.02011493 -0.05668753 0.40550435
-0.019379683 -0.056676432 0.40542495
-0.018645445 -0.056667529 0.40536126
-0.017912187 -0.056660999 0.40531456
-0.017179837 -0.056656912 0.40528533
-0.01644831 -0.056655288 0.40527371
-0.015717534 -0.056656227 0.40528041
-0.014987428 -0.056659788 0.40530589
-0.014257881 -0.056665938 0.40534988
-0.013528811 -0.056674749 0.40541291
-0.012800087 -0.0566861 0.40549412
-0.012071622 -0.05670004 0.40559384
-0.011343287 -0.056716435 0.40571111
-0.010615007 -0.056735385 0.40584666
-0.0098866206 -0.056756526 0.4059979
-0.0091580553 -0.056779947 0.40616542
-0.0084292293 -0.056805678 0.40634948
-0.0077000014 -0.056833345 0.4065474
-0.0069703278 -0.0568632 0.40676096
-0.0062400913 -0.056894951 0.40698808
-0.0055092182 -0.056928586 0.40722871
-0.004777648 -0.056964263 0.40748391
-0.0040452871 -0.057001773 0.40775222
-0.0033120699 -0.057041205 0.40803429
-0.0025779265 -0.05708266 0.40833083
-0.0018427715 -0.057125915 0.40864027
-0.0011065423 -0.057171352 0.40896529
-0.00036915208 -0.057218574 0.40930307
0.00036947086 -0.057267986 0.40965652
0.00110941 -0.057319511 0.41002512
0.0018507486 -0.057373207 0.41040921
0.0025935746 -0.05742915 0.4108094
0.0033379917 -0.057487637 0.41122776
0.0040840963 -0.057548631 0.41166407
0.0048320028 -0.057612341 0.41211981
0.005581859 -0.05767921 0.41259816
0.0063337847 -0.057749212 0.4130989
0.0070879497 -0.057822745 0.41362491
0.0078446157 -0.057900734 0.41418278
0.0086040683 -0.057983939 0.41477796
0.0093668029 -0.058074176 0.41542348
0.010133212 -0.058172144 0.41612428
0.010904114 -0.05828061 0.41690016
0.011680246 -0.058401231 0.41776299
0.012462633 -0.058536608 0.41873139
0.013252875 -0.058691304 0.41983798
0.014053013 -0.058870729 0.42112148
0.014865737 -0.059081778 0.42263117
0.015695669 -0.059337288 0.42445892
0.016552987 -0.05966774 0.42682275
-0.049765173 -0.059023809 0.42773569
-0.048606455 -0.058557384 0.42435557
-0.047590107 -0.058250289 0.42213011
-0.046635553 -0.058010079 0.42038935
-0.045721184 -0.057812739 0.41895926
-0.044835504 -0.057645645 0.41774836
-0.043971717 -0.057501476 0.41670358
-0.043125633 -0.057375845 0.41579315
-0.042294201 -0.057265602 0.41499424
-0.04147432 -0.057167307 0.4142819
-0.040664177 -0.057079073 0.4136425
-0.039862212 -0.056999236 0.41306394
-0.039066698 -0.056925759 0.41253147
-0.038277112 -0.056858234 0.41204211
-0.037492052 -0.056794893 0.4115831
-0.036711 -0.056735184 0.4111504
-0.035933524 -0.056678649 0.4107407
-0.035159238 -0.056624878 0.41035104
-0.034388054 -0.056573894 0.40998155
-0.033619605 -0.056525268 0.40962917
-0.032853764 -0.056478944 0.40929347
-0.032090425 -0.056434885 0.40897417
-0.031329278 -0.056392703 0.40866849
-0.030570367 -0.056352604 0.40837792
-0.029813576 -0.056314532 0.40810201
-0.029058719 -0.056278277 0.40783927
-0.028305681 -0.056243759 0.40758911
-0.027554434 -0.056211047 0.40735206
-0.02680492 -0.056180175 0.40712833
-0.026057035 -0.056151073 0.40691745
-0.025310637 -0.056123588 0.40671825
-0.024565713 -0.056097824 0.40653154
-0.023822201 -0.056073796 0.40635744
-0.023080099 -0.056051668 0.40619707
-0.022339286 -0.056031324 0.40604964
-0.021599678 -0.056012724 0.40591484
-0.020861341 -0.055996232 0.40579534
-0.020124216 -0.055981908 0.40569153
-0.019388178 -0.055969644 0.40560266
-0.018653292 -0.055959877 0.40553188
-0.017919384 -0.055952366 0.40547743
-0.017186513 -0.055947587 0.4054428
-0.016454555 -0.05594549 0.4054276
-0.015723376 -0.055945966 0.40543106
-0.01499295 -0.055949301 0.40545523
-0.014263159 -0.05595547 0.40549994
-0.013533894 -0.055964481 0.40556523
-0.012805009 -0.055976182 0.40565005
-0.012076405 -0.055990607 0.40575457
-0.011347983 -0.056007788 0.40587908
-0.010619571 -0.056027394 0.40602115
-0.0098910872 -0.056049492 0.40618131
-0.0091624092 -0.056073945 0.40635851
-0.0084334146 -0.05610054 0.40655124
-0.0077040228 -0.056129307 0.40675971
-0.0069741257 -0.056160066 0.4069826
-0.006243634 -0.056192704 0.40721914
-0.0055124788 -0.056227282 0.40746972
-0.004780571 -0.056263644 0.40773323
-0.0040478543 -0.056301974 0.40801099
-0.0033142327 -0.056341954 0.40830073
-0.0025796513 -0.056383807 0.40860403
-0.0018440426 -0.056427702 0.40892214
-0.0011073228 -0.05647346 0.40925372
-0.00036941833 -0.056521002 0.40959826
0.00036974324 -0.056570716 0.40995851
0.0011102442 -0.056622453 0.41033345
0.0018521642 -0.056676224 0.41072312
0.0025956044 -0.056732494 0.41113091
0.0033406445 -0.056790959 0.41155457
0.0040873894 -0.056851871 0.41199601
0.0048359758 -0.056915712 0.41245866
0.0055864989 -0.05698229 0.41294113
0.0063391258 -0.057052132 0.41344726
0.0070940349 -0.05712565 0.41398004
0.007851379 -0.057202905 0.4145399
0.008611531 -0.057285402 0.41513774
0.0093749203 -0.057374511 0.41578349
0.010142028 -0.057471495 0.41648632
0.010913544 -0.057578355 0.41726071
0.011690291 -0.05769724 0.41812226
0.012473538 -0.057831854 0.41909778
0.013264737 -0.05798585 0.42021376
0.014065885 -0.058164336 0.42150721
0.014880148 -0.058375966 0.42304087
0.015712487 -0.0586344 0.4249137
0.01657439 -0.058973994 0.42737469
-0.049888052 -0.058396094 0.42879185
-0.048679408 -0.057878666 0.42499247
-0.04764837 -0.057559229 0.42264691
-0.046686292 -0.057314064 0.4208467
-0.045767333 -0.057114605 0.41938213
-0.044878755 -0.056946989 0.41815135
-0.044013295 -0.056803484 0.4170976
-0.043165978 -0.056678806 0.41618213
-0.042333163 -0.056569092 0.41537651
-0.041512433 -0.056471869 0.41466263
-0.04070162 -0.056384817 0.4140234
-0.039898425 -0.056305252 0.41343918
-0.039102379 -0.056232948 0.41290826
-0.038311623 -0.056165583 0.41241363
-0.037525516 -0.056102503 0.41195044
-0.03674328 -0.056042779 0.4115119
-0.03596472 -0.055986319 0.41109732
-0.035189364 -0.055932567 0.41070262
-0.034417018 -0.055881392 0.41032687
-0.033647489 -0.055832647 0.40996894
-0.032880615 -0.055786211 0.40962797
-0.032116137 -0.055741802 0.40930188
-0.03135391 -0.055699296 0.40898976
-0.030593956 -0.055658884 0.40869302
-0.029836081 -0.05562035 0.40841007
-0.029080151 -0.055583578 0.40814006
-0.028326064 -0.055548515 0.4078826
-0.027573748 -0.055515144 0.40763757
-0.026823143 -0.055483487 0.40740511
-0.02607416 -0.055453498 0.4071849
-0.025326733 -0.055425167 0.40697688
-0.024580697 -0.055398285 0.4067795
-0.023836164 -0.055373244 0.40659562
-0.023092939 -0.055349745 0.40642306
-0.022351073 -0.055328067 0.40626389
-0.0216105 -0.05530823 0.40611824
-0.020871202 -0.055290379 0.40598714
-0.020133117 -0.055274561 0.405871
-0.019396273 -0.055261083 0.40577203
-0.018660586 -0.055249974 0.40569046
-0.017926039 -0.055241469 0.40562803
-0.017192546 -0.055235624 0.40558511
-0.016460095 -0.05523276 0.40556407
-0.015728563 -0.05523286 0.40556481
-0.014997826 -0.055235896 0.40558711
-0.01426782 -0.055242069 0.40563244
-0.013538396 -0.055251293 0.40570015
-0.012809422 -0.055263504 0.40578982
-0.012080773 -0.055278689 0.40590131
-0.011352325 -0.055296808 0.40603438
-0.010623874 -0.055317413 0.40618566
-0.009895375 -0.055340804 0.40635741
-0.0091666225 -0.055366401 0.40654537
-0.0084375395 -0.055394281 0.40675008
-0.0077080121 -0.055424277 0.40697035
-0.0069779414 -0.055456273 0.40720528
-0.0062472359 -0.055490155 0.40745407
-0.0055158092 -0.055525813 0.40771592
-0.0047835903 -0.055563241 0.40799072
-0.0040504988 -0.055602301 0.40827754
-0.0033164693 -0.055642985 0.40857628
-0.0025814497 -0.055685557 0.40888888
-0.0018453647 -0.055730011 0.4092153
-0.0011081364 -0.055776197 0.40955442
-0.00036969697 -0.055824243 0.40990722
0.00037002898 -0.055874377 0.41027534
0.00111112 -0.055926371 0.41065714
0.0018536572 -0.055980448 0.41105419
0.0025977336 -0.056036826 0.41146818
0.0033434287 -0.056095302 0.41189757
0.004090867 -0.056156449 0.41234654
0.0048401556 -0.056220267 0.41281515
0.0055913902 -0.056286659 0.41330266
0.0063447822 -0.056356594 0.41381618
0.0071004285 -0.056429721 0.41435313
0.0078585539 -0.056506746 0.41491872
0.0086194603 -0.056588631 0.41551998
0.0093835937 -0.056676909 0.41616818
0.010151437 -0.056772847 0.41687265
0.010923736 -0.056878764 0.41765037
0.011701306 -0.056996685 0.41851625
0.012485439 -0.05713034 0.41949767
0.013277576 -0.057283256 0.4206205
0.01408009 -0.057461988 0.42193288
0.014896379 -0.057675723 0.4235023
0.015731737 -0.057938837 0.42543429
0.016599458 -0.058291119 0.42802104
-0.048764598 -0.05721201 0.42573622
-0.047714151 -0.05687527 0.42323041
-0.046742916 -0.056623533 0.42135715
-0.045818154 -0.056420702 0.41984782
-0.044925876 -0.056251727 0.4185904
-0.044058286 -0.056108411 0.41752395
-0.043209232 -0.055984136 0.41659915
-0.042375281 -0.055875368 0.41578978
-0.041553177 -0.055778589 0.41506961
-0.040741041 -0.055691883 0.41442439
-0.039937224 -0.055613518 0.41384125
-0.039139863 -0.055541329 0.41330406
-0.038348146 -0.055474501 0.41280678
-0.037560742 -0.055411391 0.41233715
-0.036777407 -0.055351853 0.41189411
-0.035997581 -0.055295251 0.41147292
-0.035220899 -0.055241197 0.41107067
-0.034447487 -0.055190064 0.41069016
-0.033676747 -0.055141047 0.41032541
-0.032908671 -0.055094287 0.40997747
-0.032143034 -0.055049561 0.40964463
-0.031379767 -0.055006884 0.40932706
-0.030618608 -0.054965936 0.40902233
-0.029859539 -0.054926805 0.40873116
-0.02910248 -0.054889489 0.40845346
-0.028347256 -0.054853778 0.40818775
-0.02759381 -0.054819703 0.40793416
-0.026842093 -0.054787286 0.40769294
-0.02609189 -0.05475622 0.40746176
-0.025343264 -0.054726757 0.40724254
-0.024596089 -0.054698769 0.40703425
-0.023850244 -0.054672096 0.40683576
-0.023105852 -0.054647174 0.4066503
-0.022362774 -0.054623827 0.40647659
-0.02162105 -0.054602314 0.40631649
-0.020880625 -0.054582685 0.40617043
-0.020141497 -0.054565147 0.40603992
-0.0194037 -0.054550026 0.40592739
-0.018667089 -0.054537181 0.40583181
-0.017931789 -0.054527275 0.40575811
-0.017197635 -0.05452016 0.40570515
-0.016464647 -0.054516274 0.40567625
-0.015732722 -0.054515708 0.40567204
-0.015001711 -0.054518413 0.40569216
-0.014271542 -0.054524608 0.40573826
-0.013542053 -0.054534212 0.40580973
-0.012813088 -0.054547146 0.40590596
-0.012084505 -0.05456337 0.40602669
-0.011356128 -0.054582682 0.4061704
-0.010627787 -0.054604836 0.40633526
-0.009899335 -0.054629661 0.40652001
-0.009170644 -0.054657042 0.40672374
-0.0084415479 -0.05468655 0.40694332
-0.0077119591 -0.054718185 0.40717873
-0.0069817598 -0.054751694 0.40742809
-0.0062508602 -0.05478695 0.40769044
-0.0055191899 -0.05482395 0.40796578
-0.0047866693 -0.054862596 0.40825334
-0.0040532276 -0.054902811 0.40855262
-0.0033187962 -0.054944515 0.40886295
-0.0025833258 -0.054987933 0.40918604
-0.0018467419 -0.055032909 0.40952072
-0.0011089874 -0.055079706 0.40986896
-0.00036998844 -0.05512828 0.4102304
0.00037032677 -0.055178691 0.41060552
0.0011120366 -0.055231154 0.41099593
0.0018552196 -0.055285543 0.41140068
0.0025999572 -0.055341948 0.41182038
0.0033463554 -0.05540077 0.41225812
0.004094515 -0.055462066 0.41271424
0.0048445202 -0.055525657 0.41318744
0.0055965474 -0.055592373 0.41368389
0.0063507073 -0.055662081 0.41420263
0.0071071568 -0.05573507 0.41474578
0.0078661283 -0.05581205 0.41531861
0.0086278524 -0.055893481 0.41592455
0.0093927654 -0.055980884 0.41657495
0.010161496 -0.0560764 0.41728574
0.010934653 -0.05618149 0.41806775
0.011713142 -0.056298647 0.41893956
0.012498131 -0.056430954 0.41992411
0.013291549 -0.056584023 0.42106315
0.014095733 -0.056763899 0.42240167
0.014914409 -0.056980692 0.4240149
0.015753539 -0.057250667 0.4260239
0.016629286 -0.057622407 0.42879015
-0.048865344 -0.056560673 0.42661577
-0.047789019 -0.056199886 0.42389449
-0.046805587 -0.055938385 0.42192209
-0.045874454 -0.055731773 0.42036369
-0.044977799 -0.055560809 0.41907418
-0.044106986 -0.055416472 0.4179855
-0.043255784 -0.055292174 0.41704798
-0.042420212 -0.055183817 0.41623068
-0.041596618 -0.055087414 0.41550353
-0.040783189 -0.055001181 0.41485313
-0.039978106 -0.054923195 0.41426489
-0.039179605 -0.05485145 0.41372374
-0.038386397 -0.054784469 0.41321853
-0.03759772 -0.054721434 0.41274309
-0.036813077 -0.05466184 0.41229358
-0.03603192 -0.054605074 0.41186544
-0.035254102 -0.054551087 0.41145822
-0.034479361 -0.054499634 0.41107014
-0.03370741 -0.05445043 0.41069901
-0.032938078 -0.054403339 0.41034383
-0.032171175 -0.054358196 0.4100033
-0.031406693 -0.054315105 0.40967831
-0.030644398 -0.05427381 0.40936685
-0.029884068 -0.05423405 0.40906695
-0.0291258 -0.054196108 0.40878075
-0.02836935 -0.054159671 0.40850592
-0.02761467 -0.054124754 0.40824255
-0.026861636 -0.054091241 0.40798977
-0.026110196 -0.05405914 0.40774766
-0.025360178 -0.054028206 0.40751433
-0.024611622 -0.053998634 0.40729129
-0.023864422 -0.053970311 0.40707764
-0.023118671 -0.053943563 0.40687591
-0.022374233 -0.053918231 0.40668485
-0.021631137 -0.053894527 0.40650603
-0.020889407 -0.053872682 0.40634128
-0.020149074 -0.053852979 0.40619266
-0.019410081 -0.053835507 0.40606087
-0.018672423 -0.053820513 0.40594777
-0.017936183 -0.053808551 0.40585756
-0.017201265 -0.053799704 0.40579084
-0.016467715 -0.053794533 0.40575182
-0.015735306 -0.05379279 0.40573868
-0.015004062 -0.053795051 0.40575573
-0.014273817 -0.053801309 0.40580294
-0.013544419 -0.05381161 0.40588063
-0.012815629 -0.053825639 0.40598646
-0.01208726 -0.053843252 0.40611929
-0.011359164 -0.053864427 0.406279
-0.01063108 -0.053888574 0.40646115
-0.0099028507 -0.053915523 0.4066644
-0.0091743218 -0.053945009 0.40688682
-0.0084453439 -0.053976763 0.40712631
-0.0077157831 -0.054010481 0.40738064
-0.0069855405 -0.054046024 0.40764871
-0.0062545016 -0.054083046 0.40792796
-0.0055226274 -0.054121748 0.40821987
-0.0047898246 -0.054161862 0.40852246
-0.0040560323 -0.054203339 0.40883529
-0.003321206 -0.054246362 0.40915981
-0.0025852658 -0.054290581 0.40949333
-0.0018481812 -0.054336529 0.4098399
-0.0011098749 -0.054383874 0.41019699
-0.00037029231 -0.05443297 0.41056731
0.00037063903 -0.054483935 0.41095173
0.0011129958 -0.054536797 0.41135043
0.0018568547 -0.054591525 0.41176325
0.0026023006 -0.054648314 0.41219157
0.0033494257 -0.054707285 0.41263637
0.004098325 -0.054768529 0.41309831
0.0048491345 -0.054832522 0.41358098
0.0056019328 -0.05489894 0.41408196
0.006356949 -0.054968912 0.41460973
0.0071142497 -0.055041827 0.4151597
0.0078740837 -0.055118587 0.41573867
0.0086366953 -0.055199746 0.41635081
0.009402561 -0.055287059 0.41700938
0.010172173 -0.055381831 0.41772422
0.010946259 -0.055486206 0.41851148
0.011725741 -0.055602703 0.41939017
0.012512025 -0.055735383 0.42039093
0.013306967 -0.05588926 0.42155156
0.014112817 -0.05606984 0.42291361
0.014934406 -0.056291223 0.42458341
0.015778124 -0.056570351 0.42668876
0.016665708 -0.056973469 0.42972934
-0.048988804 -0.055932097 0.42769364
-0.047873262 -0.055532981 0.42464173
-0.046875644 -0.055259906 0.4225536
-0.045935821 -0.055047058 0.42092603
-0.045034409 -0.054873861 0.41960165
-0.044159733 -0.054727875 0.41848534
-0.043305583 -0.054602694 0.41752812
-0.042467777 -0.054494049 0.41669735
-0.041642781 -0.054398227 0.41596463
-0.040827878 -0.054312315 0.4153077
-0.040021189 -0.054234322 0.41471133
-0.039221238 -0.054162662 0.41416335
-0.038426723 -0.054095875 0.41365266
-0.037636708 -0.054032899 0.41317111
-0.036850527 -0.053972993 0.41271302
-0.036068037 -0.053916138 0.41227826
-0.035288807 -0.053861864 0.41186327
-0.03451281 -0.053810298 0.41146895
-0.033739489 -0.053760722 0.41108987
-0.03296889 -0.053713363 0.41072771
-0.03220081 -0.053668018 0.41038099
-0.031434935 -0.053624302 0.4100467
-0.030671347 -0.053582475 0.40972686
-0.029909704 -0.053542063 0.40941784
-0.029150106 -0.053503361 0.4091219
-0.028392376 -0.053466164 0.40883747
-0.02763634 -0.053430256 0.4085629
-0.026881913 -0.053395581 0.40829775
-0.026128991 -0.053362023 0.40804115
-0.025377497 -0.053329524 0.40779263
-0.02462743 -0.053298172 0.4075529
-0.023878714 -0.0532679 0.40732142
-0.023131378 -0.053238884 0.40709955
-0.022385351 -0.053211078 0.40688694
-0.021640634 -0.05318461 0.40668452
-0.020897286 -0.053159762 0.40649453
-0.020155381 -0.053136915 0.40631983
-0.019414943 -0.053116351 0.40616259
-0.018675927 -0.05309822 0.40602395
-0.017938508 -0.053083338 0.40591013
-0.017202739 -0.053072277 0.40582556
-0.016468439 -0.053064972 0.40576971
-0.015735682 -0.053062182 0.40574837
-0.015004287 -0.05306394 0.40576181
-0.014274072 -0.053070266 0.40581018
-0.013544858 -0.053081203 0.4058938
-0.012816447 -0.053096708 0.40601239
-0.012088557 -0.053116385 0.40616283
-0.011360984 -0.053140089 0.40634409
-0.010633429 -0.053167146 0.40655097
-0.0099056736 -0.053197134 0.4067803
-0.0091775237 -0.053229634 0.40702882
-0.0084488261 -0.053264339 0.40729418
-0.0077194236 -0.053300783 0.40757287
-0.006989236 -0.053338908 0.40786439
-0.0062581506 -0.053378344 0.40816593
-0.0055261105 -0.053419068 0.40847737
-0.0047930465 -0.0534609 0.40879723
-0.0040589259 -0.053504024 0.40912697
-0.0033236879 -0.053548306 0.40946558
-0.0025872898 -0.053593863 0.40981394
-0.0018496803 -0.053640727 0.41017231
-0.0011108045 -0.05368888 0.41054052
-0.00037061097 -0.05373859 0.41092062
0.00037096598 -0.053790066 0.41131425
0.0011140013 -0.053843394 0.41172203
0.0018585632 -0.053898335 0.41214213
0.0026047491 -0.053955518 0.41257939
0.0033526337 -0.054014653 0.41303158
0.0041023437 -0.054076348 0.41350335
0.0048539671 -0.054140404 0.41399315
0.0056076366 -0.054207154 0.41450357
0.0063634859 -0.054276794 0.41503608
0.0071217129 -0.054349914 0.4155952
0.0078824786 -0.054426637 0.41618189
0.0086460952 -0.054507989 0.41680396
0.0094129136 -0.054594897 0.41746852
0.010183488 -0.054689102 0.41818887
0.010958638 -0.05479319 0.4189848
0.011739358 -0.054909904 0.41987726
0.012527094 -0.055043295 0.42089725
0.013323664 -0.055198036 0.42208052
0.014131733 -0.055381116 0.42348045
0.014956708 -0.055608273 0.42521745
0.01580702 -0.055902876 0.42747018
-0.049148608 -0.055340558 0.4290888
-0.047971573 -0.054879479 0.42551377
-0.04695433 -0.054589182 0.42326292
-0.04600339 -0.054367639 0.42154518
-0.045095235 -0.054190073 0.4201684
-0.044216279 -0.05404212 0.41902122
-0.043359078 -0.053916071 0.41804388
-0.042518474 -0.053806566 0.41719481
-0.041691504 -0.053710677 0.41645133
-0.040875014 -0.053625017 0.41578716
-0.040066861 -0.0535473 0.41518459
-0.039265156 -0.053475402 0.4146271
-0.038469058 -0.0534085 0.41410837
-0.03767737 -0.053345188 0.41361749
-0.036889866 -0.053285364 0.41315362
-0.036105838 -0.053228196 0.41271037
-0.035325352 -0.053173948 0.41228977
-0.034547731 -0.053121779 0.41188526
-0.033773173 -0.053072132 0.4115003
-0.033001084 -0.05302421 0.41112876
-0.032231644 -0.052978449 0.41077393
-0.031464439 -0.052934293 0.41043156
-0.030699505 -0.052891918 0.41010299
-0.029936593 -0.052851025 0.40978593
-0.029175607 -0.052811541 0.4094798
-0.028416462 -0.052773431 0.40918431
-0.027658926 -0.052736349 0.4088968
-0.02690294 -0.052700277 0.40861711
-0.026148418 -0.052665126 0.40834454
-0.025395291 -0.052630819 0.40807855
-0.024643494 -0.052597307 0.4078187
-0.023893006 -0.052564614 0.40756521
-0.023143705 -0.052532535 0.40731651
-0.022395743 -0.052501496 0.40707582
-0.021649105 -0.052471559 0.40684372
-0.020903777 -0.052442811 0.4066208
-0.020159815 -0.052415516 0.40640917
-0.019417495 -0.052390598 0.40621597
-0.018676981 -0.05236879 0.40604687
-0.017938387 -0.052350804 0.40590742
-0.017201651 -0.052336939 0.40579993
-0.016466858 -0.052328017 0.40573072
-0.015733778 -0.05232396 0.40569928
-0.015002284 -0.05232504 0.40570766
-0.014272247 -0.052331574 0.40575832
-0.01354334 -0.052343182 0.40584832
-0.012815394 -0.052360039 0.40597904
-0.012088113 -0.052381821 0.40614793
-0.011361217 -0.052408192 0.4063524
-0.010634432 -0.052438751 0.40658933
-0.0099074496 -0.052472789 0.40685326
-0.009180015 -0.052509688 0.40713933
-0.0084518595 -0.05254852 0.40744042
-0.0077228202 -0.052588727 0.40775219
-0.0069928137 -0.052630123 0.40807316
-0.0062617576 -0.052672431 0.40840119
-0.0055296314 -0.052715819 0.4087376
-0.004796356 -0.052759916 0.40907952
-0.0040619057 -0.052804772 0.40942731
-0.0033262754 -0.05285082 0.40978435
-0.0025893962 -0.052897666 0.41014758
-0.0018512409 -0.052945491 0.41051838
-0.0011117781 -0.052994754 0.41090035
-0.00037094543 -0.053045198 0.41129148
0.00037130897 -0.053097185 0.41169456
0.0011150518 -0.053150803 0.4121103
0.0018603652 -0.053206444 0.41254172
0.0026073193 -0.053263806 0.41298649
0.0033560151 -0.053323351 0.41344815
0.0041065444 -0.053385079 0.41392678
0.0048590386 -0.053449426 0.4144257
0.0056135892 -0.053516217 0.41494358
0.0063703698 -0.053586055 0.41548505
0.0071295295 -0.053659089 0.41605136
0.0078913132 -0.053736083 0.41664833
0.0086559271 -0.053817283 0.41727793
0.0094237803 -0.053904019 0.41795045
0.010195493 -0.053998347 0.41868183
0.010971876 -0.0541027 0.41949093
0.011753928 -0.054219734 0.42039835
0.012543179 -0.054353777 0.42143768
0.01334164 -0.054510131 0.42264998
0.014152604 -0.054697901 0.42410588
0.014981843 -0.054933421 0.42593202
0.015840037 -0.055246957 0.42836305
-0.048087295 -0.054242469 0.42654026
-0.047042511 -0.053926781 0.42405781
-0.046077907 -0.053694088 0.42222801
-0.045161884 -0.053511139 0.42078936
-0.044277336 -0.053359866 0.41959983
-0.043416139 -0.053231962 0.41859403
-0.042572986 -0.053122047 0.41772971
-0.041743252 -0.053025212 0.41696823
-0.04092475 -0.052939355 0.41629308
-0.040114723 -0.05286146 0.41568056
-0.039311439 -0.052789647 0.41511586
-0.038513578 -0.052722473 0.41458762
-0.037720352 -0.052659106 0.41408932
-0.036930952 -0.052598629 0.41361377
-0.036145616 -0.052541569 0.41316506
-0.035363402 -0.052486736 0.41273388
-0.034584537 -0.05243462 0.41232407
-0.033808388 -0.052384421 0.41192934
-0.033035051 -0.052336428 0.41155192
-0.032263953 -0.052289858 0.41118571
-0.03149543 -0.05224536 0.4108358
-0.030729013 -0.052202299 0.41049719
-0.029964672 -0.052160725 0.41017029
-0.029202249 -0.05212047 0.40985373
-0.028441519 -0.052081224 0.40954509
-0.027682399 -0.052042909 0.40924382
-0.026924744 -0.052005328 0.4089483
-0.026168453 -0.051968336 0.4086574
-0.025413522 -0.051931977 0.40837151
-0.02465973 -0.051895849 0.4080874
-0.02390709 -0.051859993 0.40780544
-0.023155717 -0.0518247 0.40752792
-0.022405241 -0.051789165 0.40724847
-0.021656064 -0.051754322 0.40697449
-0.02090811 -0.05172006 0.40670508
-0.020161878 -0.051687725 0.40645081
-0.019417666 -0.051658321 0.40621957
-0.018675677 -0.051632758 0.40601856
-0.01793607 -0.051611956 0.40585497
-0.017198624 -0.051595874 0.40572852
-0.016463451 -0.051585477 0.40564677
-0.015730279 -0.051580679 0.40560904
-0.014998736 -0.051581018 0.40561169
-0.014268999 -0.051587921 0.40566596
-0.013540331 -0.05159964 0.40575814
-0.012812886 -0.05161763 0.40589958
-0.012086218 -0.051641114 0.40608427
-0.011360008 -0.051669717 0.40630919
-0.0106341 -0.051703729 0.40657663
-0.0099080317 -0.051741946 0.40687716
-0.0091814846 -0.051783573 0.40720451
-0.0084541691 -0.051827732 0.40755177
-0.0077258144 -0.051873326 0.40791029
-0.006996172 -0.051918961 0.40826914
-0.0062653143 -0.051965255 0.40863317
-0.0055331686 -0.052011784 0.40899906
-0.0047997264 -0.052058574 0.409367
-0.0040649828 -0.052105688 0.40973747
-0.0033289408 -0.052153405 0.41011271
-0.0025915848 -0.052201923 0.41049424
-0.0018528749 -0.052251071 0.41088071
-0.0011127918 -0.052301217 0.41127503
-0.00037129418 -0.052352481 0.41167817
0.00037166767 -0.052405141 0.41209227
0.0011161575 -0.052459404 0.41251895
0.0018622453 -0.052515317 0.41295862
0.0026100194 -0.052573249 0.41341418
0.0033595494 -0.052632943 0.4138836
0.0041109635 -0.052695077 0.41437221
0.0048643523 -0.052759513 0.4148789
0.0056198533 -0.052826624 0.41540661
0.0063776029 -0.052896589 0.4159568
0.0071377945 -0.052969951 0.41653368
0.0079006338 -0.053047113 0.41714045
0.0086663207 -0.05312831 0.41777897
0.0094353165 -0.053215187 0.41846213
0.01020824 -0.053309698 0.41920531
0.010985916 -0.053414281 0.42002773
0.01176944 -0.053531967 0.42095315
0.012560544 -0.05366778 0.42202112
0.013361316 -0.053827018 0.4232733
0.014175636 -0.054020666 0.42479607
0.015010001 -0.054266926 0.42673257
0.015879421 -0.054609712 0.4294281
-0.048228189 -0.053629745 0.42778999
-0.047141355 -0.053273562 0.42494881
-0.046161141 -0.053028088 0.42299071
-0.045233667 -0.05283596 0.42145818
-0.04434311 -0.052681133 0.42022315
-0.043477383 -0.052550923 0.41918451
-0.042630654 -0.052439477 0.41829553
-0.041798152 -0.05234183 0.41751662
-0.040977165 -0.052255284 0.41682628
-0.040165074 -0.052177057 0.41620228
-0.039359815 -0.052104898 0.41562667
-0.038560055 -0.052037358 0.41508794
-0.037765298 -0.051974021 0.41458273
-0.036974307 -0.051913422 0.41409934
-0.036187209 -0.051855896 0.41364047
-0.03540355 -0.051800981 0.41320243
-0.034623001 -0.051748354 0.41278264
-0.033845346 -0.051697839 0.41237968
-0.033070333 -0.051649172 0.41199148
-0.032298047 -0.051602628 0.41162023
-0.031527895 -0.051557384 0.41125932
-0.030760018 -0.051513765 0.41091138
-0.029994125 -0.051471397 0.41057342
-0.029230092 -0.051430162 0.41024449
-0.028467776 -0.05138988 0.4099232
-0.02770697 -0.051350247 0.40960705
-0.026947493 -0.051310979 0.4092938
-0.026189223 -0.05127186 0.40898177
-0.025432222 -0.051233027 0.408672
-0.024676161 -0.051193826 0.40835932
-0.023921106 -0.051154364 0.40804455
-0.023166843 -0.051114146 0.40772372
-0.022413403 -0.051073164 0.40739682
-0.021661082 -0.05103204 0.40706879
-0.020910375 -0.050991967 0.40674913
-0.020161934 -0.050954707 0.40645191
-0.019416073 -0.050921403 0.40618625
-0.018672828 -0.050892606 0.40595657
-0.017932646 -0.050870162 0.40577751
-0.017194826 -0.050852783 0.4056389
-0.016459465 -0.050841458 0.40554857
-0.015726414 -0.050836544 0.40550938
-0.014994847 -0.050836187 0.40550652
-0.014265453 -0.050843537 0.40556514
-0.013536891 -0.05085481 0.40565506
-0.012809911 -0.050873645 0.40580532
-0.012083585 -0.050897527 0.40599582
-0.01135797 -0.050927669 0.40623626
-0.010632792 -0.050964076 0.40652665
-0.0099075185 -0.051005375 0.40685609
-0.0091819838 -0.051051829 0.40722665
-0.0084556509 -0.051101543 0.4076232
