# .PCD v0.7 - Point Cloud Data file format
VERSION 0.7
FIELDS x y z
SIZE 4 4 4
TYPE F F F
COUNT 1 1 1
WIDTH 1420
HEIGHT 1
VIEWPOINT 0 0 0 1 0 0 0
POINTS 1420
DATA ascii
0.1526822 -0.12972246 0.42428255
0.15380771 -0.13002697 0.42527848
0.15501739 -0.13039924 0.42649609
0.15633549 -0.1308586 0.42799848
0.157858 -0.13148369 0.43004298
0.16072498 -0.13321704 0.43571225
0.10571576 -0.13649888 0.4490957
0.10554069 -0.13523655 0.44494247
0.10573011 -0.13445678 0.44237694
0.10603933 -0.13383991 0.44034734
0.10642027 -0.13332205 0.43864354
0.10683505 -0.13285393 0.43710336
0.10730258 -0.13245776 0.43579996
0.10778625 -0.13208716 0.43458062
0.10828843 -0.1317444 0.43345293
0.10880779 -0.13142733 0.43240973
0.10934762 -0.13113932 0.43146214
0.10989542 -0.13086486 0.43055913
0.11045118 -0.13060367 0.42969981
0.11101957 -0.13036096 0.42890126
0.11160269 -0.13013878 0.42817026
0.11218371 -0.12991722 0.4274413
0.11277615 -0.12971182 0.42676553
0.11338072 -0.12952305 0.42614445
0.11398385 -0.12933521 0.42552644
0.11459801 -0.1291623 0.42495754
0.11521679 -0.12899686 0.42441326
0.11583936 -0.12883784 0.42389002
0.11647137 -0.12869132 0.42340797
0.11710443 -0.12854786 0.42293596
0.11774359 -0.1284129 0.42249197
0.11838927 -0.12828676 0.42207694
0.1190373 -0.12816475 0.42167553
0.11969255 -0.12805203 0.42130464
0.12034734 -0.12794024 0.42093682
0.12101162 -0.12783986 0.42060658
0.12168195 -0.1277471 0.42030138
0.12235132 -0.12765446 0.41999662
0.12302487 -0.12756734 0.41970992
0.12370789 -0.127491 0.41945881
0.12439188 -0.1274166 0.41921401
0.12508379 -0.12735118 0.41899875
0.12577517 -0.12728599 0.41878426
0.12647264 -0.12722769 0.41859248
0.12717457 -0.12717457 0.41841772
0.12788408 -0.1271296 0.41826975
0.12859756 -0.12708907 0.41813642
0.12931477 -0.12705269 0.41801673
0.13003688 -0.12702152 0.41791418
0.13076328 -0.12699489 0.41782653
0.13149485 -0.12697354 0.41775629
0.13223201 -0.12695779 0.41770449
0.13297367 -0.12694654 0.41766745
0.13372302 -0.12694271 0.41765484
0.13447553 -0.12694187 0.41765213
0.13523845 -0.12695086 0.41768169
0.13600425 -0.12696241 0.41771969
0.13678041 -0.12698346 0.41778895
0.13756186 -0.12700917 0.4178735
0.13835114 -0.12704179 0.41798082
0.13914952 -0.12708235 0.4181143
0.13995288 -0.12712701 0.41826123
0.14076932 -0.12718301 0.41844544
0.14158992 -0.12724215 0.41864005
0.14242317 -0.12731196 0.41886973
0.14326717 -0.12739059 0.41912845
0.14412776 -0.12748308 0.41943273
0.14500029 -0.12758511 0.41976842
0.14588167 -0.12769383 0.42012611
0.14678331 -0.12781906 0.42053813
0.14770448 -0.12795992 0.42100158
0.14864865 -0.12811917 0.42152554
0.14960478 -0.12828705 0.42207789
0.1506104 -0.12849545 0.42276356
0.15162437 -0.12870885 0.42346564
0.15270996 -0.12898059 0.42435971
0.15382598 -0.1292752 0.425329
0.15502912 -0.12963973 0.42652833
0.15635398 -0.13010196 0.42804912
0.15787034 -0.13071819 0.43007657
0.16019003 -0.13199033 0.43426204
0.10550725 -0.13542119 0.44820994
0.10545425 -0.13432385 0.44457805
0.10568204 -0.13359804 0.44217581
0.10599698 -0.13299246 0.44017148
0.10639847 -0.13250367 0.43855369
0.10682853 -0.1320574 0.43707666
0.10728139 -0.13164566 0.43571392
0.10778046 -0.1312962 0.43455729
0.10828398 -0.13095716 0.43343514
0.10880955 -0.13064946 0.43241674
0.10934322 -0.13035579 0.43144476
0.10990195 -0.13009594 0.43058473
0.11045768 -0.12983622 0.42972511
0.11102812 -0.12959728 0.42893428
0.11160925 -0.12937404 0.42819542
0.11219812 -0.12916279 0.42749622
0.11279301 -0.12896129 0.42682931
0.11338854 -0.12876326 0.42617387
0.11400288 -0.12858911 0.42559749
0.11461712 -0.12841718 0.42502844
0.11523002 -0.12824604 0.42446202
0.11586084 -0.12809697 0.42396864
0.11649296 -0.12795128 0.42348644
0.11712373 -0.12780602 0.42300567
0.11776648 -0.12767564 0.4225741
0.1184146 -0.1275527 0.42216724
0.11906153 -0.12743007 0.42176136
0.11971444 -0.12731536 0.42138168
0.12037775 -0.12721308 0.42104319
0.12104001 -0.12711099 0.42070526
0.1217067 -0.12701479 0.42038685
0.12237906 -0.12692565 0.42009187
0.12305578 -0.12684211 0.41981536
0.12374015 -0.12676744 0.41956821
0.12442381 -0.12669294 0.41932163
0.12511201 -0.12662393 0.41909325
0.12580726 -0.12656285 0.41889107
0.12650731 -0.12650731 0.41870728
0.12721269 -0.12645772 0.41854313
0.12791945 -0.12641007 0.41838542
0.1286331 -0.12636976 0.41825199
0.12934811 -0.12633125 0.41812456
0.13007037 -0.12630023 0.41802186
0.13079701 -0.12627378 0.41793433
0.13153179 -0.12625545 0.41787365
0.13227059 -0.12624116 0.41782638
0.13301447 -0.12623186 0.4177956
0.13376488 -0.12622882 0.41778556
0.1345185 -0.12622885 0.41778561
0.13528176 -0.12623785 0.41781542
0.13604827 -0.12624978 0.41785491
0.13682315 -0.1262693 0.41791949
0.13760434 -0.12629439 0.41800255
0.13839093 -0.12632415 0.41810101
0.13918793 -0.12636302 0.4182297
0.13999254 -0.12640835 0.41837972
0.14081028 -0.12646499 0.41856721
0.14163555 -0.12652777 0.41877496
0.14246899 -0.12659711 0.41900447
0.14331442 -0.12667634 0.41926667
0.14416458 -0.12675889 0.4195399
0.14504138 -0.12686387 0.41988736
0.14592688 -0.12697533 0.42025629
0.14682907 -0.1271001 0.42066923
0.14774407 -0.12723461 0.42111444
0.14869072 -0.12739487 0.42164484
0.14965267 -0.12756652 0.42221299
0.1506447 -0.12776196 0.42285985
0.15167537 -0.12798803 0.42360806
0.15273775 -0.12823847 0.42443696
0.15386592 -0.12854137 0.42543945
0.15505825 -0.12889458 0.4266085
0.15637174 -0.12934452 0.42809772
0.15788765 -0.12995666 0.43012375
0.16007754 -0.13111486 0.43395707
0.10539187 -0.13446549 0.44771975
0.10539939 -0.13345246 0.44434676
0.10564915 -0.13275912 0.44203821
0.1059816 -0.1321793 0.44010764
0.10637669 -0.13168563 0.4384639
0.10682487 -0.13126451 0.4370617
0.10728718 -0.13086678 0.43573743
0.10777468 -0.13050535 0.43453398
0.10829189 -0.13018484 0.43346682
0.10881749 -0.12987894 0.43244827
0.10935576 -0.1295924 0.43149424
0.10990848 -0.12932692 0.4306103
0.1104741 -0.12908027 0.42978901
0.11104651 -0.1288449 0.42900532
0.11162049 -0.1286146 0.42823854
0.11221611 -0.12841225 0.42756474
0.11281107 -0.1282119 0.42689764
0.11341349 -0.12802269 0.42626765
0.11402191 -0.12784275 0.42566854
0.11463625 -0.12767181 0.42509937
0.11525994 -0.12751348 0.4245722
0.11588389 -0.12735754 0.42405295
0.11651455 -0.12721097 0.42356494
0.11715446 -0.12707634 0.42311668
0.11779498 -0.12694411 0.42267638
0.11843994 -0.12681833 0.42225757
0.11909173 -0.12670141 0.42186832
0.11974755 -0.12659027 0.42149824
0.12040818 -0.12648557 0.42114964
0.12107058 -0.12638402 0.4208115
0.12173849 -0.12628947 0.42049667
0.12241583 -0.12620579 0.42021808
0.12309272 -0.1261227 0.4199414
0.12377243 -0.1260435 0.41967767
0.12445896 -0.12597214 0.41944009
0.1251502 -0.12590641 0.41922122
0.12584844 -0.12584844 0.41902825
0.12654595 -0.12579045 0.41883513
0.12725085 -0.12574045 0.41866869
0.12795594 -0.12569124 0.4185048
0.12867214 -0.12565343 0.41837892
0.12939031 -0.12561801 0.41826096
0.13011627 -0.12559049 0.41816932
0.13084348 -0.12556449 0.41808277
0.13157851 -0.12554625 0.41802204
0.1323166 -0.12553114 0.41797173
0.13306074 -0.12552188 0.41794091
0.13381106 -0.12551853 0.41792977
0.13456491 -0.12551853 0.41792974
0.13532874 -0.12552777 0.41796052
0.13609652 -0.12554055 0.41800308
0.13687168 -0.12555997 0.41806775
0.1376549 -0.12558652 0.41815615
0.13844275 -0.125617 0.41825762
0.13924168 -0.12565713 0.41839123
0.14004648 -0.1257021 0.41854095
0.14085841 -0.12575296 0.41871029
0.14168105 -0.12581277 0.41890946
0.14251652 -0.1258833 0.4191443
0.14336602 -0.1259654 0.41941765
0.14422308 -0.12605324 0.41971016
0.14509037 -0.12614907 0.42002922
0.14597666 -0.12626033 0.42039967
0.14687912 -0.12638436 0.42081264
0.14780056 -0.12652336 0.42127547
0.14873357 -0.12667079 0.42176634
0.14970775 -0.1268516 0.42236838
0.15068954 -0.127037 0.4229857
0.15172638 -0.12726672 0.42375055
0.15278439 -0.12751178 0.42456654
0.15391505 -0.12781474 0.42557529
0.15510897 -0.12816697 0.42674807
0.15638916 -0.12858663 0.42814541
0.15790597 -0.12919579 0.43017367
0.15998201 -0.13025431 0.43369812
0.10528426 -0.13352141 0.44726261
0.10537995 -0.13262647 0.4442648
0.10562819 -0.1319356 0.44195053
0.1059815 -0.1313853 0.4401072
0.10637511 -0.1308928 0.43845743
0.10682122 -0.13047168 0.43704677
0.10729821 -0.13009417 0.43578222
0.10778417 -0.12973295 0.43457225
0.10829981 -0.12941241 0.43349853
0.10882968 -0.12911336 0.43249676
0.10937601 -0.12883793 0.43157414
0.10992256 -0.12856667 0.43066549
0.11049244 -0.1283263 0.42986032
0.1110649 -0.12809227 0.42907637
0.11164939 -0.12787525 0.42834941
0.11223494 -0.12766242 0.4276365
0.11283455 -0.12746838 0.42698652
0.11344217 -0.12728596 0.42637545
0.11404782 -0.12710379 0.42576525
0.11466432 -0.12693609 0.42520347
0.11528985 -0.12678054 0.42468241
0.11591393 -0.12662545 0.42416289
0.11654535 -0.12648037 0.42367691
0.11718683 -0.12634802 0.42323357
0.1178275 -0.12621652 0.42279306
0.11847266 -0.12609148 0.42237425
0.11912824 -0.12597907 0.4219977
0.11978424 -0.12586853 0.4216274
0.1204392 -0.12575829 0.42125812
0.12111025 -0.12566611 0.42094937
0.12178069 -0.12557447 0.42064241
0.12245262 -0.12548551 0.42034438
0.1231297 -0.12540287 0.42006755
0.12381347 -0.125328 0.41981679
0.12450375 -0.12526061 0.41959104
0.12519443 -0.12519443 0.41936937
0.12588966 -0.12513356 0.41916546
0.12658739 -0.12507591 0.41897231
0.12729514 -0.12502874 0.41881436
0.12800613 -0.12498533 0.41866893
0.12872145 -0.12494663 0.41853929
0.12943983 -0.12491132 0.418421
0.13016397 -0.12488196 0.41832265
0.13089047 -0.12485518 0.41823295
0.13162525 -0.12483655 0.41817054
0.13236265 -0.12482062 0.4181172
0.13310799 -0.12481231 0.41808936
0.13385956 -0.12480989 0.41808125
0.13461459 -0.12481072 0.41808403
0.13537878 -0.12481999 0.41811505
0.1361471 -0.12483293 0.41815841
0.13692105 -0.12485087 0.41821852
0.13770555 -0.12487818 0.41831002
0.13849624 -0.12491076 0.41841915
0.13929547 -0.12495068 0.41855285
0.14010392 -0.12499838 0.41871262
0.14091782 -0.12505041 0.4188869
0.14174309 -0.12511189 0.41909289
0.14257587 -0.12517935 0.41931885
0.14341781 -0.12525406 0.41956913
0.14428192 -0.12534729 0.41988137
0.14515211 -0.12544477 0.42020795
0.14603703 -0.12555392 0.42057353
0.14693668 -0.12567453 0.42097756
0.14786108 -0.12581494 0.42144793
0.14879985 -0.12596612 0.4219543
0.14976294 -0.12613623 0.42252412
0.15076043 -0.12633342 0.42318466
0.15177742 -0.12654491 0.42389309
0.15285525 -0.12680472 0.42476344
0.15396903 -0.12709165 0.42572454
0.15516116 -0.12744005 0.42689162
0.15646896 -0.12787957 0.42836389
0.15794633 -0.12845266 0.43028361
0.16005386 -0.12953015 0.43389291
0.10526345 -0.1326884 0.44717422
0.10536052 -0.1318008 0.4441829
0.10562117 -0.13112967 0.44192111
0.10598139 -0.13059129 0.44010672
0.10639156 -0.13012202 0.43852523
0.10682683 -0.12969014 0.43706974
0.10730924 -0.1293214 0.43582705
0.10780805 -0.12897763 0.43466851
0.10831887 -0.12865309 0.4335748
0.10884988 -0.12835704 0.43257701
0.10939626 -0.12808317 0.43165407
0.1099534 -0.12782569 0.43078634
0.11051542 -0.12757745 0.42994976
0.11109117 -0.12734841 0.42917785
0.11167829 -0.1271355 0.42846033
0.1122647 -0.12692469 0.4277499
0.1128641 -0.12673137 0.42709833
0.11347087 -0.12654887 0.4264833
0.11408246 -0.12637417 0.42589456
0.11470024 -0.12620862 0.42533663
0.11531979 -0.12604721 0.42479268
0.11595108 -0.12590067 0.42429882
0.11658569 -0.12575965 0.42382357
0.11721921 -0.12561928 0.42335051
0.11786563 -0.12549447 0.42292988
0.118516 -0.12537545 0.42252874
0.11916489 -0.12525639 0.42212752
0.11982219 -0.12514761 0.42176095
0.12048697 -0.125048 0.42142519
0.12115227 -0.12495015 0.42109546
0.1218229 -0.12485898 0.42078823
0.12249541 -0.12477086 0.42049125
0.12317805 -0.12469409 0.4202325
0.12386256 -0.12462012 0.41998324
0.12454858 -0.12454858 0.41974214
0.12523951 -0.12448277 0.41952035
0.12593716 -0.12442441 0.41932365
0.12664159 -0.12437338 0.41915169
0.12734652 -0.12432344 0.4189834
0.12805782 -0.1242803 0.41883799
0.12877081 -0.12423929 0.41869977
0.12948938 -0.12420409 0.41858116
0.13021532 -0.12417634 0.41848764
0.13094601 -0.12415343 0.41841042
0.1316828 -0.12413651 0.41835341
0.13242249 -0.1241225 0.4183062
0.13316919 -0.12411519 0.41828156
0.13392103 -0.12411273 0.41827324
0.13467683 -0.12411394 0.41827735
0.13544138 -0.12412316 0.41830841
0.13621119 -0.12413706 0.41835526
0.1369859 -0.12415526 0.41841659
0.13777035 -0.12418205 0.41850686
0.13856053 -0.12421367 0.41861343
0.13935611 -0.12424975 0.41873503
0.1401621 -0.12429469 0.41888648
0.14097981 -0.12434948 0.41907114
0.14180553 -0.12441072 0.41927752
0.14264403 -0.12448245 0.41951928
0.14348876 -0.12455885 0.41977674
0.14434342 -0.12464301 0.42006037
0.14521927 -0.12474448 0.42040235
0.14610454 -0.12485297 0.42076796
0.14700741 -0.12497529 0.42118019
0.14792521 -0.12510899 0.42163074
0.14887278 -0.12526636 0.4221611
0.14983058 -0.12543069 0.42271492
0.15083137 -0.12562917 0.42338383
0.1518535 -0.12584333 0.42410555
0.1529264 -0.1260972 0.42496115
0.1540446 -0.12638572 0.42593348
0.15523736 -0.12673223 0.42710128
0.15655741 -0.12717873 0.42860603
0.15805949 -0.12776799 0.43059188
0.16021203 -0.1288747 0.43432164
0.10524876 -0.1318634 0.44711185
0.10534455 -0.13097972 0.44411555
0.10563035 -0.13034385 0.44195953
0.10598127 -0.12979728 0.44010624
0.10640802 -0.12935102 0.43859306
0.10685658 -0.12893765 0.43719146
0.10732164 -0.1285501 0.43587738
0.10783194 -0.12822199 0.43476483
0.10834613 -0.12790319 0.43368393
0.10887984 -0.12761186 0.43269607
0.10942027 -0.12733249 0.43174881
0.10998426 -0.1270843 0.43090725
0.11054678 -0.12683788 0.43007174
0.11112492 -0.12661271 0.42930824
0.11170723 -0.12639537 0.42857131
0.11230373 -0.12619697 0.42789859
0.11290328 -0.12600468 0.4272466
0.11350311 -0.12581532 0.42660451
0.11412138 -0.1256488 0.42603987
0.11473931 -0.12548414 0.42548156
0.11536058 -0.12532528 0.42494294
0.11599126 -0.12517869 0.4244459
0.11662606 -0.12503843 0.42397031
0.11726417 -0.12490354 0.42351291
0.1179088 -0.12477727 0.4230848
0.11855935 -0.12465888 0.42268333
0.11921022 -0.12454231 0.42228809
0.11986976 -0.12443623 0.42192841
0.12053476 -0.12433712 0.42159235
0.12119873 -0.12423819 0.42125693
0.12187055 -0.1241485 0.4209528
0.12254909 -0.12406673 0.42067555
0.12322702 -0.12398534 0.42039958
0.12391168 -0.12391168 0.4201498
0.12459945 -0.12384201 0.41991356
0.12529598 -0.12378183 0.41970953
0.12599368 -0.12372354 0.41951185
0.12669584 -0.12367027 0.41933125
0.12739997 -0.12361955 0.41915926
0.12811179 -0.12357686 0.41901454
0.12882859 -0.12353943 0.41888762
0.1295518 -0.12350857 0.41878295
0.13027723 -0.12348016 0.41868663
0.13100824 -0.12345733 0.41860923
0.1317441 -0.12343931 0.41854814
0.13248336 -0.12342468 0.41849852
0.13323049 -0.12341749 0.41847414
0.13398252 -0.12341489 0.41846532
0.13473913 -0.12341651 0.41847083
0.13550407 -0.12342571 0.418502
0.13627532 -0.12344053 0.41855225
0.13705221 -0.12346025 0.41861913
0.13783696 -0.12348681 0.41870919
0.13863005 -0.12352051 0.41882345
0.1394292 -0.12355921 0.41895467
0.14023571 -0.12360398 0.41910648
0.14105207 -0.12365691 0.41928595
0.14187451 -0.12371457 0.41948146
0.14271244 -0.12378507 0.4197205
0.14356382 -0.12386642 0.41999632
0.14442149 -0.12395231 0.42028755
0.14529119 -0.12404757 0.42061058
0.1461807 -0.12415868 0.42098731
0.14708497 -0.12428109 0.42140239
0.14800465 -0.12441523 0.42185718
0.14894588 -0.124566 0.42236841
0.14991823 -0.12474112 0.42296222
0.1509068 -0.12492791 0.42359555
0.15194292 -0.12515198 0.42435533
0.15300955 -0.1253988 0.42519224
0.15413532 -0.12569138 0.4261843
0.15534239 -0.12604704 0.42739022
0.15664446 -0.1264759 0.42884436
0.15817319 -0.12708263 0.43090162
0.16037221 -0.12821935 0.43475589
0.10523409 -0.13103862 0.4470495
0.10536166 -0.13019976 0.44418767
0.10565538 -0.12957735 0.44206429
0.10601377 -0.12904297 0.44024119
0.10642448 -0.12857977 0.43866092
0.10688634 -0.12818472 0.4373132
0.1073608 -0.12781048 0.43603641
0.10785642 -0.12746668 0.43486354
0.10838112 -0.12716196 0.43382397
0.10891488 -0.12687217 0.43283531
0.10946075 -0.1266005 0.43190852
0.11001514 -0.12634248 0.43102822
0.11058759 -0.12610865 0.4302305
0.11116591 -0.12588474 0.42946661
0.11174657 -0.12566656 0.42872226
0.11234277 -0.12546873 0.42804736
0.11294249 -0.1252775 0.42739499
0.11355175 -0.12509939 0.42678732
0.11416239 -0.12492517 0.42619297
0.11478006 -0.12476093 0.42563266
0.11540935 -0.12461143 0.42512259
0.11603723 -0.12446237 0.42461407
0.11666957 -0.12432003 0.42412847
0.11731479 -0.12419318 0.42369568
0.11795875 -0.12406664 0.42326403
0.11860434 -0.12394344 0.42284369
0.11926405 -0.12383647 0.42247877
0.11992273 -0.1237298 0.42211485
0.1205826 -0.1236257 0.42175969
0.12125369 -0.12353432 0.42144796
0.12192626 -0.12344559 0.42114523
0.12260284 -0.12336199 0.42086002
0.12328103 -0.12328103 0.42058384
0.12396853 -0.12321032 0.42034259
0.12466071 -0.12314507 0.42012
0.1253534 -0.12308113 0.41990185
0.12605138 -0.12302312 0.41970393
0.12675288 -0.12296922 0.41952005
0.12746383 -0.12292506 0.4193694
0.12817673 -0.12288329 0.41922691
0.12889381 -0.12284601 0.41909972
0.12961516 -0.12281319 0.41898775
0.13033919 -0.1227833 0.41888577
0.13107052 -0.12276058 0.41880825
0.13180728 -0.12274317 0.41874889
0.13254926 -0.12273078 0.41870663
0.1332988 -0.12272553 0.41868868
0.13405247 -0.12272409 0.41868377
0.13481079 -0.12272691 0.41869339
0.13557589 -0.12273583 0.41872382
0.13634755 -0.12275057 0.4187741
0.13712467 -0.12277002 0.41884047
0.13790739 -0.12279424 0.41892311
0.13869961 -0.12282663 0.41903359
0.13950245 -0.12286801 0.41917476
0.14031206 -0.12291487 0.41933465
0.14113037 -0.12296882 0.41951871
0.14195836 -0.12303057 0.41972938
0.14279267 -0.12309713 0.41995645
0.14363877 -0.1231731 0.42021561
0.14450425 -0.12326477 0.42052838
0.14537628 -0.12336107 0.42085689
0.14626218 -0.12346807 0.42122194
0.14716998 -0.12359235 0.42164594
0.14809377 -0.12372873 0.42211118
0.14903289 -0.12387644 0.42261514
0.15000591 -0.12405068 0.42320958
0.15100102 -0.12424135 0.42386004
0.1520326 -0.12445993 0.42460576
0.1531041 -0.12470885 0.42545494
0.15423845 -0.12500623 0.42646948
0.15545031 -0.12536316 0.42768717
0.15677145 -0.12580425 0.42919201
0.15829842 -0.12640536 0.43124276
0.16071111 -0.12770443 0.43567461
0.10524836 -0.13024989 0.44711015
0.10540128 -0.12944721 0.44435474
0.10568044 -0.1288105 0.4421691
0.10605339 -0.12829679 0.44040573
0.10646202 -0.12783358 0.43881562
0.1069161 -0.12743136 0.43743497
0.10740221 -0.12707295 0.43620461
0.10789789 -0.12673096 0.4350307
0.10841729 -0.1264216 0.43396872
0.10895185 -0.12613422 0.43298224
0.10950584 -0.12587327 0.43208644
0.1100578 -0.12561367 0.43119535
0.11062843 -0.12537889 0.4303894
0.11120693 -0.12515622 0.42962506
0.11179707 -0.12494966 0.42891601
0.11238874 -0.12474765 0.42822254
0.11298788 -0.12455662 0.42756677
0.11360044 -0.12438285 0.4269703
0.11421127 -0.12420956 0.42637545
0.11483151 -0.12404876 0.42582345
0.11545817 -0.12389697 0.42530242
0.11608645 -0.12374892 0.4247942
0.11672551 -0.12361423 0.42433184
0.11736543 -0.1234822 0.42387861
0.11800977 -0.12335649 0.4234471
0.11866366 -0.12324233 0.4230552
0.11931793 -0.12313 0.42266962
0.11997685 -0.12302388 0.42230535
0.12064239 -0.12292584 0.42196879
0.12131244 -0.1228336 0.42165217
0.1219853 -0.12274534 0.42134917
0.12265872 -0.12265872 0.42105186
0.12334545 -0.1225864 0.42080361
0.12403183 -0.12251462 0.4205572
0.12472203 -0.12244746 0.42032665
0.12541412 -0.12238296 0.42010525
0.12611704 -0.12232973 0.41992253
0.12682198 -0.1222791 0.41974872
0.12753136 -0.12223333 0.41959161
0.12824196 -0.12218923 0.41944024
0.1289591 -0.12215188 0.41931203
0.12968214 -0.1221205 0.41920429
0.13041124 -0.12209516 0.4191173
0.13114552 -0.12207494 0.41904789
0.13188323 -0.12205813 0.41899019
0.1326257 -0.12204587 0.41894811
0.13337512 -0.12204013 0.41892841
0.13412921 -0.12203869 0.41892347
0.13488863 -0.1220421 0.41893518
0.1356542 -0.12205099 0.4189657
0.13642743 -0.12206665 0.41901946
0.13720676 -0.12208756 0.41909122
0.13799244 -0.12211386 0.4191815
0.13878433 -0.12214534 0.41928956
0.13958555 -0.12218465 0.4194245
0.14039314 -0.12222907 0.41957697
0.14121148 -0.12228233 0.41975981
0.14204212 -0.1223456 0.41997701
0.14288269 -0.12241673 0.42022118
0.14373 -0.12249285 0.42048246
0.14458695 -0.12257634 0.42076907
0.14546844 -0.12267966 0.42112371
0.14635676 -0.12278762 0.42149433
0.14725886 -0.12290598 0.42190063
0.14818992 -0.12304715 0.42238522
0.14913435 -0.12319794 0.42290285
0.15010662 -0.12337007 0.42349371
0.15110563 -0.12356232 0.42415366
0.15214318 -0.123784 0.4249146
0.15321475 -0.12403098 0.42576244
0.15436175 -0.12433627 0.42681041
0.15556516 -0.12468373 0.42800313
0.15690579 -0.12513721 0.42955977
0.15848827 -0.12577815 0.43175998
0.10530381 -0.12951158 0.44734567
0.10544094 -0.12869407 0.44452193
0.10572625 -0.1280684 0.44236079
0.10609304 -0.12755007 0.44057041
0.10651341 -0.12710336 0.43902746
0.1069581 -0.12669206 0.43760678
0.10744365 -0.12633485 0.43637294
0.10794789 -0.12600462 0.43523231
0.10846885 -0.12569857 0.43417513
0.1089993 -0.1254078 0.43317083
0.10955093 -0.12514538 0.43226436
0.11011207 -0.12489744 0.43140799
0.11068135 -0.12466216 0.43059531
0.11125457 -0.12443456 0.42980915
0.11184762 -0.12423213 0.42910993
0.11243945 -0.12403114 0.42841572
0.11304439 -0.12384726 0.42778057
0.11364917 -0.1236657 0.42715344
0.11426634 -0.12349999 0.42658105
0.1148895 -0.12334291 0.42603847
0.11551104 -0.12318619 0.42549714
0.11614475 -0.12304445 0.42500755
0.11678405 -0.12291043 0.42454466
0.11742214 -0.1227769 0.42408341
0.11807009 -0.12265533 0.42366353
0.11872425 -0.12254176 0.42327121
0.11937734 -0.12242853 0.42288011
0.12003848 -0.12232493 0.42252228
0.1207068 -0.12222992 0.42219409
0.12137426 -0.12213522 0.42186701
0.12204723 -0.12204723 0.42156309
0.12272881 -0.12196888 0.42129245
0.12341078 -0.12189187 0.42102647
0.12409748 -0.12182046 0.42077979
0.12478752 -0.12175318 0.4205474
0.12548752 -0.12169636 0.42035115
0.12618712 -0.12163983 0.42015588
0.12689245 -0.12158947 0.41998196
0.12759896 -0.12154084 0.41981396
0.12831526 -0.12150206 0.41968
0.12903607 -0.12146798 0.41956228
0.12975945 -0.12143669 0.41945419
0.13048898 -0.12141148 0.41936713
0.13122219 -0.12138998 0.41929287
0.13195927 -0.12137229 0.41923177
0.13270225 -0.12136017 0.4191899
0.13345151 -0.12135392 0.41916832
0.13420613 -0.12135258 0.4191637
0.13496658 -0.12135651 0.41917726
0.13573317 -0.12136587 0.4192096
0.13650738 -0.1213819 0.41926497
0.13728905 -0.12140436 0.41934255
0.13807756 -0.12143259 0.41944006
0.13887295 -0.12146653 0.4195573
0.1396753 -0.12150616 0.41969419
0.14048673 -0.1215532 0.41985667
0.14130552 -0.1216061 0.42003936
0.14213093 -0.12166407 0.4202396
0.14297317 -0.12173577 0.42048728
0.14382751 -0.12181697 0.42076775
0.14468887 -0.12190323 0.42106569
0.14556098 -0.12199759 0.42139161
0.14645961 -0.12211307 0.42179051
0.14736463 -0.12223268 0.42220363
0.14829205 -0.12236954 0.42267635
0.1492442 -0.1225253 0.42321438
0.15021092 -0.12269136 0.42378795
0.15122344 -0.12289297 0.42448434
0.15225433 -0.1231074 0.42522502
0.15334764 -0.1233699 0.42613173
0.15448612 -0.12366594 0.42715427
0.15571284 -0.12402934 0.42840949
0.15705402 -0.12447986 0.42996562
0.15867849 -0.12514937 0.43227819
0.10537123 -0.12878706 0.4476321
0.10548071 -0.12794048 0.4446896
0.10578118 -0.12733659 0.44259062
0.10614318 -0.12681526 0.44077861
0.10656485 -0.12637244 0.43923947
0.10701781 -0.125973 0.4378511
0.10749658 -0.12560956 0.4365879
0.10799932 -0.12527922 0.43543971
0.10852047 -0.12497484 0.43438175
0.10905979 -0.1246956 0.43341118
0.1096009 -0.12442238 0.43246153
0.1101664 -0.1241805 0.43162084
0.11073585 -0.12394644 0.43080729
0.11131737 -0.12372907 0.43005177
0.11190136 -0.12351742 0.4293161
0.11249802 -0.12332258 0.42863891
0.11310376 -0.12314027 0.42800525
0.11370823 -0.12295907 0.42737544
0.11432533 -0.12279388 0.42680126
0.11494754 -0.12263634 0.42625371
0.11557456 -0.122486 0.42573115
0.1162082 -0.12234461 0.42523971
0.11684268 -0.12220595 0.42475778
0.11748799 -0.12208036 0.42432123
0.11813682 -0.12196001 0.42390296
0.11878492 -0.12184048 0.42348748
0.11944468 -0.12173436 0.42311865
0.12010793 -0.12163311 0.42276675
0.12077128 -0.12153325 0.42241964
0.12144218 -0.12144218 0.42210311
0.1221191 -0.12135823 0.42181131
0.12279899 -0.12127826 0.42153335
0.12348021 -0.12120057 0.42126334
0.12416983 -0.12113204 0.42102513
0.12486478 -0.1210695 0.42080775
0.12556101 -0.12100895 0.42059731
0.12626071 -0.12095246 0.42040095
0.12696719 -0.12090308 0.42022935
0.12767972 -0.12086003 0.42007968
0.12839618 -0.12082119 0.4199447
0.12911505 -0.12078504 0.41981906
0.12983857 -0.12075365 0.41970995
0.13056681 -0.12072699 0.41961727
0.13130249 -0.12070748 0.41954947
0.13204303 -0.12069263 0.41949785
0.13278946 -0.1206833 0.41946542
0.13354091 -0.12067861 0.41944912
0.13429748 -0.12067857 0.419449
0.13505974 -0.12068363 0.41946658
0.13582754 -0.12069356 0.41950107
0.13660131 -0.12070864 0.41955352
0.13738227 -0.12072988 0.41962731
0.13816988 -0.12075669 0.41972053
0.13896404 -0.12078891 0.4198325
0.13976844 -0.12082963 0.41997403
0.14058244 -0.12087817 0.42014274
0.14140444 -0.12093302 0.42033339
0.14223586 -0.12099531 0.4205499
0.14307377 -0.12106241 0.42078313
0.14392632 -0.12114115 0.42105681
0.14479539 -0.12123288 0.42137563
0.14567229 -0.12133019 0.42171386
0.14656278 -0.12143773 0.42208764
0.14747991 -0.12156612 0.4225339
0.14840287 -0.12169798 0.4229922
0.14936157 -0.12185764 0.42354715
0.15033557 -0.1220281 0.42413962
0.15134741 -0.12222741 0.42483237
0.15238722 -0.12244716 0.42559618
0.15348409 -0.12271033 0.4265109
0.15463603 -0.1230147 0.42756879
0.1558606 -0.12337352 0.42881599
0.15724759 -0.12385675 0.43049553
0.15894374 -0.12457753 0.4330008
0.10543892 -0.12806183 0.44791964
0.10555471 -0.12722754 0.44500157
0.10583791 -0.12660611 0.442828
0.10621006 -0.12609959 0.44105634
0.10662316 -0.12564886 0.43947983
0.10707935 -0.12525518 0.43810287
0.10755828 -0.12489368 0.43683848
0.1080631 -0.12456729 0.43569684
0.10857716 -0.12425617 0.43460867
0.10912038 -0.12398265 0.43365198
0.10966768 -0.12371764 0.43272504
0.11022831 -0.12347129 0.4318634
0.11079451 -0.1232346 0.43103552
0.11138032 -0.12302287 0.43029496
0.11196444 -0.1228122 0.42955813
0.11256298 -0.12262015 0.42888638
0.1131632 -0.12243254 0.4282302
0.11377607 -0.12226107 0.42763042
0.11439355 -0.12209681 0.42705593
0.11500926 -0.12193289 0.42648259
0.11564151 -0.12178857 0.42597777
0.11627544 -0.1216479 0.42548576
0.11691145 -0.12151125 0.42500779
0.11755586 -0.12138504 0.42456636
0.11820503 -0.12126536 0.42414775
0.11885698 -0.12115004 0.42374441
0.11951553 -0.12104288 0.42336962
0.12017904 -0.12094208 0.42301702
0.12084365 -0.12084365 0.42267275
0.12151717 -0.1207553 0.42236373
0.12219449 -0.12067182 0.42207173
0.1228706 -0.12058818 0.42177919
0.12355896 -0.12051751 0.42153201
0.12424914 -0.12044947 0.42129403
0.12494215 -0.12038498 0.42106849
0.12563689 -0.12032295 0.4208515
0.12634312 -0.12027258 0.42067531
0.12705073 -0.12022413 0.42050585
0.12776312 -0.12018074 0.4203541
0.12847725 -0.12013948 0.4202098
0.12919682 -0.12010379 0.42008495
0.12992562 -0.12007704 0.41999137
0.13065775 -0.12005364 0.41990954
0.13139366 -0.12003397 0.41984075
0.13213444 -0.12001896 0.41978824
0.13288087 -0.12000922 0.41975418
0.13363244 -0.1200042 0.41973662
0.13438976 -0.12000437 0.41973722
0.13515316 -0.12000995 0.41975674
0.13592257 -0.12002076 0.41979456
0.13669871 -0.12003737 0.41985264
0.13748159 -0.12005968 0.41993067
0.13827121 -0.1200876 0.42002833
0.13906834 -0.1201217 0.42014757
0.13987273 -0.12016167 0.4202874
0.14068393 -0.12020703 0.42044604
0.14150791 -0.12026276 0.42064098
0.14234222 -0.12032663 0.42086437
0.14318518 -0.12039709 0.42111084
0.14403692 -0.12047415 0.42138037
0.14490564 -0.12056454 0.42169648
0.14578833 -0.12066554 0.42204976
0.1466814 -0.12077403 0.42242923
0.147596 -0.12089905 0.42286652
0.14853162 -0.1210399 0.42335919
0.14948396 -0.12119287 0.42389423
0.15047057 -0.12137193 0.42452052
0.15148059 -0.12156796 0.42520615
0.15253328 -0.12179609 0.42600408
0.15363598 -0.12206167 0.42693299
0.15479384 -0.12236821 0.42800516
0.15604784 -0.1227473 0.42933112
0.15744162 -0.12323208 0.43102673
0.15923974 -0.12402702 0.43380716
0.10554329 -0.12737983 0.44836304
0.10564759 -0.12653609 0.44539315
0.10591658 -0.12590083 0.44315714
0.10627809 -0.12538427 0.44133887
0.10669984 -0.12494591 0.43979588
0.10714751 -0.12454415 0.43838173
0.10762573 -0.12418354 0.43711242
0.10813345 -0.12386195 0.43598047
0.10865133 -0.12355657 0.43490556
0.10918125 -0.12326916 0.43389389
0.10973632 -0.12301403 0.43299586
0.11029721 -0.12276898 0.43213335
0.11086741 -0.12253766 0.43131912
0.11144377 -0.12231633 0.43054006
0.11203467 -0.12211391 0.42982757
0.11263406 -0.12192347 0.42915723
0.11323254 -0.12173464 0.42849258
0.11384439 -0.12156265 0.4278872
0.11446185 -0.12139893 0.42731091
0.11508559 -0.12124402 0.42676565
0.11571413 -0.12109619 0.42624527
0.11634276 -0.12095039 0.42573211
0.11698743 -0.12082309 0.425284
0.11763167 -0.120697 0.42484018
0.11827572 -0.12057233 0.42440137
0.11893458 -0.12046429 0.42402107
0.11959342 -0.1203576 0.42364553
0.12025227 -0.12025227 0.42327479
0.1209246 -0.12016167 0.42295587
0.12159707 -0.12007235 0.42264149
0.12226997 -0.11998455 0.42233247
0.12295523 -0.1199099 0.4220697
0.12364101 -0.11983667 0.42181191
0.12433083 -0.11976824 0.42157105
0.12502329 -0.11970315 0.42134196
0.12572616 -0.11964876 0.42115051
0.12642916 -0.11959514 0.42096177
0.12713711 -0.11954684 0.42079175
0.12784721 -0.11950111 0.42063078
0.12856744 -0.11946533 0.42050484
0.12929159 -0.11943358 0.42039311
0.1300189 -0.11940511 0.42029288
0.13074981 -0.11938026 0.42020541
0.13148519 -0.11935975 0.42013323
0.13222636 -0.11934471 0.42008027
0.13297407 -0.11933571 0.42004859
0.13372806 -0.1193324 0.42003697
0.13448755 -0.11933403 0.42004269
0.13525225 -0.11934022 0.42006448
0.13602261 -0.11935132 0.42010355
0.1367989 -0.11936747 0.42016038
0.13758191 -0.11938926 0.42023709
0.13837503 -0.11941954 0.4203437
0.1391755 -0.11945582 0.42047137
0.13998309 -0.11949776 0.42061901
0.14079776 -0.11954527 0.42078623
0.14161988 -0.11959855 0.42097378
0.14245316 -0.11966065 0.42119238
0.14330198 -0.11973507 0.42145431
0.14415748 -0.11981427 0.42173308
0.14502253 -0.11990052 0.42203665
0.14591147 -0.12000552 0.42240626
0.14680831 -0.12011589 0.42279476
0.14772394 -0.12024042 0.42323309
0.14866401 -0.12038346 0.42373654
0.149618 -0.12053624 0.42427433
0.15061243 -0.12071988 0.42492074
0.15162545 -0.1209165 0.42561281
0.15269032 -0.12115227 0.42644268
0.15380137 -0.12142213 0.42739257
0.15497313 -0.121737 0.42850086
0.15624781 -0.12212918 0.4298813
0.15771072 -0.12266389 0.43176341
0.15963961 -0.12355401 0.43489653
0.1056819 -0.1267373 0.44895187
0.10574064 -0.12584342 0.44578543
0.10601666 -0.12521967 0.44357586
0.10636037 -0.12468462 0.44168052
0.10677663 -0.12424196 0.44011241
0.10723208 -0.12385108 0.43872777
0.10770407 -0.12348489 0.43743059
0.10820389 -0.1231557 0.43626449
0.10872916 -0.12286002 0.43521708
0.10925914 -0.12257387 0.43420342
0.10980948 -0.12231448 0.43328455
0.1103662 -0.1220658 0.43240365
0.11094376 -0.12184349 0.43161616
0.11152031 -0.1216232 0.43083578
0.11210994 -0.12142011 0.43011636
0.11270523 -0.1212259 0.4294284
0.11331128 -0.12104584 0.42879057
0.11392337 -0.12087463 0.42818406
0.11453517 -0.12070541 0.42758462
0.11516203 -0.12055424 0.4270491
0.11579082 -0.12040707 0.42652777
0.11642499 -0.1202674 0.42603302
0.11706479 -0.12013534 0.42556521
0.11770815 -0.12000863 0.42511636
0.11836065 -0.11989283 0.42470613
0.11901509 -0.11978046 0.42430809
0.11967141 -0.11967141 0.42392179
0.12033915 -0.11957509 0.42358059
0.12100752 -0.11948062 0.42324594
0.1216784 -0.11938978 0.42292416
0.12235868 -0.11930925 0.42263886
0.12304133 -0.11923201 0.42236525
0.12372754 -0.11915914 0.42210713
0.12441682 -0.11909011 0.4218626
0.12511632 -0.11903163 0.42165545
0.12581554 -0.11897361 0.42144993
0.12651902 -0.11892029 0.42126104
0.12722844 -0.11887313 0.421094
0.12794481 -0.11883302 0.4209519
0.1286644 -0.11879634 0.42082196
0.1293865 -0.1187624 0.42070171
0.13011231 -0.11873222 0.42059484
0.13084635 -0.11870988 0.42051569
0.13158664 -0.11869343 0.42045742
0.13233151 -0.11868127 0.42041433
0.13308069 -0.11867309 0.42038536
0.13383515 -0.11866969 0.42037332
0.13459548 -0.11867151 0.42037979
0.13536142 -0.11867822 0.42040354
0.13613355 -0.11869026 0.42044619
0.13691214 -0.11870775 0.42050815
0.1376972 -0.11873064 0.42058924
0.13848884 -0.11875892 0.42068943
0.13928667 -0.11879218 0.42080721
0.1400958 -0.11883464 0.42095765
0.14091566 -0.11888572 0.42113858
0.14174265 -0.11894222 0.42133874
0.14257628 -0.11900366 0.42155638
0.14342059 -0.11907333 0.42180318
0.14428483 -0.11915872 0.42210564
0.14515562 -0.11924858 0.42242399
0.14603783 -0.11934685 0.42277208
0.14694642 -0.11946552 0.42319247
0.14786033 -0.11958729 0.42362383
0.14880769 -0.11973473 0.42414609
0.14976838 -0.11989131 0.42470077
0.15076582 -0.12007558 0.42535353
0.15178482 -0.12027507 0.42606017
0.15286167 -0.12051814 0.42692125
0.15398219 -0.12079305 0.42789507
0.15517119 -0.12111866 0.42904851
0.15647845 -0.12153289 0.43051589
0.15798408 -0.12209634 0.43251181
0.16021802 -0.12321435 0.43647224
0.1058198 -0.12609179 0.44953766
0.1058685 -0.12519051 0.44632447
0.10611691 -0.12453721 0.44399533
0.10646661 -0.12401167 0.44212168
0.10686034 -0.12354486 0.44045743
0.1073168 -0.12315691 0.43907437
0.10779518 -0.12279963 0.43780062
0.10828625 -0.1224619 0.43659654
0.10880709 -0.12216248 0.43552905
0.10934216 -0.1218832 0.43453336
0.1098946 -0.12162712 0.43362042
0.11045002 -0.12137794 0.43273205
0.11102021 -0.12114837 0.43191358
0.11160022 -0.12093264 0.43114448
0.11219389 -0.1207346 0.43043843
0.11278519 -0.12053675 0.42973307
0.1133906 -0.12035657 0.42909071
0.11400247 -0.12018565 0.42848134
0.11462151 -0.12002455 0.42790696
0.11524561 -0.11987085 0.42735901
0.11586843 -0.11971788 0.42681366
0.11650974 -0.11958589 0.42634311
0.11714989 -0.11945448 0.42587459
0.11779334 -0.1193281 0.42542404
0.1184457 -0.11921234 0.42501134
0.1191005 -0.1191005 0.42461261
0.11976068 -0.11899544 0.42423803
0.12042615 -0.11889693 0.42388684
0.12109495 -0.11880293 0.42355171
0.12176933 -0.11871556 0.42324021
0.12244988 -0.11863524 0.42295387
0.1231323 -0.11855773 0.42267752
0.12381807 -0.11848436 0.42241597
0.12451405 -0.11842162 0.42219228
0.12520947 -0.1183591 0.42196938
0.12590908 -0.11830127 0.42176321
0.12661685 -0.11825178 0.42158675
0.12732917 -0.11820707 0.4214274
0.1280442 -0.11816543 0.42127889
0.12876152 -0.11812634 0.42113957
0.12948658 -0.11809479 0.42102709
0.13021882 -0.11807012 0.42093912
0.13095437 -0.11804873 0.42086285
0.13169396 -0.11803118 0.4208003
0.13243827 -0.11801805 0.42075351
0.13318749 -0.11800943 0.42072275
0.13394247 -0.11800597 0.42071041
0.13470346 -0.11800782 0.420717
0.13547094 -0.1180153 0.42074367
0.13624498 -0.11802838 0.42079031
0.13702667 -0.11804791 0.42085993
0.137815 -0.1180729 0.42094904
0.13861004 -0.11810335 0.42105758
0.13941179 -0.11813915 0.42118523
0.14022025 -0.11818021 0.42133161
0.14103556 -0.11822657 0.4214969
0.14186758 -0.11828637 0.4217101
0.14270727 -0.11835191 0.42194372
0.14355439 -0.11842286 0.42219669
0.14441669 -0.11850552 0.42249137
0.14529294 -0.11859869 0.42282358
0.14617912 -0.11869898 0.42318109
0.14708853 -0.11881696 0.42360175
0.14801262 -0.11894554 0.42406014
0.1489587 -0.11909037 0.42457649
0.14992906 -0.11925304 0.42515641
0.15093003 -0.11943827 0.4258168
0.15196101 -0.11964526 0.42655474
0.15304682 -0.1198931 0.42743832
0.15418142 -0.1201765 0.42844871
0.15539378 -0.12051737 0.42966396
0.15673383 -0.1209534 0.43121848
0.15835567 -0.12160151 0.43352911
0.10600801 -0.12454933 0.44691259
0.10623442 -0.12387335 0.44448701
0.10657305 -0.12333735 0.44256371
0.10697146 -0.12287799 0.44091544
0.10740946 -0.12247057 0.43945351
0.10788658 -0.12211338 0.4381718
0.10838254 -0.12178256 0.43698478
0.10890132 -0.12148198 0.4359062
0.10942934 -0.12119594 0.43487984
0.10997982 -0.12093866 0.43395665
0.1105415 -0.12069726 0.43309045
0.11111072 -0.12046741 0.4322657
0.11168772 -0.12024915 0.43148252
0.11227784 -0.12004793 0.4307605
0.11287466 -0.1198566 0.43007395
0.1134816 -0.11967855 0.42943507
0.11408681 -0.1195011 0.42879835
0.11470799 -0.11934265 0.42822981
0.1153326 -0.11918987 0.4276816
0.11596254 -0.1190446 0.42716032
0.11659854 -0.11890742 0.42666808
0.11723512 -0.11877263 0.42618442
0.1178863 -0.11865428 0.42575976
0.11853731 -0.11853731 0.42534003
0.11918919 -0.1184227 0.42492878
0.11985462 -0.11832293 0.4245708
0.12051967 -0.11822405 0.424216
0.12118727 -0.11812892 0.42387462
0.12186629 -0.11804602 0.42357719
0.12254518 -0.11796405 0.42328304
0.12322677 -0.11788567 0.4230018
0.12391967 -0.11781901 0.4227626
0.1246115 -0.11775216 0.42252272
0.12530725 -0.11768978 0.42229891
0.12601207 -0.11763664 0.42210823
0.12672128 -0.11758821 0.42193443
0.12743157 -0.11754137 0.42176634
0.12814514 -0.11749808 0.42161101
0.12887019 -0.11746575 0.42149502
0.12959737 -0.11743573 0.42138731
0.13032809 -0.11740927 0.42129233
0.13106258 -0.11738648 0.42121059
0.13180143 -0.11736784 0.42114371
0.13254939 -0.11735748 0.42110655
0.13330233 -0.11735163 0.42108554
0.13406037 -0.1173503 0.42108074
0.13482341 -0.11735334 0.42109165
0.13559276 -0.11736181 0.42112204
0.1363679 -0.11737515 0.42116994
0.13714895 -0.11739342 0.42123547
0.13793555 -0.11741622 0.42131728
0.13873233 -0.11744737 0.42142907
0.1395386 -0.11748618 0.42156833
0.14035153 -0.11753014 0.42172608
0.14117147 -0.11757947 0.42190307
0.14199796 -0.11763371 0.42209768
0.14284395 -0.11770342 0.42234781
0.14369649 -0.11777776 0.42261457
0.14455459 -0.11785585 0.42289481
0.14543945 -0.11795482 0.42324993
0.14633097 -0.11805815 0.42362067
0.1472397 -0.1181742 0.4240371
0.14817265 -0.1183084 0.42451864
0.14911883 -0.11845172 0.42503291
0.15010165 -0.11862253 0.42564583
0.15110561 -0.11880822 0.42631215
0.15215157 -0.1190249 0.42708963
0.15324701 -0.11927789 0.42799744
0.15440182 -0.11957434 0.42906114
0.15564016 -0.11993218 0.43034518
0.15704258 -0.1204123 0.43206793
0.15876113 -0.12112886 0.43463916
0.10615419 -0.12391382 0.44752887
0.10637532 -0.12323481 0.44507653
0.10669138 -0.12267511 0.44305512
0.10708281 -0.12220974 0.44137439
0.10752047 -0.12180363 0.43990767
0.10799019 -0.12143952 0.43859264
0.10847972 -0.12110281 0.43737659
0.10899898 -0.12080392 0.43629712
0.10953227 -0.12052475 0.43528885
0.11007361 -0.12025835 0.43432674
0.11063313 -0.12001545 0.43344945
0.11120279 -0.11978687 0.43262389
0.11178571 -0.11957565 0.43186107
0.11237152 -0.11937044 0.43111992
0.11296686 -0.11917809 0.43042526
0.11357277 -0.11899945 0.42978007
0.11418391 -0.11882868 0.42916331
0.11480407 -0.11866953 0.42858851
0.11542264 -0.11851087 0.4280155
0.11605681 -0.11837023 0.42750758
0.11669309 -0.11823359 0.42701405
0.11733361 -0.118103 0.42654243
0.11798134 -0.11798134 0.42610303
0.11863089 -0.11786306 0.42567584
0.11929041 -0.11775613 0.42528966
0.11995229 -0.11765289 0.42491677
0.12061428 -0.11755106 0.42454901
0.12129053 -0.11746434 0.42423582
0.1219663 -0.11737823 0.42392483
0.12264294 -0.11729403 0.42362073
0.12333274 -0.11722337 0.42336556
0.12402198 -0.11715307 0.42311165
0.1247142 -0.11708641 0.4228709
0.12541521 -0.11702877 0.42266273
0.12612095 -0.11697624 0.42247298
0.12682675 -0.11692437 0.42228565
0.12753953 -0.11687951 0.42212364
0.12826009 -0.11684228 0.4219892
0.12898292 -0.11680754 0.4218637
0.12970833 -0.11677554 0.42174816
0.13043875 -0.11674839 0.42165008
0.13117908 -0.11673036 0.42158499
0.13192309 -0.11671582 0.42153245
0.13267156 -0.11670535 0.42149466
0.1334248 -0.11669919 0.4214724
0.13418353 -0.11669786 0.42146757
0.13494802 -0.11670153 0.42148083
0.13571903 -0.11671076 0.42151418
0.1364966 -0.1167255 0.42156744
0.13728049 -0.11674546 0.42163953
0.13807076 -0.1167706 0.42173028
0.13886736 -0.11680077 0.42183927
0.13966952 -0.11683526 0.42196384
0.14048757 -0.11688261 0.42213485
0.14131269 -0.1169353 0.42232513
0.14214385 -0.11699239 0.42253134
0.14298524 -0.11705724 0.42276555
0.14384396 -0.11713554 0.42304832
0.14470997 -0.1172189 0.42334938
0.145592 -0.11731429 0.42369393
0.14648975 -0.1174213 0.42408037
0.14740112 -0.11753804 0.42450202
0.14833967 -0.11767514 0.42499715
0.14929326 -0.11782271 0.42553011
0.1502811 -0.11799565 0.4261547
0.15129882 -0.11819018 0.42685726
0.15235224 -0.11841048 0.42765293
0.153469 -0.11867753 0.42861742
0.15464097 -0.1189844 0.42972571
0.15592347 -0.11937283 0.43112856
0.15737495 -0.11988613 0.43298239
0.15934333 -0.12078618 0.43623301
0.10635755 -0.12334241 0.44838622
0.10651666 -0.12259465 0.44566789
0.10683307 -0.12203778 0.44364351
0.10720681 -0.1215542 0.44188553
0.1076317 -0.12113531 0.44036275
0.10810594 -0.12077769 0.43906271
0.10859405 -0.12044068 0.43783757
0.10909872 -0.12012675 0.43669635
0.10963552 -0.11985245 0.43569919
0.11017694 -0.11958706 0.43473443
0.11073928 -0.11934798 0.43386531
0.11130021 -0.11911075 0.43300289
0.11188393 -0.11890104 0.43224055
0.11246995 -0.11869666 0.43149754
0.11307075 -0.11851058 0.43082109
0.11367135 -0.11832684 0.43015313
0.1142821 -0.11815607 0.42953235
0.11490216 -0.11799717 0.42895469
0.11552602 -0.11784427 0.42839885
0.1161588 -0.11770244 0.42788327
0.11678986 -0.11756075 0.42736819
0.11743522 -0.11743522 0.42691183
0.11808329 -0.11731402 0.42647123
0.11873351 -0.11719651 0.42604405
0.11939262 -0.11708923 0.42565405
0.12005404 -0.11698556 0.4252772
0.12072236 -0.11688991 0.42492947
0.1213956 -0.11680019 0.42460331
0.1220702 -0.11671289 0.42428595
0.12275381 -0.11663524 0.42400369
0.12344026 -0.11656123 0.42373464
0.12412946 -0.11649072 0.42347831
0.12482633 -0.11642823 0.42325112
0.12552837 -0.11637127 0.42304409
0.12623119 -0.11631576 0.42284226
0.12694065 -0.11626697 0.42266488
0.12765722 -0.11622523 0.42251316
0.12837623 -0.1161862 0.4223713
0.12909766 -0.11614981 0.42223898
0.12982804 -0.11612185 0.42213735
0.13056408 -0.11609925 0.42205521
0.13130327 -0.1160797 0.42198411
0.13204636 -0.11606381 0.42192635
0.13279393 -0.11605201 0.42188346
0.1335476 -0.11604564 0.42186031
0.1343085 -0.11604559 0.42186013
0.13507529 -0.1160506 0.42187834
0.13584737 -0.11606009 0.42191282
0.13662657 -0.1160755 0.42196885
0.13741356 -0.11609733 0.42204821
0.13820791 -0.11612511 0.42214918
0.13900937 -0.11615851 0.42227063
0.13981625 -0.11619607 0.42240718
0.14062895 -0.11623802 0.42255968
0.14145836 -0.11629326 0.42276049
0.14229548 -0.11635421 0.42298207
0.14313796 -0.11641888 0.42321712
0.14399862 -0.11649755 0.42350316
0.14487162 -0.11658534 0.42382228
0.14575218 -0.11667825 0.42416003
0.14665999 -0.11679189 0.42457315
0.14757328 -0.11690871 0.42499781
0.14852108 -0.1170515 0.4255169
0.14947766 -0.11719971 0.4260557
0.15047975 -0.11738191 0.42671803
0.15150094 -0.11757707 0.4274275
0.15257536 -0.11781135 0.42827919
0.15370134 -0.1180829 0.42926633
0.15491334 -0.11841746 0.43048257
0.15622757 -0.11882646 0.4319694
0.15779449 -0.11942263 0.43413666
0.10656165 -0.12276874 0.44924664
0.10669938 -0.12199967 0.44643241
0.10697525 -0.12139888 0.44423392
0.10734949 -0.12091783 0.44247362
0.10776152 -0.12048613 0.44089392
0.10822169 -0.12011418 0.43953285
0.10871383 -0.11978287 0.43832049
0.10921872 -0.1194703 0.43717667
0.1097486 -0.11918934 0.43614858
0.11028454 -0.11891892 0.43515903
0.11084772 -0.11868148 0.43429017
0.11141327 -0.1184499 0.43344274
0.1119936 -0.11823715 0.43266425
0.1125752 -0.11802868 0.43190137
0.11317487 -0.11784188 0.43121782
0.11377581 -0.11765895 0.43054843
0.11439193 -0.11749408 0.42994514
0.1150069 -0.11733027 0.4293457
0.11563115 -0.11717805 0.42878869
0.11626378 -0.11703629 0.42826995
0.11689875 -0.11689875 0.42776662
0.11754376 -0.11677298 0.42730641
0.1181874 -0.1166475 0.42684722
0.11884256 -0.11653493 0.42643532
0.11950241 -0.1164284 0.42604548
0.12016149 -0.11632247 0.42565784
0.12083241 -0.11622927 0.42531681
0.12150586 -0.11613967 0.42498893
0.12218237 -0.1160541 0.42467582
0.12286682 -0.11597709 0.42439404
0.12355338 -0.11590301 0.42412296
0.12424441 -0.11583403 0.4238705
0.12494355 -0.11577337 0.42364857
0.12564406 -0.11571474 0.42343402
0.12634869 -0.11566058 0.4232358
0.12706266 -0.11561557 0.42307112
0.12777793 -0.11557228 0.42291272
0.12849496 -0.11553108 0.42276195
0.12922342 -0.11550058 0.42265034
0.12995549 -0.11547365 0.42255178
0.13069004 -0.11544921 0.42246237
0.13142768 -0.11542779 0.42238396
0.13217472 -0.11541481 0.42233649
0.13292773 -0.11540717 0.4223085
0.13368548 -0.1154037 0.42229584
0.13444811 -0.11540447 0.42229864
0.13521649 -0.11541013 0.42231935
0.13599102 -0.11542095 0.42235896
0.13677114 -0.11543638 0.42241538
0.13755716 -0.11545656 0.42248926
0.13834888 -0.11548129 0.42257974
0.1391544 -0.11551722 0.42271122
0.13996698 -0.11555857 0.42286253
0.14078484 -0.11560381 0.42302808
0.14160982 -0.11565438 0.42321312
0.1424534 -0.11571952 0.42345148
0.14330129 -0.11578745 0.42370006
0.14416143 -0.11586449 0.42398199
0.14504114 -0.11595637 0.42431819
0.14592445 -0.11605015 0.42466137
0.14683895 -0.11616763 0.42509127
0.14775804 -0.11628749 0.42552987
0.14871296 -0.11643418 0.42606664
0.14967702 -0.11658647 0.42662391
0.15068926 -0.11677454 0.42731214
0.15172631 -0.11697983 0.42806333
0.15280914 -0.11721814 0.42893541
0.15396665 -0.11751107 0.43000731
0.15519887 -0.11785779 0.43127605
0.15659304 -0.11832342 0.43297991
0.15830024 -0.11901978 0.4355281
0.10689321 -0.12141456 0.44724339
0.10715011 -0.12079469 0.44496006
0.10749248 -0.12027969 0.44306299
0.1079056 -0.11985087 0.44148341
0.10836163 -0.11947564 0.44010121
0.10883828 -0.11912844 0.43882227
0.10933995 -0.11881344 0.43766192
0.10987233 -0.11853609 0.43664026
0.11040931 -0.11826763 0.43565133
0.11096296 -0.11802068 0.43474168
0.11152657 -0.11778771 0.43388352
0.11210732 -0.11757597 0.43310356
0.1126932 -0.11737251 0.43235406
0.11328965 -0.11718276 0.43165514
0.11388844 -0.11699802 0.4309746
0.11450201 -0.11683086 0.43035886
0.11511736 -0.11666777 0.4297581
0.11574677 -0.11652099 0.42921743
0.1163755 -0.1163755 0.42868149
0.11701164 -0.11623929 0.42817974
0.11765555 -0.11611253 0.42771283
0.11830093 -0.11598886 0.42725727
0.11895829 -0.11587846 0.42685062
0.11961454 -0.11576842 0.42644525
0.12027848 -0.11566716 0.42607227
0.12094986 -0.11557431 0.42573023
0.12162032 -0.11548176 0.42538929
0.12230094 -0.11539994 0.42508793
0.12298581 -0.11532314 0.42480502
0.12367021 -0.11524685 0.42452401
0.12436668 -0.11518268 0.42428762
0.12506507 -0.11512106 0.42406064
0.12576394 -0.11506063 0.42383802
0.1264758 -0.11501273 0.42366159
0.12718728 -0.11496508 0.42348608
0.12790124 -0.11492022 0.42332083
0.12862691 -0.11488635 0.42319605
0.1293548 -0.11485485 0.42308003
0.1300849 -0.11482567 0.42297256
0.13082081 -0.11480194 0.42288512
0.13156591 -0.11478648 0.4228282
0.13231404 -0.11477385 0.42278165
0.13306674 -0.11476531 0.42275017
0.13382462 -0.11476129 0.42273536
0.13458823 -0.1147622 0.42273873
0.13535826 -0.11476855 0.42276213
0.13613516 -0.11478062 0.42280659
0.13691902 -0.1147984 0.42287207
0.13770977 -0.11482171 0.42295796
0.13850537 -0.1148488 0.42305773
0.13930681 -0.11488041 0.42317417
0.14012243 -0.11492331 0.42333218
0.14094625 -0.11497241 0.42351308
0.14177439 -0.1150245 0.42370495
0.14261793 -0.11508846 0.42394054
0.14347266 -0.11516071 0.4242067
0.14433292 -0.11523662 0.42448631
0.14521928 -0.11533246 0.42483935
0.14610972 -0.11543051 0.42520052
0.14702758 -0.11554909 0.42563733
0.14795621 -0.11567485 0.42610058
0.14891604 -0.11582359 0.42664847
0.14989127 -0.1159827 0.42723459
0.15091053 -0.11617409 0.42793959
0.15196849 -0.11639318 0.42874661
0.15306473 -0.1166392 0.42965287
0.15424746 -0.11694832 0.43079156
0.15553401 -0.11733268 0.43220738
0.15698749 -0.11783849 0.43407059
0.15900402 -0.11875983 0.43746442
0.10712136 -0.12086524 0.44819799
0.10733595 -0.12020019 0.44573182
0.10766756 -0.11967509 0.44378462
0.10805219 -0.11921625 0.44208312
0.10850643 -0.11884038 0.44068933
0.10898354 -0.11849482 0.43940791
0.10947605 -0.1181709 0.43820673
0.10999653 -0.11788158 0.43713385
0.11053638 -0.117617 0.43615273
0.11109015 -0.11737086 0.43523997
0.11165449 -0.11713927 0.43438119
0.11222775 -0.1169202 0.43356884
0.11281145 -0.11671495 0.43280771
0.11340833 -0.11652609 0.43210736
0.11401134 -0.11634605 0.4314397
0.11462328 -0.1161775 0.43081468
